ncols 478
nrows 31
xllcorner    425024
yllcorner    486892
cellsize     2
NODATA_value -9999
-9999 -9999 -9999 -9999 -9999 -9999 -9999 -9999 -9999 -9999 -9999 -9999 -9999 -9999 -9999 -9999 -9999 -9999 -9999 -9999 -9999 -9999 -9999 -9999 -9999 -9999 -9999 -9999 -9999 -9999 -9999 -9999 -9999 -9999 -9999 -9999 -9999 -9999 -9999 -9999 -9999 -9999 -9999 -9999 -9999 -9999 -9999 -9999 -9999 -9999 -9999 -9999 -9999 -9999 -9999 -9999 -9999 -9999 -9999 -9999 -9999 -9999 -9999 -9999 -9999 -9999 -9999 -9999 -9999 -9999 -9999 -9999 -9999 -9999 -9999 -9999 -9999 -9999 -9999 -9999 -9999 -9999 -9999 -9999 -9999 -9999 -9999 -9999 -9999 -9999 -9999 -9999 -9999 -9999 -9999 -9999 -9999 -9999 -9999 -9999 -9999 -9999 -9999 -9999 -9999 -9999 -9999 -9999 -9999 -9999 -9999 -9999 -9999 -9999 -9999 -9999 -9999 -9999 -9999 -9999 -9999 -9999 -9999 -9999 -9999 -9999 -9999 -9999 -9999 -9999 -9999 -9999 -9999 -9999 -9999 -9999 -9999 -9999 -9999 -9999 -9999 -9999 -9999 -9999 -9999 -9999 -9999 -9999 -9999 -9999 -9999 -9999 -9999 -9999 -9999 -9999 -9999 -9999 -9999 -9999 -9999 -9999 -9999 -9999 -9999 -9999 -9999 -9999 -9999 -9999 -9999 -9999 -9999 -9999 -9999 -9999 -9999 -9999 -9999 -9999 -9999 -9999 -9999 -9999 -9999 -9999 -9999 -9999 -9999 -9999 -9999 -9999 -9999 -9999 -9999 -9999 -9999 -9999 -9999 -9999 -9999 -9999 -9999 -9999 -9999 -9999 -9999 -9999 -9999 -9999 -9999 -9999 -9999 -9999 58.707 58.493 58.29 58.07 57.89 57.668 57.485 57.275 57.063 56.88 56.725 56.635 56.538 56.41 56.313 56.23 56.115 56.008 55.883 55.743 55.558 55.438 55.325 55.273 55.248 55.19 55.173 55.043 54.91 54.94 54.985 55.053 54.89 54.568 54.495 54.445 54.34 54.275 54.208 54.085 53.98 53.825 53.74 53.593 53.468 53.333 53.205 53.015 52.833 52.71 52.533 52.37 52.255 52.123 51.97 51.868 51.76 51.708 51.633 51.543 51.485 51.473 51.43 51.438 51.4 51.48 51.493 51.483 51.513 51.565 51.605 51.633 51.643 51.67 51.698 51.708 51.723 51.68 51.663 51.663 51.603 51.578 51.568 51.588 51.58 51.593 51.583 51.575 51.58 51.583 51.585 51.59 51.588 51.635 51.63 51.6 51.59 51.558 51.545 51.555 51.523 51.508 51.43 51.435 51.39 51.315 51.31 51.298 51.218 51.095 51.068 51.023 50.95 50.953 50.93 50.85 50.835 50.84 50.763 50.685 50.625 50.543 50.345 50.008 49.885 49.733 49.488 49.248 49.028 48.895 48.758 48.735 48.718 48.655 48.598 48.498 48.33 48.098 47.918 47.83 47.728 47.578 47.485 47.423 47.415 47.343 47.33 47.328 47.35 47.385 47.363 47.305 47.265 47.263 47.255 47.263 47.295 47.353 47.3 47.23 47.363 47.43 47.433 47.473 47.493 47.59 47.708 47.815 47.995 48.24 48.673 49.133 49.47 49.648 49.743 49.833 50.21 50.645 50.745 50.758 50.755 50.773 50.75 50.753 50.768 50.785 50.8 50.813 50.803 50.813 50.808 50.795 50.778 50.768 50.713 50.683 50.663 50.618 50.588 50.538 50.533 50.468 50.413 50.373 50.348 50.333 50.333 50.313 50.34 50.335 50.37 50.388 50.413 50.42 50.445 50.51 50.56 50.61 50.74 50.855 50.953 51.098 51.24 51.325 51.43 51.555 51.693 51.775 51.918 52.025 52.153 52.248 52.37 52.508 52.618 52.728 52.863 52.995 53.095 53.223 53.31 53.44 53.553 53.648 53.773 53.835 53.928 54.005 54.1 54.163 54.168 54.17 54.21 54.225 54.2 54.198 54.21 54.253 54.265 54.295 54.28 54.265 54.238 54.2
-9999 -9999 -9999 -9999 -9999 -9999 -9999 -9999 -9999 -9999 -9999 -9999 -9999 -9999 -9999 -9999 -9999 -9999 -9999 -9999 -9999 -9999 -9999 -9999 -9999 -9999 -9999 -9999 -9999 -9999 -9999 -9999 -9999 -9999 -9999 -9999 -9999 -9999 -9999 -9999 -9999 -9999 -9999 -9999 -9999 -9999 -9999 -9999 -9999 -9999 -9999 -9999 -9999 -9999 -9999 -9999 -9999 -9999 -9999 -9999 -9999 -9999 -9999 -9999 -9999 -9999 -9999 -9999 -9999 -9999 -9999 -9999 -9999 -9999 -9999 -9999 -9999 -9999 -9999 -9999 -9999 -9999 -9999 -9999 -9999 -9999 -9999 -9999 -9999 -9999 -9999 -9999 -9999 -9999 -9999 -9999 -9999 -9999 -9999 -9999 -9999 -9999 -9999 -9999 -9999 -9999 -9999 -9999 -9999 -9999 -9999 -9999 -9999 -9999 -9999 -9999 -9999 -9999 -9999 -9999 -9999 -9999 -9999 -9999 -9999 -9999 -9999 -9999 -9999 -9999 -9999 -9999 -9999 -9999 -9999 -9999 -9999 -9999 -9999 -9999 -9999 -9999 -9999 -9999 -9999 -9999 -9999 -9999 -9999 -9999 -9999 -9999 -9999 -9999 -9999 -9999 -9999 -9999 -9999 -9999 -9999 -9999 -9999 -9999 -9999 -9999 -9999 -9999 -9999 -9999 -9999 -9999 -9999 -9999 -9999 -9999 -9999 -9999 -9999 -9999 -9999 -9999 -9999 -9999 -9999 -9999 -9999 -9999 -9999 -9999 -9999 -9999 -9999 -9999 -9999 -9999 -9999 -9999 -9999 -9999 -9999 -9999 -9999 -9999 -9999 -9999 -9999 -9999 -9999 -9999 -9999 -9999 -9999 -9999 -9999 -9999 58.208 57.998 57.77 57.568 57.383 57.19 56.97 56.73 56.61 56.52 56.4 56.275 56.163 56.063 55.95 55.833 55.718 55.563 55.413 55.328 55.245 55.2 55.103 55.085 55.13 54.973 54.815 54.833 54.958 55.005 54.79 54.498 54.425 54.393 54.298 54.265 54.213 54.095 53.933 53.83 53.715 53.638 53.51 53.36 53.203 53.065 52.893 52.738 52.56 52.385 52.298 52.153 52.043 51.943 51.838 51.748 51.673 51.605 51.538 51.528 51.52 51.495 51.485 51.495 51.51 51.53 51.568 51.615 51.65 51.69 51.688 51.703 51.72 51.698 51.69 51.658 51.663 51.653 51.583 51.548 51.568 51.573 51.55 51.568 51.595 51.578 51.598 51.598 51.615 51.648 51.675 51.665 51.67 51.648 51.648 51.628 51.59 51.58 51.573 51.538 51.51 51.468 51.41 51.375 51.315 51.33 51.263 51.178 51.165 51.15 51.118 51.115 51.063 51.035 50.96 50.9 50.815 50.755 50.678 50.488 50.28 50.065 49.928 49.828 49.69 49.503 49.333 49.115 48.91 48.808 48.783 48.775 48.703 48.573 48.463 48.305 48.12 47.943 47.81 47.74 47.665 47.585 47.513 47.44 47.418 47.365 47.405 47.423 47.438 47.415 47.375 47.36 47.345 47.35 47.353 47.39 47.413 47.31 47.318 47.448 47.463 47.43 47.525 47.6 47.705 47.78 47.905 48.118 48.478 48.925 49.308 49.568 49.66 49.705 49.953 50.383 50.728 50.728 50.723 50.718 50.718 50.77 50.768 50.745 50.753 50.773 50.773 50.78 50.755 50.775 50.753 50.73 50.685 50.658 50.613 50.578 50.523 50.478 50.503 50.445 50.383 50.318 50.303 50.293 50.24 50.228 50.255 50.263 50.27 50.238 50.308 50.323 50.345 50.398 50.473 50.538 50.623 50.75 50.873 50.965 51.105 51.248 51.365 51.47 51.59 51.69 51.825 51.955 52.078 52.2 52.32 52.425 52.563 52.67 52.818 52.915 53.038 53.148 53.245 53.38 53.508 53.588 53.718 53.823 53.928 53.988 54.05 54.093 54.135 54.115 54.148 54.168 54.193 54.203 54.22 54.275 54.295 54.3 54.315 54.295 54.278 54.26
-9999 -9999 -9999 -9999 -9999 -9999 -9999 -9999 -9999 -9999 -9999 -9999 -9999 -9999 -9999 -9999 -9999 -9999 -9999 -9999 -9999 -9999 -9999 -9999 -9999 -9999 -9999 -9999 -9999 -9999 -9999 -9999 -9999 -9999 -9999 -9999 -9999 -9999 -9999 -9999 -9999 -9999 -9999 -9999 -9999 -9999 -9999 -9999 -9999 -9999 -9999 -9999 -9999 -9999 -9999 -9999 -9999 -9999 -9999 -9999 -9999 -9999 -9999 -9999 -9999 -9999 -9999 -9999 -9999 -9999 -9999 -9999 -9999 -9999 -9999 -9999 -9999 -9999 -9999 -9999 -9999 -9999 -9999 -9999 -9999 -9999 -9999 -9999 -9999 -9999 -9999 -9999 -9999 -9999 -9999 -9999 -9999 -9999 -9999 -9999 -9999 -9999 -9999 -9999 -9999 -9999 -9999 -9999 -9999 -9999 -9999 -9999 -9999 -9999 -9999 -9999 -9999 -9999 -9999 -9999 -9999 -9999 -9999 -9999 -9999 -9999 -9999 -9999 -9999 -9999 -9999 -9999 -9999 -9999 -9999 -9999 -9999 -9999 -9999 -9999 -9999 -9999 -9999 -9999 -9999 -9999 -9999 -9999 -9999 -9999 -9999 -9999 -9999 -9999 -9999 -9999 -9999 -9999 -9999 -9999 -9999 -9999 -9999 -9999 -9999 -9999 -9999 -9999 -9999 -9999 -9999 -9999 -9999 -9999 -9999 -9999 -9999 -9999 -9999 -9999 -9999 -9999 -9999 -9999 -9999 -9999 -9999 -9999 -9999 -9999 -9999 -9999 -9999 -9999 -9999 -9999 -9999 -9999 -9999 -9999 -9999 -9999 -9999 -9999 -9999 -9999 -9999 -9999 -9999 -9999 -9999 -9999 -9999 -9999 -9999 -9999 -9999 57.928 57.673 57.45 57.24 57.06 56.86 56.668 56.498 56.373 56.273 56.143 56.005 55.905 55.79 55.663 55.558 55.388 55.235 55.185 55.155 55.098 54.983 54.998 55.033 54.82 54.715 54.8 55.013 54.868 54.615 54.47 54.408 54.338 54.28 54.223 54.158 54.083 53.948 53.87 53.768 53.638 53.538 53.42 53.235 53.095 52.925 52.758 52.615 52.445 52.328 52.23 52.14 52.01 51.89 51.815 51.743 51.688 51.613 51.575 51.54 51.543 51.53 51.54 51.565 51.565 51.595 51.648 51.69 51.718 51.72 51.713 51.713 51.72 51.718 51.678 51.653 51.61 51.565 51.56 51.56 51.558 51.55 51.538 51.588 51.59 51.598 51.643 51.673 51.688 51.718 51.708 51.715 51.71 51.67 51.665 51.638 51.633 51.59 51.528 51.52 51.483 51.455 51.39 51.38 51.38 51.29 51.243 51.233 51.173 51.18 51.23 51.23 51.138 50.978 50.913 50.9 50.84 50.69 50.5 50.328 50.135 49.988 49.895 49.783 49.645 49.545 49.39 49.258 49.03 48.865 48.815 48.775 48.695 48.625 48.513 48.39 48.195 48.008 47.898 47.79 47.75 47.668 47.575 47.518 47.48 47.47 47.51 47.54 47.545 47.513 47.475 47.458 47.45 47.423 47.453 47.463 47.43 47.288 47.393 47.455 47.493 47.56 47.58 47.665 47.73 47.845 48.018 48.31 48.675 49.08 49.405 49.573 49.643 49.76 50.178 50.745 50.715 50.723 50.725 50.77 50.748 50.758 50.748 50.733 50.738 50.728 50.73 50.74 50.74 50.705 50.66 50.633 50.61 50.55 50.498 50.465 50.433 50.413 50.36 50.305 50.275 50.235 50.22 50.17 50.158 50.158 50.143 50.148 50.143 50.168 50.193 50.203 50.285 50.345 50.435 50.538 50.653 50.783 50.875 50.998 51.113 51.265 51.333 51.448 51.593 51.695 51.85 51.995 52.083 52.213 52.338 52.47 52.62 52.76 52.83 52.953 53.09 53.203 53.33 53.433 53.563 53.698 53.81 53.87 53.933 53.993 54.028 54.09 54.09 54.123 54.12 54.138 54.173 54.238 54.273 54.28 54.303 54.3 54.285 54.268 54.248
-9999 -9999 -9999 -9999 -9999 -9999 -9999 -9999 -9999 -9999 -9999 -9999 -9999 -9999 -9999 -9999 -9999 -9999 -9999 -9999 -9999 -9999 -9999 -9999 -9999 -9999 -9999 -9999 -9999 -9999 -9999 -9999 -9999 -9999 -9999 -9999 -9999 -9999 -9999 -9999 -9999 -9999 -9999 -9999 -9999 -9999 -9999 -9999 -9999 -9999 -9999 -9999 -9999 -9999 -9999 -9999 -9999 -9999 -9999 -9999 -9999 -9999 -9999 -9999 -9999 -9999 -9999 -9999 -9999 -9999 -9999 -9999 -9999 -9999 -9999 -9999 -9999 -9999 -9999 -9999 -9999 -9999 -9999 -9999 -9999 -9999 -9999 -9999 -9999 -9999 -9999 -9999 -9999 -9999 -9999 -9999 -9999 -9999 -9999 -9999 -9999 -9999 -9999 -9999 -9999 -9999 -9999 -9999 -9999 -9999 -9999 -9999 -9999 -9999 -9999 -9999 -9999 -9999 -9999 -9999 -9999 -9999 -9999 -9999 -9999 -9999 -9999 -9999 -9999 -9999 -9999 -9999 -9999 -9999 -9999 -9999 -9999 -9999 -9999 -9999 -9999 -9999 -9999 -9999 -9999 -9999 -9999 -9999 -9999 -9999 -9999 -9999 -9999 -9999 -9999 -9999 -9999 -9999 -9999 -9999 -9999 -9999 -9999 -9999 -9999 -9999 -9999 -9999 -9999 -9999 -9999 -9999 -9999 -9999 -9999 -9999 -9999 -9999 -9999 -9999 -9999 -9999 -9999 -9999 -9999 -9999 -9999 -9999 -9999 -9999 -9999 -9999 -9999 -9999 -9999 -9999 -9999 -9999 -9999 -9999 -9999 -9999 -9999 -9999 -9999 -9999 -9999 -9999 -9999 -9999 -9999 -9999 -9999 -9999 -9999 -9999 -9999 -9999 57.565 57.36 57.135 56.923 56.74 56.56 56.41 56.25 56.135 55.968 55.863 55.74 55.653 55.53 55.378 55.23 55.123 55.068 55.045 54.97 54.893 54.918 54.85 54.68 54.673 54.768 54.983 54.738 54.453 54.41 54.375 54.303 54.228 54.138 54.113 54.038 53.938 53.863 53.773 53.678 53.54 53.4 53.273 53.135 52.975 52.833 52.683 52.533 52.358 52.278 52.128 52.073 51.958 51.848 51.775 51.718 51.68 51.645 51.625 51.593 51.598 51.605 51.603 51.648 51.643 51.66 51.695 51.713 51.723 51.703 51.718 51.703 51.685 51.643 51.625 51.615 51.583 51.558 51.568 51.545 51.538 51.555 51.573 51.598 51.623 51.643 51.685 51.715 51.735 51.758 51.738 51.728 51.728 51.713 51.678 51.658 51.6 51.535 51.498 51.475 51.465 51.418 51.38 51.348 51.32 51.305 51.263 51.205 51.195 51.23 51.135 51.058 51.04 50.96 50.925 50.888 50.78 50.615 50.39 50.175 50.045 49.923 49.848 49.725 49.633 49.508 49.498 49.363 49.148 48.95 48.843 48.84 48.768 48.685 48.588 48.453 48.308 48.15 47.98 47.86 47.785 47.71 47.618 47.593 47.583 47.603 47.615 47.635 47.63 47.598 47.553 47.568 47.495 47.483 47.5 47.52 47.408 47.268 47.495 47.563 47.568 47.585 47.633 47.695 47.805 47.948 48.173 48.48 48.843 49.218 49.453 49.573 49.7 49.915 50.438 50.713 50.715 50.738 50.753 50.738 50.718 50.733 50.725 50.69 50.69 50.685 50.703 50.678 50.648 50.628 50.598 50.553 50.49 50.443 50.37 50.348 50.323 50.27 50.245 50.243 50.163 50.12 50.11 50.06 49.998 49.998 50.043 50.048 50.018 50.065 50.143 50.183 50.228 50.323 50.428 50.545 50.658 50.775 50.905 50.988 51.125 51.25 51.395 51.51 51.618 51.71 51.875 52.008 52.163 52.27 52.403 52.538 52.7 52.758 52.873 52.983 53.12 53.25 53.398 53.5 53.635 53.738 53.83 53.9 53.918 53.965 54.05 54.083 54.093 54.113 54.135 54.185 54.235 54.29 54.275 54.268 54.275 54.31 54.275 54.285
-9999 -9999 -9999 -9999 -9999 -9999 -9999 -9999 -9999 -9999 -9999 -9999 -9999 -9999 -9999 -9999 -9999 -9999 -9999 -9999 -9999 -9999 -9999 -9999 -9999 -9999 -9999 -9999 -9999 -9999 -9999 -9999 -9999 -9999 -9999 -9999 -9999 -9999 -9999 -9999 -9999 -9999 -9999 -9999 -9999 -9999 -9999 -9999 -9999 -9999 -9999 -9999 -9999 -9999 -9999 -9999 -9999 -9999 -9999 -9999 -9999 -9999 -9999 -9999 -9999 -9999 -9999 -9999 -9999 -9999 -9999 -9999 -9999 -9999 -9999 -9999 -9999 -9999 -9999 -9999 -9999 -9999 -9999 -9999 -9999 -9999 -9999 -9999 -9999 -9999 -9999 -9999 -9999 -9999 -9999 -9999 -9999 -9999 -9999 -9999 -9999 -9999 -9999 -9999 -9999 -9999 -9999 -9999 -9999 -9999 -9999 -9999 -9999 -9999 -9999 -9999 -9999 -9999 -9999 -9999 -9999 -9999 -9999 -9999 -9999 -9999 -9999 -9999 -9999 -9999 -9999 -9999 -9999 -9999 -9999 -9999 -9999 -9999 -9999 -9999 -9999 -9999 -9999 -9999 -9999 -9999 -9999 -9999 -9999 -9999 -9999 -9999 -9999 -9999 -9999 -9999 -9999 -9999 -9999 -9999 -9999 -9999 -9999 -9999 -9999 -9999 -9999 -9999 -9999 -9999 -9999 -9999 -9999 -9999 -9999 -9999 -9999 -9999 -9999 -9999 -9999 -9999 -9999 -9999 -9999 -9999 -9999 -9999 -9999 -9999 -9999 -9999 -9999 -9999 -9999 -9999 -9999 -9999 -9999 -9999 -9999 -9999 -9999 -9999 -9999 -9999 -9999 -9999 -9999 -9999 -9999 -9999 -9999 -9999 -9999 -9999 -9999 -9999 -9999 57.288 57.045 56.835 56.625 56.46 56.278 56.113 56.008 55.833 55.718 55.628 55.505 55.368 55.225 55.083 55.013 54.963 54.95 54.858 54.813 54.823 54.688 54.54 54.555 54.603 54.668 54.538 54.393 54.33 54.308 54.243 54.18 54.14 54.12 54.025 53.918 53.83 53.748 53.688 53.59 53.428 53.313 53.17 53.005 52.86 52.75 52.543 52.42 52.328 52.193 52.113 52.013 51.91 51.83 51.77 51.74 51.688 51.685 51.653 51.69 51.695 51.67 51.693 51.72 51.74 51.718 51.723 51.755 51.755 51.755 51.733 51.688 51.658 51.62 51.593 51.598 51.583 51.555 51.535 51.54 51.585 51.55 51.603 51.635 51.675 51.718 51.725 51.748 51.745 51.71 51.713 51.715 51.693 51.67 51.648 51.588 51.533 51.473 51.465 51.41 51.405 51.36 51.328 51.328 51.32 51.288 51.245 51.193 51.178 51.108 51.063 51.003 50.978 50.973 50.918 50.823 50.645 50.45 50.275 50.148 50.008 49.918 49.833 49.72 49.58 49.543 49.568 49.418 49.22 49.05 48.908 48.863 48.785 48.705 48.61 48.498 48.368 48.2 48.045 47.915 47.825 47.728 47.665 47.67 47.693 47.68 47.718 47.703 47.685 47.648 47.63 47.565 47.525 47.498 47.533 47.515 47.298 47.475 47.608 47.593 47.588 47.64 47.685 47.76 47.863 48.033 48.318 48.625 49.01 49.323 49.508 49.593 49.725 50.035 50.533 50.665 50.668 50.703 50.72 50.715 50.703 50.685 50.695 50.653 50.638 50.638 50.618 50.563 50.563 50.535 50.498 50.438 50.388 50.31 50.288 50.268 50.22 50.2 50.153 50.09 50.013 49.97 49.963 49.915 49.87 49.903 49.908 49.913 49.958 50.028 50.103 50.148 50.225 50.313 50.46 50.51 50.623 50.765 50.875 51.018 51.168 51.28 51.405 51.518 51.63 51.77 51.925 52.073 52.178 52.29 52.41 52.573 52.718 52.795 52.898 53.03 53.16 53.3 53.438 53.593 53.67 53.765 53.828 53.883 53.92 53.963 54.02 54.06 54.113 54.11 54.145 54.238 54.258 54.275 54.27 54.288 54.32 54.3 54.32
-9999 -9999 -9999 -9999 -9999 -9999 -9999 -9999 -9999 -9999 -9999 -9999 -9999 -9999 -9999 -9999 -9999 -9999 -9999 -9999 -9999 -9999 -9999 -9999 -9999 -9999 -9999 -9999 -9999 -9999 -9999 -9999 -9999 -9999 -9999 -9999 -9999 -9999 -9999 -9999 -9999 -9999 -9999 -9999 -9999 -9999 -9999 -9999 -9999 -9999 -9999 -9999 -9999 -9999 -9999 -9999 -9999 -9999 -9999 -9999 -9999 -9999 -9999 -9999 -9999 -9999 -9999 -9999 -9999 -9999 -9999 -9999 -9999 -9999 -9999 -9999 -9999 -9999 -9999 -9999 -9999 -9999 -9999 -9999 -9999 -9999 -9999 -9999 -9999 -9999 -9999 -9999 -9999 -9999 -9999 -9999 -9999 -9999 -9999 -9999 -9999 -9999 -9999 -9999 -9999 -9999 -9999 -9999 -9999 -9999 -9999 -9999 -9999 -9999 -9999 -9999 -9999 -9999 -9999 -9999 -9999 -9999 -9999 -9999 -9999 -9999 -9999 -9999 -9999 -9999 -9999 -9999 -9999 -9999 -9999 -9999 -9999 -9999 -9999 -9999 -9999 -9999 -9999 -9999 -9999 -9999 -9999 -9999 -9999 -9999 -9999 -9999 -9999 -9999 -9999 -9999 -9999 -9999 -9999 -9999 -9999 -9999 -9999 -9999 -9999 -9999 -9999 -9999 -9999 -9999 -9999 -9999 -9999 -9999 -9999 -9999 -9999 -9999 -9999 -9999 -9999 -9999 -9999 -9999 -9999 -9999 -9999 -9999 -9999 -9999 -9999 -9999 -9999 -9999 -9999 -9999 -9999 -9999 -9999 -9999 -9999 -9999 -9999 -9999 -9999 -9999 -9999 -9999 -9999 -9999 -9999 -9999 -9999 -9999 -9999 -9999 -9999 -9999 -9999 57.15 56.94 56.748 56.513 56.318 56.14 55.98 55.873 55.718 55.603 55.513 55.363 55.183 55.063 54.93 54.915 54.86 54.863 54.753 54.71 54.748 54.598 54.48 54.495 54.555 54.498 54.355 54.32 54.27 54.255 54.173 54.15 54.125 54.093 54.01 53.883 53.84 53.788 53.71 53.625 53.45 53.333 53.183 53.063 52.898 52.788 52.635 52.478 52.375 52.26 52.133 52.058 51.975 51.905 51.85 51.78 51.753 51.753 51.765 51.725 51.738 51.733 51.733 51.748 51.755 51.768 51.76 51.788 51.79 51.763 51.713 51.7 51.648 51.628 51.593 51.61 51.613 51.578 51.558 51.55 51.568 51.573 51.59 51.593 51.625 51.703 51.738 51.755 51.73 51.703 51.71 51.72 51.678 51.645 51.633 51.575 51.48 51.433 51.445 51.393 51.348 51.33 51.325 51.33 51.328 51.308 51.26 51.233 51.19 51.133 51.08 50.975 50.938 50.953 50.923 50.8 50.638 50.47 50.335 50.25 50.12 50.028 49.918 49.823 49.738 49.638 49.585 49.48 49.385 49.333 49.138 48.983 48.883 48.805 48.725 48.63 48.538 48.388 48.208 48.073 47.913 47.833 47.783 47.763 47.773 47.748 47.748 47.735 47.72 47.708 47.66 47.615 47.593 47.535 47.528 47.58 47.438 47.31 47.585 47.61 47.603 47.628 47.66 47.715 47.788 47.935 48.158 48.448 48.833 49.19 49.398 49.543 49.625 49.805 50.11 50.538 50.665 50.668 50.698 50.693 50.663 50.653 50.655 50.623 50.598 50.58 50.555 50.53 50.513 50.475 50.423 50.398 50.333 50.293 50.24 50.185 50.13 50.11 50.075 49.995 49.97 49.925 49.87 49.82 49.768 49.768 49.79 49.82 49.853 49.915 50 50.095 50.148 50.185 50.313 50.398 50.515 50.643 50.758 50.898 51.055 51.193 51.338 51.43 51.573 51.663 51.795 51.913 52.048 52.213 52.34 52.483 52.62 52.733 52.833 52.955 53.075 53.205 53.378 53.488 53.555 53.648 53.748 53.798 53.86 53.923 53.99 54.068 54.083 54.133 54.183 54.218 54.243 54.245 54.268 54.275 54.288 54.32 54.335
-9999 -9999 -9999 -9999 -9999 -9999 -9999 -9999 -9999 -9999 -9999 -9999 -9999 -9999 -9999 -9999 -9999 -9999 -9999 -9999 -9999 -9999 -9999 -9999 -9999 -9999 -9999 -9999 -9999 -9999 -9999 -9999 -9999 -9999 -9999 -9999 -9999 -9999 -9999 -9999 -9999 -9999 -9999 -9999 -9999 -9999 -9999 -9999 -9999 -9999 -9999 -9999 -9999 -9999 -9999 -9999 -9999 -9999 -9999 -9999 -9999 -9999 -9999 -9999 -9999 -9999 -9999 -9999 -9999 -9999 -9999 -9999 -9999 -9999 -9999 -9999 -9999 -9999 -9999 -9999 -9999 -9999 -9999 -9999 -9999 -9999 -9999 -9999 -9999 -9999 -9999 -9999 -9999 -9999 -9999 -9999 -9999 -9999 -9999 -9999 -9999 -9999 -9999 -9999 -9999 -9999 -9999 -9999 -9999 -9999 -9999 -9999 -9999 -9999 -9999 -9999 -9999 -9999 -9999 -9999 -9999 -9999 -9999 -9999 -9999 -9999 -9999 -9999 -9999 -9999 -9999 -9999 -9999 -9999 -9999 -9999 -9999 -9999 -9999 -9999 -9999 -9999 -9999 -9999 -9999 -9999 -9999 -9999 -9999 -9999 -9999 -9999 -9999 -9999 -9999 -9999 -9999 -9999 -9999 -9999 -9999 -9999 -9999 -9999 -9999 -9999 -9999 -9999 -9999 -9999 -9999 -9999 -9999 -9999 -9999 -9999 -9999 -9999 -9999 -9999 -9999 -9999 -9999 -9999 -9999 -9999 -9999 -9999 -9999 -9999 -9999 -9999 -9999 -9999 -9999 -9999 -9999 -9999 -9999 -9999 -9999 -9999 -9999 -9999 -9999 -9999 -9999 -9999 -9999 -9999 -9999 -9999 -9999 -9999 -9999 -9999 -9999 -9999 -9999 -9999 56.834 56.645 56.42 56.218 56.045 55.89 55.748 55.608 55.478 55.378 55.23 55.045 54.93 54.805 54.783 54.768 54.748 54.653 54.655 54.62 54.45 54.385 54.528 54.668 54.408 54.263 54.233 54.215 54.193 54.133 54.108 54.085 54.01 53.97 53.905 53.828 53.813 53.725 53.638 53.48 53.36 53.245 53.083 52.975 52.813 52.685 52.51 52.415 52.328 52.188 52.118 52.03 51.968 51.925 51.873 51.84 51.833 51.843 51.805 51.778 51.785 51.8 51.815 51.825 51.805 51.823 51.815 51.78 51.753 51.768 51.738 51.663 51.648 51.605 51.633 51.603 51.578 51.573 51.603 51.583 51.573 51.578 51.598 51.635 51.67 51.708 51.733 51.74 51.718 51.7 51.688 51.635 51.613 51.585 51.548 51.493 51.463 51.403 51.36 51.345 51.318 51.3 51.313 51.268 51.25 51.235 51.233 51.24 51.173 51.093 51.028 50.985 50.888 50.865 50.775 50.66 50.513 50.405 50.32 50.213 50.09 50.018 49.95 49.855 49.783 49.643 49.515 49.39 49.338 49.265 49.223 49.013 48.89 48.823 48.723 48.618 48.493 48.343 48.165 48.01 47.905 47.865 47.825 47.848 47.818 47.805 47.768 47.74 47.705 47.71 47.675 47.655 47.603 47.593 47.645 47.603 47.365 47.493 47.675 47.643 47.62 47.665 47.7 47.758 47.838 48.01 48.293 48.688 49.008 49.278 49.478 49.548 49.683 49.898 50.513 50.68 50.653 50.665 50.665 50.665 50.658 50.615 50.603 50.565 50.515 50.49 50.465 50.423 50.398 50.363 50.328 50.258 50.238 50.163 50.105 50.07 50.033 49.963 49.94 49.89 49.785 49.73 49.718 49.695 49.645 49.698 49.728 49.783 49.793 49.873 49.953 49.995 50.1 50.19 50.295 50.39 50.52 50.64 50.783 50.923 51.075 51.223 51.345 51.478 51.543 51.68 51.813 51.97 52.125 52.265 52.4 52.53 52.623 52.753 52.873 53.01 53.15 53.275 53.398 53.498 53.563 53.66 53.748 53.805 53.915 53.96 54.018 54.065 54.115 54.158 54.14 54.175 54.21 54.228 54.235 54.3 54.325 54.273
-9999 -9999 -9999 -9999 -9999 -9999 -9999 -9999 -9999 -9999 -9999 -9999 -9999 -9999 -9999 -9999 -9999 -9999 -9999 -9999 -9999 -9999 -9999 -9999 -9999 -9999 -9999 -9999 -9999 -9999 -9999 -9999 -9999 -9999 -9999 -9999 -9999 -9999 -9999 -9999 -9999 -9999 -9999 -9999 -9999 -9999 -9999 -9999 -9999 -9999 -9999 -9999 -9999 -9999 -9999 -9999 -9999 -9999 -9999 -9999 -9999 -9999 -9999 -9999 -9999 -9999 -9999 -9999 -9999 -9999 -9999 -9999 -9999 -9999 -9999 -9999 -9999 -9999 -9999 -9999 -9999 -9999 -9999 -9999 -9999 -9999 -9999 -9999 -9999 -9999 -9999 -9999 -9999 -9999 -9999 -9999 -9999 -9999 -9999 -9999 -9999 -9999 -9999 -9999 -9999 -9999 -9999 -9999 -9999 -9999 -9999 -9999 -9999 -9999 -9999 -9999 -9999 -9999 -9999 -9999 -9999 -9999 -9999 -9999 -9999 -9999 -9999 -9999 -9999 -9999 -9999 -9999 -9999 -9999 -9999 -9999 -9999 -9999 -9999 -9999 -9999 -9999 -9999 -9999 -9999 -9999 -9999 -9999 -9999 -9999 -9999 -9999 -9999 -9999 -9999 -9999 -9999 -9999 -9999 -9999 -9999 -9999 -9999 -9999 -9999 -9999 -9999 -9999 -9999 -9999 -9999 -9999 -9999 -9999 -9999 -9999 -9999 -9999 -9999 -9999 -9999 -9999 -9999 -9999 -9999 -9999 -9999 -9999 -9999 -9999 -9999 -9999 -9999 -9999 -9999 -9999 -9999 -9999 -9999 -9999 -9999 -9999 -9999 -9999 -9999 -9999 -9999 -9999 -9999 -9999 -9999 -9999 -9999 -9999 -9999 -9999 -9999 -9999 -9999 -9999 -9999 56.547 56.325 56.115 55.938 55.778 55.608 55.52 55.368 55.215 55.078 54.923 54.808 54.71 54.698 54.695 54.643 54.573 54.548 54.505 54.345 54.345 54.478 54.475 54.223 54.185 54.178 54.165 54.135 54.083 54.038 54.045 53.988 53.94 53.903 53.865 53.808 53.735 53.59 53.488 53.37 53.243 53.13 53.01 52.858 52.723 52.568 52.483 52.368 52.258 52.165 52.105 52.028 51.973 51.953 51.915 51.903 51.898 51.86 51.865 51.855 51.835 51.873 51.885 51.868 51.835 51.835 51.813 51.82 51.783 51.723 51.713 51.67 51.608 51.645 51.635 51.608 51.628 51.633 51.575 51.585 51.558 51.575 51.603 51.623 51.648 51.698 51.715 51.685 51.678 51.648 51.635 51.6 51.578 51.528 51.495 51.448 51.38 51.33 51.308 51.288 51.273 51.27 51.25 51.218 51.213 51.17 51.178 51.16 51.133 51.08 51.015 50.885 50.823 50.778 50.66 50.563 50.525 50.4 50.273 50.165 50.06 50.018 49.983 49.893 49.805 49.7 49.588 49.4 49.313 49.278 49.143 49.04 48.908 48.833 48.748 48.575 48.418 48.268 48.118 48.003 47.95 47.893 47.87 47.885 47.843 47.808 47.783 47.743 47.753 47.723 47.658 47.685 47.643 47.61 47.673 47.568 47.338 47.608 47.658 47.635 47.625 47.663 47.693 47.785 47.945 48.188 48.523 48.875 49.155 49.363 49.49 49.585 49.743 50.105 50.75 50.67 50.61 50.63 50.62 50.638 50.568 50.56 50.523 50.465 50.423 50.405 50.365 50.35 50.32 50.263 50.208 50.195 50.138 50.08 50.01 49.94 49.875 49.838 49.81 49.705 49.665 49.623 49.613 49.585 49.615 49.633 49.673 49.733 49.75 49.845 49.9 49.95 50.043 50.145 50.29 50.418 50.513 50.66 50.805 50.945 51.07 51.24 51.368 51.435 51.575 51.71 51.858 52.038 52.208 52.303 52.405 52.52 52.683 52.798 52.915 53.048 53.17 53.303 53.398 53.468 53.605 53.683 53.743 53.865 53.94 53.985 54.003 54.058 54.08 54.073 54.088 54.165 54.21 54.25 54.31 54.235 53.943
-9999 -9999 -9999 -9999 -9999 -9999 -9999 -9999 -9999 -9999 -9999 -9999 -9999 -9999 -9999 -9999 -9999 -9999 -9999 -9999 -9999 -9999 -9999 -9999 -9999 -9999 -9999 -9999 -9999 -9999 -9999 -9999 -9999 -9999 -9999 -9999 -9999 -9999 -9999 -9999 -9999 -9999 -9999 -9999 -9999 -9999 -9999 -9999 -9999 -9999 -9999 -9999 -9999 -9999 -9999 -9999 -9999 -9999 -9999 -9999 -9999 -9999 -9999 -9999 -9999 -9999 -9999 -9999 -9999 -9999 -9999 -9999 -9999 -9999 -9999 -9999 -9999 -9999 -9999 -9999 -9999 -9999 -9999 -9999 -9999 -9999 -9999 -9999 -9999 -9999 -9999 -9999 -9999 -9999 -9999 -9999 -9999 -9999 -9999 -9999 -9999 -9999 -9999 -9999 -9999 -9999 -9999 -9999 -9999 -9999 -9999 -9999 -9999 -9999 -9999 -9999 -9999 -9999 -9999 -9999 -9999 -9999 -9999 -9999 -9999 -9999 -9999 -9999 -9999 -9999 -9999 -9999 -9999 -9999 -9999 -9999 -9999 -9999 -9999 -9999 -9999 -9999 -9999 -9999 -9999 -9999 -9999 -9999 -9999 -9999 -9999 -9999 -9999 -9999 -9999 -9999 -9999 -9999 -9999 -9999 -9999 -9999 -9999 -9999 -9999 -9999 -9999 -9999 -9999 -9999 -9999 -9999 -9999 -9999 -9999 -9999 -9999 -9999 -9999 -9999 -9999 -9999 -9999 -9999 -9999 -9999 -9999 -9999 -9999 -9999 -9999 -9999 -9999 -9999 -9999 -9999 -9999 -9999 -9999 -9999 -9999 -9999 -9999 -9999 -9999 -9999 -9999 -9999 -9999 -9999 -9999 -9999 -9999 -9999 -9999 -9999 -9999 -9999 -9999 -9999 -9999 -9999 56.234 56 55.845 55.665 55.51 55.383 55.268 55.11 54.935 54.785 54.678 54.638 54.63 54.588 54.553 54.508 54.51 54.378 54.253 54.315 54.413 54.26 54.113 54.11 54.1 54.06 54.075 54.028 53.988 54.01 53.985 53.885 53.883 53.84 53.8 53.718 53.598 53.51 53.4 53.268 53.178 53.058 52.925 52.775 52.635 52.51 52.435 52.328 52.215 52.19 52.11 52.045 52.005 52.008 51.975 51.938 51.93 51.923 51.898 51.933 51.908 51.965 51.915 51.858 51.875 51.863 51.825 51.783 51.725 51.748 51.685 51.628 51.668 51.64 51.648 51.618 51.613 51.54 51.578 51.54 51.565 51.573 51.595 51.623 51.7 51.653 51.633 51.62 51.595 51.585 51.55 51.503 51.485 51.418 51.378 51.35 51.305 51.255 51.215 51.208 51.208 51.185 51.175 51.178 51.138 51.128 51.168 51.155 51.15 51.088 51.023 50.848 50.728 50.678 50.595 50.535 50.46 50.32 50.243 50.15 50.098 50.01 49.948 49.9 49.805 49.728 49.623 49.45 49.323 49.3 49.328 49.083 48.898 48.783 48.66 48.495 48.39 48.275 48.17 48.033 47.943 47.915 47.908 47.903 47.86 47.823 47.785 47.755 47.735 47.673 47.775 47.715 47.64 47.648 47.615 47.435 47.455 47.663 47.638 47.628 47.645 47.685 47.735 47.875 48.09 48.42 48.778 49.028 49.245 49.42 49.528 49.64 49.858 50.325 50.708 50.608 50.595 50.585 50.57 50.548 50.503 50.458 50.41 50.378 50.338 50.32 50.278 50.24 50.223 50.16 50.133 50.088 50.028 49.948 49.865 49.803 49.768 49.705 49.638 49.555 49.5 49.495 49.515 49.503 49.523 49.55 49.625 49.65 49.688 49.788 49.858 49.958 50.058 50.198 50.278 50.383 50.548 50.69 50.825 50.94 51.09 51.243 51.35 51.475 51.608 51.765 51.913 52.07 52.21 52.325 52.43 52.59 52.718 52.825 52.958 53.06 53.163 53.268 53.388 53.508 53.628 53.685 53.773 53.865 53.898 53.975 54.008 54.038 54.045 54.085 54.128 54.183 54.235 54.29 54.148 53.763
-9999 -9999 -9999 -9999 -9999 -9999 -9999 -9999 -9999 -9999 -9999 -9999 -9999 -9999 -9999 -9999 -9999 -9999 -9999 -9999 -9999 -9999 -9999 -9999 -9999 -9999 -9999 -9999 -9999 -9999 -9999 -9999 -9999 -9999 -9999 -9999 -9999 -9999 -9999 -9999 -9999 -9999 -9999 -9999 -9999 -9999 -9999 -9999 -9999 -9999 -9999 -9999 -9999 -9999 -9999 -9999 -9999 -9999 -9999 -9999 -9999 -9999 -9999 -9999 -9999 -9999 -9999 -9999 -9999 -9999 -9999 -9999 -9999 -9999 -9999 -9999 -9999 -9999 -9999 -9999 -9999 -9999 -9999 -9999 -9999 -9999 -9999 -9999 -9999 -9999 -9999 -9999 -9999 -9999 -9999 -9999 -9999 -9999 -9999 -9999 -9999 -9999 -9999 -9999 -9999 -9999 -9999 -9999 -9999 -9999 -9999 -9999 -9999 -9999 -9999 -9999 -9999 -9999 -9999 -9999 -9999 -9999 -9999 -9999 -9999 -9999 -9999 -9999 -9999 -9999 -9999 -9999 -9999 -9999 -9999 -9999 -9999 -9999 -9999 -9999 -9999 -9999 -9999 -9999 -9999 -9999 -9999 -9999 -9999 -9999 -9999 -9999 -9999 -9999 -9999 -9999 -9999 -9999 -9999 -9999 -9999 -9999 -9999 -9999 -9999 -9999 -9999 -9999 -9999 -9999 -9999 -9999 -9999 -9999 -9999 -9999 -9999 -9999 -9999 -9999 -9999 -9999 -9999 -9999 -9999 -9999 -9999 -9999 -9999 -9999 -9999 -9999 -9999 -9999 -9999 -9999 -9999 -9999 -9999 -9999 -9999 -9999 -9999 -9999 -9999 -9999 -9999 -9999 -9999 -9999 -9999 -9999 -9999 -9999 -9999 -9999 -9999 -9999 -9999 -9999 -9999 -9999 -9999 55.883 55.728 55.57 55.39 55.275 55.115 55 54.843 54.698 54.625 54.553 54.558 54.5 54.473 54.465 54.43 54.285 54.188 54.285 54.29 54.12 54.04 54.038 53.998 53.98 53.963 53.94 53.95 53.925 53.953 53.885 53.843 53.81 53.765 53.698 53.6 53.478 53.388 53.278 53.183 53.085 52.933 52.778 52.678 52.555 52.483 52.385 52.295 52.263 52.195 52.123 52.095 52.063 52.04 52.02 51.993 51.988 51.933 51.97 51.998 51.988 51.973 51.905 51.925 51.913 51.855 51.818 51.783 51.745 51.718 51.638 51.663 51.67 51.66 51.613 51.59 51.56 51.568 51.53 51.518 51.558 51.595 51.608 51.608 51.598 51.58 51.573 51.533 51.513 51.463 51.445 51.405 51.38 51.315 51.283 51.245 51.2 51.163 51.123 51.133 51.12 51.068 51.085 51.08 51.085 51.108 51.133 51.108 51.118 51.158 51.143 50.898 50.69 50.645 50.583 50.525 50.435 50.338 50.283 50.218 50.123 50.023 49.913 49.868 49.813 49.76 49.673 49.525 49.38 49.39 49.39 49.095 48.83 48.7 48.58 48.46 48.358 48.23 48.113 48.008 47.953 47.943 47.925 47.908 47.863 47.818 47.795 47.815 47.78 47.82 47.765 47.693 47.668 47.675 47.623 47.335 47.593 47.635 47.603 47.608 47.663 47.728 47.848 48.01 48.285 48.66 48.935 49.125 49.328 49.473 49.588 49.738 49.998 50.475 50.538 50.575 50.553 50.57 50.558 50.47 50.438 50.393 50.31 50.275 50.27 50.223 50.168 50.135 50.088 50.043 49.983 49.948 49.878 49.78 49.715 49.653 49.578 49.555 49.505 49.41 49.413 49.415 49.415 49.44 49.448 49.518 49.57 49.583 49.628 49.76 49.848 49.948 50.068 50.175 50.27 50.418 50.573 50.7 50.843 50.973 51.108 51.22 51.355 51.503 51.65 51.813 51.943 52.08 52.253 52.365 52.475 52.595 52.745 52.845 52.94 53.053 53.213 53.29 53.408 53.52 53.638 53.685 53.763 53.815 53.885 53.918 53.95 54.01 54.058 54.118 54.18 54.158 53.985 53.84 53.5
-9999 -9999 -9999 -9999 -9999 -9999 -9999 -9999 -9999 -9999 -9999 -9999 -9999 -9999 -9999 -9999 -9999 -9999 -9999 -9999 -9999 -9999 -9999 -9999 -9999 -9999 -9999 -9999 -9999 -9999 -9999 -9999 -9999 -9999 -9999 -9999 -9999 -9999 -9999 -9999 -9999 -9999 -9999 -9999 -9999 -9999 -9999 -9999 -9999 -9999 -9999 -9999 -9999 -9999 -9999 -9999 -9999 -9999 -9999 -9999 -9999 -9999 -9999 -9999 -9999 -9999 -9999 -9999 -9999 -9999 -9999 -9999 -9999 -9999 -9999 -9999 -9999 -9999 -9999 -9999 -9999 -9999 -9999 -9999 -9999 -9999 -9999 -9999 -9999 -9999 -9999 -9999 -9999 -9999 -9999 -9999 -9999 -9999 -9999 -9999 -9999 -9999 -9999 -9999 -9999 -9999 -9999 -9999 -9999 -9999 -9999 -9999 -9999 -9999 -9999 -9999 -9999 -9999 -9999 -9999 -9999 -9999 -9999 -9999 -9999 -9999 -9999 -9999 -9999 -9999 -9999 -9999 -9999 -9999 -9999 -9999 -9999 -9999 -9999 -9999 -9999 -9999 -9999 -9999 -9999 -9999 -9999 -9999 -9999 -9999 -9999 -9999 -9999 -9999 -9999 -9999 -9999 -9999 -9999 -9999 -9999 -9999 -9999 -9999 -9999 -9999 -9999 -9999 -9999 -9999 -9999 -9999 -9999 -9999 -9999 -9999 -9999 -9999 -9999 -9999 -9999 -9999 -9999 -9999 -9999 -9999 -9999 -9999 -9999 -9999 -9999 -9999 -9999 -9999 -9999 -9999 -9999 -9999 -9999 -9999 -9999 -9999 -9999 -9999 -9999 -9999 -9999 -9999 -9999 -9999 -9999 -9999 -9999 -9999 -9999 -9999 -9999 -9999 -9999 -9999 -9999 -9999 -9999 -9999 55.653 55.475 55.278 55.178 55 54.893 54.71 54.598 54.513 54.458 54.473 54.415 54.39 54.42 54.323 54.195 54.188 54.235 54.125 54.01 53.97 53.955 53.92 53.87 53.905 53.878 53.888 53.885 53.863 53.813 53.8 53.763 53.718 53.683 53.6 53.483 53.388 53.283 53.215 53.095 52.965 52.85 52.738 52.618 52.543 52.44 52.353 52.298 52.24 52.175 52.128 52.118 52.125 52.128 52.073 52.068 52.053 52.06 52.04 52.073 52.04 51.983 51.958 51.973 51.915 51.898 51.828 51.783 51.75 51.705 51.693 51.65 51.618 51.588 51.57 51.495 51.488 51.5 51.515 51.545 51.56 51.528 51.535 51.53 51.553 51.488 51.46 51.445 51.395 51.355 51.335 51.305 51.283 51.198 51.178 51.143 51.073 51.043 51.015 51.003 51.008 51.023 51.015 51.035 51.063 51.05 51.063 51.085 51.128 51.15 51.038 50.878 50.675 50.628 50.565 50.51 50.393 50.348 50.333 50.295 50.203 50.06 49.9 49.85 49.808 49.7 49.628 49.525 49.408 49.415 49.37 49.1 48.768 48.643 48.543 48.383 48.273 48.158 48.08 48.03 48.01 47.988 47.94 47.885 47.855 47.88 47.865 47.848 47.828 47.798 47.763 47.693 47.665 47.718 47.493 47.445 47.63 47.608 47.595 47.66 47.688 47.8 47.953 48.205 48.575 48.813 49.023 49.238 49.433 49.533 49.643 49.823 50.01 50.313 50.548 50.538 50.51 50.505 50.473 50.418 50.335 50.285 50.233 50.203 50.173 50.12 50.088 50.025 49.978 49.92 49.855 49.778 49.71 49.628 49.555 49.51 49.45 49.42 49.385 49.338 49.305 49.325 49.348 49.343 49.375 49.47 49.503 49.54 49.635 49.73 49.848 49.955 50.048 50.205 50.353 50.47 50.59 50.745 50.863 51.028 51.155 51.28 51.4 51.533 51.678 51.828 52 52.155 52.275 52.4 52.5 52.62 52.745 52.86 52.978 53.113 53.213 53.323 53.443 53.54 53.608 53.668 53.72 53.79 53.848 53.895 53.943 54.028 54.093 54.13 53.995 53.653 53.418 52.92
-9999 -9999 -9999 -9999 -9999 -9999 -9999 -9999 -9999 -9999 -9999 -9999 -9999 -9999 -9999 -9999 -9999 -9999 -9999 -9999 -9999 -9999 -9999 -9999 -9999 -9999 -9999 -9999 -9999 -9999 -9999 -9999 -9999 -9999 -9999 -9999 -9999 -9999 -9999 -9999 -9999 -9999 -9999 -9999 -9999 -9999 -9999 -9999 -9999 -9999 -9999 -9999 -9999 -9999 -9999 -9999 -9999 -9999 -9999 -9999 -9999 -9999 -9999 -9999 -9999 -9999 -9999 -9999 -9999 -9999 -9999 -9999 -9999 -9999 -9999 -9999 -9999 -9999 -9999 -9999 -9999 -9999 -9999 -9999 -9999 -9999 -9999 -9999 -9999 -9999 -9999 -9999 -9999 -9999 -9999 -9999 -9999 -9999 -9999 -9999 -9999 -9999 -9999 -9999 -9999 -9999 -9999 -9999 -9999 -9999 -9999 -9999 -9999 -9999 -9999 -9999 -9999 -9999 -9999 -9999 -9999 -9999 -9999 -9999 -9999 -9999 -9999 -9999 -9999 -9999 -9999 -9999 -9999 -9999 -9999 -9999 -9999 -9999 -9999 -9999 -9999 -9999 -9999 -9999 -9999 -9999 -9999 -9999 -9999 -9999 -9999 -9999 -9999 -9999 -9999 -9999 -9999 -9999 -9999 -9999 -9999 -9999 -9999 -9999 -9999 -9999 -9999 -9999 -9999 -9999 -9999 -9999 -9999 -9999 -9999 -9999 -9999 -9999 -9999 -9999 -9999 -9999 -9999 -9999 -9999 -9999 -9999 -9999 -9999 -9999 -9999 -9999 -9999 -9999 -9999 -9999 -9999 -9999 -9999 -9999 -9999 -9999 -9999 -9999 -9999 -9999 -9999 -9999 -9999 -9999 -9999 -9999 -9999 -9999 -9999 -9999 -9999 -9999 -9999 -9999 -9999 -9999 -9999 -9999 55.574 55.363 55.195 55.043 54.915 54.745 54.595 54.518 54.47 54.403 54.403 54.325 54.323 54.375 54.21 54.11 54.143 54.163 54.048 53.89 53.868 53.855 53.835 53.78 53.77 53.795 53.82 53.813 53.795 53.748 53.743 53.715 53.67 53.588 53.553 53.465 53.388 53.298 53.198 53.113 53.01 52.895 52.783 52.653 52.618 52.535 52.443 52.365 52.308 52.238 52.2 52.173 52.168 52.16 52.158 52.15 52.143 52.145 52.135 52.15 52.143 52.08 52.03 52.035 51.983 51.938 51.893 51.84 51.78 51.763 51.728 51.693 51.64 51.598 51.563 51.528 51.488 51.525 51.5 51.495 51.495 51.5 51.48 51.485 51.455 51.405 51.408 51.373 51.33 51.263 51.27 51.215 51.19 51.133 51.083 51.008 50.988 50.945 50.92 50.9 50.938 50.94 50.923 50.968 50.998 50.998 51.028 51.065 51.075 51.098 51.098 50.995 50.855 50.705 50.58 50.578 50.505 50.473 50.42 50.378 50.343 50.223 50.1 49.955 49.825 49.775 49.71 49.61 49.495 49.443 49.418 49.318 49.048 48.748 48.603 48.475 48.385 48.253 48.108 48.068 48.05 48.018 47.963 47.933 47.923 47.908 47.878 47.883 47.888 47.865 47.843 47.765 47.705 47.69 47.613 47.325 47.525 47.593 47.603 47.645 47.715 47.805 47.915 48.158 48.515 48.755 48.938 49.11 49.353 49.493 49.593 49.71 49.853 50.07 50.403 50.503 50.485 50.453 50.443 50.43 50.348 50.253 50.215 50.16 50.11 50.083 50.02 49.963 49.905 49.83 49.79 49.705 49.633 49.525 49.47 49.405 49.363 49.353 49.34 49.255 49.228 49.225 49.258 49.278 49.293 49.328 49.345 49.428 49.505 49.635 49.76 49.873 49.988 50.085 50.228 50.353 50.453 50.598 50.77 50.898 51.028 51.183 51.303 51.42 51.563 51.71 51.913 52.035 52.175 52.298 52.393 52.51 52.648 52.773 52.845 52.998 53.125 53.225 53.36 53.415 53.475 53.54 53.613 53.69 53.748 53.84 53.905 53.97 54.063 54.033 53.8 53.358 52.923 52.31
-9999 -9999 -9999 -9999 -9999 -9999 -9999 -9999 -9999 -9999 -9999 -9999 -9999 -9999 -9999 -9999 -9999 -9999 -9999 -9999 -9999 -9999 -9999 -9999 -9999 -9999 -9999 -9999 -9999 -9999 -9999 -9999 -9999 -9999 -9999 -9999 -9999 -9999 -9999 -9999 -9999 -9999 -9999 -9999 -9999 -9999 -9999 -9999 -9999 -9999 -9999 -9999 -9999 -9999 -9999 -9999 -9999 -9999 -9999 -9999 -9999 -9999 -9999 -9999 -9999 -9999 -9999 -9999 -9999 -9999 -9999 -9999 -9999 -9999 -9999 -9999 -9999 -9999 -9999 -9999 -9999 -9999 -9999 -9999 -9999 -9999 -9999 -9999 -9999 -9999 -9999 -9999 -9999 -9999 -9999 -9999 -9999 -9999 -9999 -9999 -9999 -9999 -9999 -9999 -9999 -9999 -9999 -9999 -9999 -9999 -9999 -9999 -9999 -9999 -9999 -9999 -9999 -9999 -9999 -9999 -9999 -9999 -9999 -9999 -9999 -9999 -9999 -9999 -9999 -9999 -9999 -9999 -9999 -9999 -9999 -9999 -9999 -9999 -9999 -9999 -9999 -9999 -9999 -9999 -9999 -9999 -9999 -9999 -9999 -9999 -9999 -9999 -9999 -9999 -9999 -9999 -9999 -9999 -9999 -9999 -9999 -9999 -9999 -9999 -9999 -9999 -9999 -9999 -9999 -9999 -9999 -9999 -9999 -9999 -9999 -9999 -9999 -9999 -9999 -9999 -9999 -9999 -9999 -9999 -9999 -9999 -9999 -9999 -9999 -9999 -9999 -9999 -9999 -9999 -9999 -9999 -9999 -9999 -9999 -9999 -9999 -9999 -9999 -9999 -9999 -9999 -9999 -9999 -9999 -9999 -9999 -9999 -9999 -9999 -9999 -9999 -9999 -9999 -9999 -9999 -9999 -9999 -9999 -9999 -9999 55.274 55.128 54.973 54.84 54.628 54.49 54.453 54.4 54.385 54.34 54.285 54.28 54.268 54.113 54.098 54.08 54.025 53.883 53.81 53.783 53.788 53.73 53.693 53.698 53.725 53.723 53.72 53.718 53.665 53.655 53.625 53.618 53.54 53.515 53.425 53.333 53.29 53.203 53.118 53.02 52.903 52.8 52.715 52.64 52.56 52.44 52.398 52.37 52.31 52.253 52.22 52.225 52.235 52.225 52.253 52.248 52.23 52.228 52.198 52.193 52.165 52.113 52.085 52.018 51.965 51.923 51.863 51.82 51.763 51.728 51.668 51.633 51.588 51.558 51.558 51.525 51.483 51.453 51.453 51.455 51.428 51.44 51.398 51.373 51.37 51.325 51.288 51.245 51.18 51.15 51.093 51.06 51.03 50.99 50.923 50.888 50.86 50.843 50.81 50.828 50.843 50.885 50.875 50.913 50.963 50.985 51.025 51.078 51.065 51.068 51.093 51.013 50.838 50.663 50.64 50.595 50.538 50.48 50.443 50.39 50.3 50.235 50.123 49.993 49.845 49.755 49.67 49.615 49.54 49.415 49.32 49.145 48.933 48.678 48.603 48.52 48.338 48.168 48.118 48.058 48.018 48.003 47.99 47.963 47.923 47.913 47.893 47.908 47.92 47.89 47.83 47.765 47.708 47.7 47.503 47.37 47.555 47.578 47.603 47.695 47.795 47.903 48.13 48.478 48.73 48.898 49.063 49.213 49.42 49.573 49.665 49.78 49.915 50.23 50.493 50.455 50.425 50.403 50.358 50.298 50.24 50.188 50.115 50.063 50 49.938 49.895 49.865 49.798 49.728 49.625 49.558 49.475 49.405 49.345 49.29 49.27 49.263 49.195 49.15 49.108 49.123 49.158 49.18 49.233 49.285 49.338 49.418 49.53 49.645 49.765 49.863 50.008 50.088 50.238 50.375 50.503 50.623 50.78 50.91 51.085 51.24 51.353 51.418 51.578 51.753 51.913 52.033 52.188 52.288 52.41 52.54 52.683 52.785 52.888 53.008 53.138 53.22 53.298 53.368 53.408 53.5 53.568 53.683 53.745 53.84 53.958 54.128 54.03 53.57 52.938 52.313 51.775
-9999 -9999 -9999 -9999 -9999 -9999 -9999 -9999 -9999 -9999 -9999 -9999 -9999 -9999 -9999 -9999 -9999 -9999 -9999 -9999 -9999 -9999 -9999 -9999 -9999 -9999 -9999 -9999 -9999 -9999 -9999 -9999 -9999 -9999 -9999 -9999 -9999 -9999 -9999 -9999 -9999 -9999 -9999 -9999 -9999 -9999 -9999 -9999 -9999 -9999 -9999 -9999 -9999 -9999 -9999 -9999 -9999 -9999 -9999 -9999 -9999 -9999 -9999 -9999 -9999 -9999 -9999 -9999 -9999 -9999 -9999 -9999 -9999 -9999 -9999 -9999 -9999 -9999 -9999 -9999 -9999 -9999 -9999 -9999 -9999 -9999 -9999 -9999 -9999 -9999 -9999 -9999 -9999 -9999 -9999 -9999 -9999 -9999 -9999 -9999 -9999 -9999 -9999 -9999 -9999 -9999 -9999 -9999 -9999 -9999 -9999 -9999 -9999 -9999 -9999 -9999 -9999 -9999 -9999 -9999 -9999 -9999 -9999 -9999 -9999 -9999 -9999 -9999 -9999 -9999 -9999 -9999 -9999 -9999 -9999 -9999 -9999 -9999 -9999 -9999 -9999 -9999 -9999 -9999 -9999 -9999 -9999 -9999 -9999 -9999 -9999 -9999 -9999 -9999 -9999 -9999 -9999 -9999 -9999 -9999 -9999 -9999 -9999 -9999 -9999 -9999 -9999 -9999 -9999 -9999 -9999 -9999 -9999 -9999 -9999 -9999 -9999 -9999 -9999 -9999 -9999 -9999 -9999 -9999 -9999 -9999 -9999 -9999 -9999 -9999 -9999 -9999 -9999 -9999 -9999 -9999 -9999 -9999 -9999 -9999 -9999 -9999 -9999 -9999 -9999 -9999 -9999 -9999 -9999 -9999 -9999 -9999 -9999 -9999 -9999 -9999 -9999 -9999 -9999 -9999 -9999 -9999 -9999 -9999 -9999 -9999 55.058 54.868 54.728 54.505 54.413 54.335 54.343 54.323 54.26 54.218 54.27 54.13 54.038 54.083 54.005 53.858 53.74 53.705 53.688 53.68 53.64 53.608 53.598 53.638 53.593 53.65 53.633 53.608 53.59 53.54 53.528 53.503 53.465 53.418 53.343 53.278 53.215 53.123 53.01 52.9 52.823 52.75 52.643 52.578 52.505 52.425 52.435 52.36 52.325 52.323 52.298 52.275 52.323 52.33 52.338 52.323 52.313 52.263 52.268 52.235 52.175 52.14 52.075 51.995 51.925 51.9 51.86 51.785 51.743 51.675 51.628 51.58 51.573 51.543 51.49 51.475 51.428 51.423 51.42 51.37 51.35 51.333 51.31 51.31 51.225 51.168 51.155 51.118 51.058 51.008 50.953 50.895 50.823 50.778 50.755 50.743 50.743 50.728 50.713 50.74 50.763 50.805 50.863 50.933 50.928 50.973 51.01 50.998 51.025 51.093 51.078 50.985 50.853 50.738 50.67 50.623 50.57 50.533 50.45 50.335 50.268 50.223 50.15 49.968 49.825 49.703 49.66 49.573 49.455 49.303 49.123 48.96 48.803 48.665 48.58 48.48 48.285 48.133 48.063 48.04 48.025 48.035 47.98 47.96 47.943 47.923 47.92 47.935 47.918 47.863 47.793 47.73 47.668 47.67 47.373 47.478 47.593 47.625 47.693 47.795 47.908 48.128 48.435 48.67 48.873 48.998 49.13 49.34 49.505 49.638 49.733 49.833 49.988 50.313 50.413 50.388 50.348 50.315 50.268 50.238 50.155 50.055 50.015 49.943 49.868 49.855 49.778 49.718 49.66 49.568 49.48 49.395 49.343 49.265 49.223 49.198 49.178 49.135 49.118 49.068 49.048 49.05 49.095 49.16 49.213 49.263 49.338 49.448 49.513 49.615 49.763 49.875 50 50.118 50.26 50.423 50.523 50.683 50.818 50.95 51.108 51.26 51.358 51.47 51.618 51.768 51.915 52.07 52.21 52.335 52.44 52.54 52.68 52.77 52.875 52.998 53.108 53.165 53.225 53.32 53.385 53.47 53.57 53.668 53.793 53.835 53.86 53.653 52.918 52.283 51.748 51.508
-9999 -9999 -9999 -9999 -9999 -9999 -9999 -9999 -9999 -9999 -9999 -9999 -9999 -9999 -9999 -9999 -9999 -9999 -9999 -9999 -9999 -9999 -9999 -9999 -9999 -9999 -9999 -9999 -9999 -9999 -9999 -9999 -9999 -9999 -9999 -9999 -9999 -9999 -9999 -9999 -9999 -9999 -9999 -9999 -9999 -9999 -9999 -9999 -9999 -9999 -9999 -9999 -9999 -9999 -9999 -9999 -9999 -9999 -9999 -9999 -9999 -9999 -9999 -9999 -9999 -9999 -9999 -9999 -9999 -9999 -9999 -9999 -9999 -9999 -9999 -9999 -9999 -9999 -9999 -9999 -9999 -9999 -9999 -9999 -9999 -9999 -9999 -9999 -9999 -9999 -9999 -9999 -9999 -9999 -9999 -9999 -9999 -9999 -9999 -9999 -9999 -9999 -9999 -9999 -9999 -9999 -9999 -9999 -9999 -9999 -9999 -9999 -9999 -9999 -9999 -9999 -9999 -9999 -9999 -9999 -9999 -9999 -9999 -9999 -9999 -9999 -9999 -9999 -9999 -9999 -9999 -9999 -9999 -9999 -9999 -9999 -9999 -9999 -9999 -9999 -9999 -9999 -9999 -9999 -9999 -9999 -9999 -9999 -9999 -9999 -9999 -9999 -9999 -9999 -9999 -9999 -9999 -9999 -9999 -9999 -9999 -9999 -9999 -9999 -9999 -9999 -9999 -9999 -9999 -9999 -9999 -9999 -9999 -9999 -9999 -9999 -9999 -9999 -9999 -9999 -9999 -9999 -9999 -9999 -9999 -9999 -9999 -9999 -9999 -9999 -9999 -9999 -9999 -9999 -9999 -9999 -9999 -9999 -9999 -9999 -9999 -9999 -9999 -9999 -9999 -9999 -9999 -9999 -9999 -9999 -9999 -9999 -9999 -9999 -9999 -9999 -9999 -9999 -9999 -9999 -9999 -9999 -9999 -9999 -9999 -9999 -9999 54.815 54.613 54.425 54.368 54.35 54.295 54.268 54.215 54.21 54.22 54.078 53.993 54 53.945 53.78 53.61 53.58 53.588 53.575 53.513 53.463 53.495 53.543 53.523 53.535 53.52 53.543 53.538 53.513 53.485 53.445 53.41 53.34 53.278 53.248 53.195 53.148 53.035 52.943 52.868 52.783 52.688 52.638 52.543 52.518 52.47 52.398 52.38 52.39 52.37 52.383 52.4 52.398 52.38 52.393 52.388 52.353 52.353 52.283 52.233 52.18 52.11 52.045 51.995 51.905 51.835 51.818 51.743 51.67 51.653 51.588 51.558 51.538 51.513 51.495 51.433 51.37 51.405 51.345 51.288 51.268 51.248 51.173 51.123 51.085 51.05 50.983 50.925 50.895 50.823 50.738 50.71 50.665 50.638 50.628 50.605 50.648 50.643 50.65 50.695 50.72 50.79 50.843 50.9 50.918 50.948 50.963 51.015 51.058 51.058 51.058 50.985 50.853 50.785 50.688 50.673 50.57 50.488 50.41 50.313 50.26 50.188 50.085 49.94 49.758 49.668 49.6 49.528 49.405 49.16 49.03 48.923 48.848 48.645 48.513 48.355 48.183 48.085 48.078 48.08 48.065 48.02 47.975 47.963 47.963 47.945 47.933 47.938 47.89 47.838 47.778 47.685 47.673 47.538 47.353 47.605 47.635 47.678 47.76 47.878 48.135 48.41 48.623 48.795 48.958 49.085 49.253 49.45 49.595 49.713 49.813 49.895 50.053 50.283 50.34 50.288 50.263 50.195 50.185 50.115 49.998 49.923 49.873 49.813 49.753 49.67 49.663 49.555 49.488 49.423 49.355 49.298 49.22 49.15 49.12 49.073 49.048 49.058 49.023 48.985 48.98 49.023 49.085 49.15 49.188 49.288 49.358 49.435 49.528 49.633 49.783 49.883 50.013 50.173 50.303 50.413 50.595 50.708 50.805 51.003 51.148 51.278 51.358 51.493 51.613 51.773 51.918 52.083 52.195 52.308 52.42 52.523 52.66 52.79 52.863 52.95 53.018 53.13 53.23 53.285 53.388 53.49 53.6 53.728 53.825 53.495 52.895 52.233 51.708 51.468 51.46
-9999 -9999 -9999 -9999 -9999 -9999 -9999 -9999 -9999 -9999 -9999 -9999 -9999 -9999 -9999 -9999 -9999 -9999 -9999 -9999 -9999 -9999 -9999 -9999 -9999 -9999 -9999 -9999 -9999 -9999 -9999 -9999 -9999 -9999 -9999 -9999 -9999 -9999 -9999 -9999 -9999 -9999 -9999 -9999 -9999 -9999 -9999 -9999 -9999 -9999 -9999 -9999 -9999 -9999 -9999 -9999 -9999 -9999 -9999 -9999 -9999 -9999 -9999 -9999 -9999 -9999 -9999 -9999 -9999 -9999 -9999 -9999 -9999 -9999 -9999 -9999 -9999 -9999 -9999 -9999 -9999 -9999 -9999 -9999 -9999 -9999 -9999 -9999 -9999 -9999 -9999 -9999 -9999 -9999 -9999 -9999 -9999 -9999 -9999 -9999 -9999 -9999 -9999 -9999 -9999 -9999 -9999 -9999 -9999 -9999 -9999 -9999 -9999 -9999 -9999 -9999 -9999 -9999 -9999 -9999 -9999 -9999 -9999 -9999 -9999 -9999 -9999 -9999 -9999 -9999 -9999 -9999 -9999 -9999 -9999 -9999 -9999 -9999 -9999 -9999 -9999 -9999 -9999 -9999 -9999 -9999 -9999 -9999 -9999 -9999 -9999 -9999 -9999 -9999 -9999 -9999 -9999 -9999 -9999 -9999 -9999 -9999 -9999 -9999 -9999 -9999 -9999 -9999 -9999 -9999 -9999 -9999 -9999 -9999 -9999 -9999 -9999 -9999 -9999 -9999 -9999 -9999 -9999 -9999 -9999 -9999 -9999 -9999 -9999 -9999 -9999 -9999 -9999 -9999 -9999 -9999 -9999 -9999 -9999 -9999 -9999 -9999 -9999 -9999 -9999 -9999 -9999 -9999 -9999 -9999 -9999 -9999 -9999 -9999 -9999 -9999 -9999 -9999 -9999 -9999 -9999 -9999 -9999 -9999 -9999 -9999 -9999 54.727 54.538 54.373 54.303 54.288 54.26 54.23 54.203 54.185 54.165 54.043 53.96 53.96 53.848 53.67 53.505 53.448 53.455 53.46 53.433 53.4 53.438 53.433 53.43 53.48 53.468 53.498 53.448 53.45 53.408 53.378 53.335 53.275 53.253 53.19 53.143 53.105 53.038 52.965 52.875 52.8 52.675 52.638 52.593 52.538 52.53 52.49 52.43 52.443 52.423 52.47 52.483 52.48 52.45 52.438 52.433 52.41 52.363 52.315 52.263 52.213 52.16 52.11 52.033 51.953 51.85 51.813 51.758 51.71 51.678 51.64 51.578 51.553 51.49 51.46 51.44 51.358 51.328 51.29 51.225 51.198 51.17 51.08 51.028 50.988 50.913 50.853 50.813 50.738 50.693 50.625 50.62 50.553 50.543 50.503 50.488 50.53 50.585 50.595 50.615 50.65 50.74 50.8 50.84 50.883 50.91 50.953 50.983 51.053 51.04 51.055 51.053 51.023 50.915 50.763 50.713 50.63 50.525 50.468 50.37 50.293 50.215 50.133 50.005 49.855 49.705 49.61 49.558 49.455 49.28 49.133 49.053 48.97 48.813 48.568 48.385 48.235 48.153 48.108 48.11 48.103 48.078 48.028 47.973 47.973 47.96 47.94 47.953 47.908 47.838 47.788 47.72 47.688 47.678 47.39 47.545 47.66 47.698 47.753 47.885 48.093 48.355 48.613 48.798 48.978 49.055 49.2 49.385 49.553 49.665 49.755 49.85 49.938 50.183 50.278 50.258 50.24 50.158 50.128 50.068 49.953 49.875 49.795 49.75 49.675 49.628 49.53 49.49 49.47 49.385 49.305 49.213 49.168 49.113 49.06 49 48.975 48.963 48.963 48.923 48.938 48.913 49.015 49.068 49.148 49.21 49.29 49.39 49.46 49.548 49.658 49.773 49.943 50.073 50.235 50.343 50.46 50.628 50.73 50.878 51.008 51.158 51.263 51.345 51.485 51.628 51.78 51.888 52.038 52.21 52.328 52.44 52.543 52.65 52.725 52.8 52.915 52.98 53.073 53.148 53.283 53.418 53.513 53.505 53.498 52.853 52.193 51.665 51.383 51.325 51.368
-9999 -9999 -9999 -9999 -9999 -9999 -9999 -9999 -9999 -9999 -9999 -9999 -9999 -9999 -9999 -9999 -9999 -9999 -9999 -9999 -9999 -9999 -9999 -9999 -9999 -9999 -9999 -9999 -9999 -9999 -9999 -9999 -9999 -9999 -9999 -9999 -9999 -9999 -9999 -9999 -9999 -9999 -9999 -9999 -9999 -9999 -9999 -9999 -9999 -9999 -9999 -9999 -9999 -9999 -9999 -9999 -9999 -9999 -9999 -9999 -9999 -9999 -9999 -9999 -9999 -9999 -9999 -9999 -9999 -9999 -9999 -9999 -9999 -9999 -9999 -9999 -9999 -9999 -9999 -9999 -9999 -9999 -9999 -9999 -9999 -9999 -9999 -9999 -9999 -9999 -9999 -9999 -9999 -9999 -9999 -9999 -9999 -9999 -9999 -9999 -9999 -9999 -9999 -9999 -9999 -9999 -9999 -9999 -9999 -9999 -9999 -9999 -9999 -9999 -9999 -9999 -9999 -9999 -9999 -9999 -9999 -9999 -9999 -9999 -9999 -9999 -9999 -9999 -9999 -9999 -9999 -9999 -9999 -9999 -9999 -9999 -9999 -9999 -9999 -9999 -9999 -9999 -9999 -9999 -9999 -9999 -9999 -9999 -9999 -9999 -9999 -9999 -9999 -9999 -9999 -9999 -9999 -9999 -9999 -9999 -9999 -9999 -9999 -9999 -9999 -9999 -9999 -9999 -9999 -9999 -9999 -9999 -9999 -9999 -9999 -9999 -9999 -9999 -9999 -9999 -9999 -9999 -9999 -9999 -9999 -9999 -9999 -9999 -9999 -9999 -9999 -9999 -9999 -9999 -9999 -9999 -9999 -9999 -9999 -9999 -9999 -9999 -9999 -9999 -9999 -9999 -9999 -9999 -9999 -9999 -9999 -9999 -9999 -9999 -9999 -9999 -9999 -9999 -9999 -9999 -9999 -9999 -9999 -9999 -9999 -9999 -9999 -9999 54.447 54.335 54.273 54.233 54.228 54.183 54.17 54.175 54.11 54.005 53.963 53.985 53.775 53.523 53.408 53.355 53.368 53.363 53.34 53.303 53.345 53.348 53.323 53.393 53.398 53.385 53.363 53.353 53.355 53.333 53.288 53.233 53.22 53.165 53.123 53.078 53.023 52.953 52.87 52.83 52.728 52.688 52.635 52.603 52.57 52.553 52.515 52.53 52.5 52.498 52.498 52.503 52.518 52.483 52.46 52.44 52.425 52.37 52.308 52.235 52.15 52.093 52.028 51.985 51.893 51.843 51.795 51.748 51.683 51.62 51.583 51.568 51.525 51.448 51.428 51.345 51.288 51.25 51.188 51.133 51.055 51.003 50.968 50.868 50.823 50.725 50.648 50.608 50.565 50.488 50.445 50.385 50.365 50.403 50.433 50.46 50.47 50.515 50.563 50.6 50.655 50.76 50.803 50.82 50.878 50.948 50.99 51.013 51.055 51.068 51.078 51.08 51.053 50.898 50.775 50.703 50.578 50.503 50.405 50.32 50.235 50.143 50.058 49.953 49.755 49.62 49.543 49.478 49.35 49.265 49.13 49.055 48.883 48.71 48.473 48.275 48.19 48.16 48.163 48.173 48.128 48.058 48.02 47.96 47.92 47.923 47.938 47.895 47.885 47.803 47.73 47.718 47.705 47.593 47.43 47.638 47.73 47.745 47.865 48.093 48.343 48.593 48.77 48.938 49.065 49.18 49.32 49.503 49.623 49.73 49.815 49.908 50.093 50.208 50.218 50.17 50.1 50.043 49.993 49.928 49.845 49.743 49.663 49.59 49.535 49.465 49.43 49.37 49.313 49.233 49.155 49.093 49.058 48.99 48.935 48.893 48.903 48.883 48.905 48.898 48.898 48.923 48.968 49.078 49.18 49.238 49.3 49.385 49.468 49.563 49.715 49.84 49.96 50.113 50.243 50.385 50.51 50.645 50.78 50.915 51.02 51.135 51.245 51.37 51.493 51.643 51.78 51.925 52.07 52.178 52.278 52.408 52.495 52.623 52.733 52.8 52.865 52.945 53.06 53.165 53.373 53.425 53.268 52.875 52.168 51.668 51.38 51.263 51.263 51.425
-9999 -9999 -9999 -9999 -9999 -9999 -9999 -9999 -9999 -9999 -9999 -9999 -9999 -9999 -9999 -9999 -9999 -9999 -9999 -9999 -9999 -9999 -9999 -9999 -9999 -9999 -9999 -9999 -9999 -9999 -9999 -9999 -9999 -9999 -9999 -9999 -9999 -9999 -9999 -9999 -9999 -9999 -9999 -9999 -9999 -9999 -9999 -9999 -9999 -9999 -9999 -9999 -9999 -9999 -9999 -9999 -9999 -9999 -9999 -9999 -9999 -9999 -9999 -9999 -9999 -9999 -9999 -9999 -9999 -9999 -9999 -9999 -9999 -9999 -9999 -9999 -9999 -9999 -9999 -9999 -9999 -9999 -9999 -9999 -9999 -9999 -9999 -9999 -9999 -9999 -9999 -9999 -9999 -9999 -9999 -9999 -9999 -9999 -9999 -9999 -9999 -9999 -9999 -9999 -9999 -9999 -9999 -9999 -9999 -9999 -9999 -9999 -9999 -9999 -9999 -9999 -9999 -9999 -9999 -9999 -9999 -9999 -9999 -9999 -9999 -9999 -9999 -9999 -9999 -9999 -9999 -9999 -9999 -9999 -9999 -9999 -9999 -9999 -9999 -9999 -9999 -9999 -9999 -9999 -9999 -9999 -9999 -9999 -9999 -9999 -9999 -9999 -9999 -9999 -9999 -9999 -9999 -9999 -9999 -9999 -9999 -9999 -9999 -9999 -9999 -9999 -9999 -9999 -9999 -9999 -9999 -9999 -9999 -9999 -9999 -9999 -9999 -9999 -9999 -9999 -9999 -9999 -9999 -9999 -9999 -9999 -9999 -9999 -9999 -9999 -9999 -9999 -9999 -9999 -9999 -9999 -9999 -9999 -9999 -9999 -9999 -9999 -9999 -9999 -9999 -9999 -9999 -9999 -9999 -9999 -9999 -9999 -9999 -9999 -9999 -9999 -9999 -9999 -9999 -9999 -9999 -9999 -9999 -9999 -9999 -9999 -9999 -9999 -9999 54.278 54.255 54.205 54.188 54.158 54.158 54.09 53.988 53.96 53.95 53.915 53.645 53.378 53.29 53.255 53.28 53.268 53.24 53.243 53.26 53.26 53.26 53.288 53.31 53.293 53.305 53.283 53.235 53.263 53.243 53.208 53.185 53.153 53.088 53.045 53.025 52.973 52.883 52.85 52.8 52.743 52.698 52.635 52.625 52.633 52.595 52.583 52.563 52.555 52.558 52.568 52.583 52.525 52.503 52.458 52.418 52.395 52.348 52.26 52.183 52.115 52.093 52.015 51.94 51.905 51.825 51.78 51.723 51.668 51.63 51.57 51.518 51.458 51.378 51.318 51.238 51.185 51.138 51.07 51.003 50.943 50.823 50.74 50.705 50.565 50.485 50.473 50.41 50.37 50.323 50.27 50.258 50.31 50.328 50.33 50.39 50.453 50.473 50.55 50.598 50.68 50.73 50.795 50.86 50.92 50.963 50.975 51.06 51.095 51.118 51.123 51.118 51.038 50.923 50.788 50.665 50.553 50.445 50.373 50.288 50.165 50.095 49.99 49.893 49.7 49.54 49.438 49.395 49.343 49.263 49.115 48.955 48.828 48.68 48.41 48.228 48.17 48.203 48.195 48.17 48.098 48.038 47.99 47.923 47.923 47.91 47.91 47.855 47.805 47.755 47.708 47.713 47.74 47.448 47.5 47.71 47.783 47.85 48.043 48.328 48.56 48.758 48.925 49.055 49.14 49.26 49.403 49.56 49.693 49.783 49.885 50.003 49.988 50.013 50.13 50.045 49.995 49.948 49.885 49.838 49.713 49.613 49.533 49.44 49.415 49.333 49.248 49.223 49.173 49.1 49.043 48.993 48.94 48.878 48.833 48.81 48.815 48.85 48.848 48.858 48.853 48.883 48.965 49.11 49.145 49.245 49.323 49.4 49.48 49.63 49.76 49.903 50 50.123 50.335 50.408 50.518 50.633 50.783 50.923 51.033 51.15 51.263 51.36 51.53 51.67 51.8 51.928 52.038 52.165 52.26 52.37 52.45 52.548 52.66 52.728 52.82 52.978 53.088 53.293 53.203 52.893 52.148 51.588 51.343 51.318 51.3 51.348 51.465
-9999 -9999 -9999 -9999 -9999 -9999 -9999 -9999 -9999 -9999 -9999 -9999 -9999 -9999 -9999 -9999 -9999 -9999 -9999 -9999 -9999 -9999 -9999 -9999 -9999 -9999 -9999 -9999 -9999 -9999 -9999 -9999 -9999 -9999 -9999 -9999 -9999 -9999 -9999 -9999 -9999 -9999 -9999 -9999 -9999 -9999 -9999 -9999 -9999 -9999 -9999 -9999 -9999 -9999 -9999 -9999 -9999 -9999 -9999 -9999 -9999 -9999 -9999 -9999 -9999 -9999 -9999 -9999 -9999 -9999 -9999 -9999 -9999 -9999 -9999 -9999 -9999 -9999 -9999 -9999 -9999 -9999 -9999 -9999 -9999 -9999 -9999 -9999 -9999 -9999 -9999 -9999 -9999 -9999 -9999 -9999 -9999 -9999 -9999 -9999 -9999 -9999 -9999 -9999 -9999 -9999 -9999 -9999 -9999 -9999 -9999 -9999 -9999 -9999 -9999 -9999 -9999 -9999 -9999 -9999 -9999 -9999 -9999 -9999 -9999 -9999 -9999 -9999 -9999 -9999 -9999 -9999 -9999 -9999 -9999 -9999 -9999 -9999 -9999 -9999 -9999 -9999 -9999 -9999 -9999 -9999 -9999 -9999 -9999 -9999 -9999 -9999 -9999 -9999 -9999 -9999 -9999 -9999 -9999 -9999 -9999 -9999 -9999 -9999 -9999 -9999 -9999 -9999 -9999 -9999 -9999 -9999 -9999 -9999 -9999 -9999 -9999 -9999 -9999 -9999 -9999 -9999 -9999 -9999 -9999 -9999 -9999 -9999 -9999 -9999 -9999 -9999 -9999 -9999 -9999 -9999 -9999 -9999 -9999 -9999 -9999 -9999 -9999 -9999 -9999 -9999 -9999 -9999 -9999 -9999 -9999 -9999 -9999 -9999 -9999 -9999 -9999 -9999 -9999 -9999 -9999 -9999 -9999 -9999 -9999 -9999 -9999 -9999 -9999 54.23 54.218 54.205 54.175 54.155 54.128 54.028 53.983 53.968 53.898 53.735 53.483 53.288 53.19 53.165 53.178 53.155 53.14 53.155 53.14 53.143 53.17 53.16 53.203 53.215 53.213 53.208 53.175 53.2 53.208 53.153 53.13 53.125 53.07 53.048 53.038 52.93 52.903 52.85 52.81 52.783 52.75 52.703 52.688 52.66 52.638 52.603 52.63 52.643 52.66 52.62 52.583 52.553 52.503 52.5 52.485 52.44 52.405 52.305 52.23 52.143 52.105 52.073 51.985 51.925 51.87 51.798 51.738 51.69 51.64 51.545 51.488 51.433 51.37 51.273 51.2 51.133 51.045 50.98 50.9 50.838 50.76 50.65 50.583 50.483 50.418 50.355 50.298 50.225 50.188 50.205 50.205 50.18 50.205 50.248 50.33 50.348 50.393 50.47 50.538 50.598 50.65 50.73 50.813 50.863 50.923 50.965 50.995 51.068 51.105 51.098 51.09 51.113 51.04 50.983 50.79 50.623 50.503 50.38 50.328 50.22 50.083 50.01 49.908 49.785 49.615 49.448 49.38 49.36 49.298 49.203 49.023 48.91 48.773 48.58 48.353 48.265 48.263 48.255 48.21 48.153 48.088 48.028 47.945 47.895 47.908 47.908 47.86 47.813 47.78 47.718 47.735 47.77 47.625 47.34 47.67 47.765 47.853 48.008 48.288 48.555 48.728 48.883 49.045 49.133 49.213 49.333 49.508 49.68 49.805 49.87 49.91 49.878 49.855 49.928 49.945 49.933 49.868 49.818 49.728 49.69 49.608 49.468 49.415 49.34 49.263 49.193 49.133 49.103 49.033 48.965 48.905 48.873 48.833 48.808 48.78 48.795 48.808 48.805 48.788 48.82 48.825 48.895 48.998 49.098 49.168 49.248 49.353 49.443 49.553 49.69 49.775 49.875 50.02 50.188 50.288 50.403 50.513 50.643 50.808 50.905 51.003 51.115 51.238 51.393 51.545 51.675 51.793 51.908 52.008 52.15 52.215 52.333 52.435 52.488 52.608 52.75 52.89 52.968 53.06 52.703 52.128 51.548 51.275 51.31 51.27 51.333 51.4 51.49
-9999 -9999 -9999 -9999 -9999 -9999 -9999 -9999 -9999 -9999 -9999 -9999 -9999 -9999 -9999 -9999 -9999 -9999 -9999 -9999 -9999 -9999 -9999 -9999 -9999 -9999 -9999 -9999 -9999 -9999 -9999 -9999 -9999 -9999 -9999 -9999 -9999 -9999 -9999 -9999 -9999 -9999 -9999 -9999 -9999 -9999 -9999 -9999 -9999 -9999 -9999 -9999 -9999 -9999 -9999 -9999 -9999 -9999 -9999 -9999 -9999 -9999 -9999 -9999 -9999 -9999 -9999 -9999 -9999 -9999 -9999 -9999 -9999 -9999 -9999 -9999 -9999 -9999 -9999 -9999 -9999 -9999 -9999 -9999 -9999 -9999 -9999 -9999 -9999 -9999 -9999 -9999 -9999 -9999 -9999 -9999 -9999 -9999 -9999 -9999 -9999 -9999 -9999 -9999 -9999 -9999 -9999 -9999 -9999 -9999 -9999 -9999 -9999 -9999 -9999 -9999 -9999 -9999 -9999 -9999 -9999 -9999 -9999 -9999 -9999 -9999 -9999 -9999 -9999 -9999 -9999 -9999 -9999 -9999 -9999 -9999 -9999 -9999 -9999 -9999 -9999 -9999 -9999 -9999 -9999 -9999 -9999 -9999 -9999 -9999 -9999 -9999 -9999 -9999 -9999 -9999 -9999 -9999 -9999 -9999 -9999 -9999 -9999 -9999 -9999 -9999 -9999 -9999 -9999 -9999 -9999 -9999 -9999 -9999 -9999 -9999 -9999 -9999 -9999 -9999 -9999 -9999 -9999 -9999 -9999 -9999 -9999 -9999 -9999 -9999 -9999 -9999 -9999 -9999 -9999 -9999 -9999 -9999 -9999 -9999 -9999 -9999 -9999 -9999 -9999 -9999 -9999 -9999 -9999 -9999 -9999 -9999 -9999 -9999 -9999 -9999 -9999 -9999 -9999 -9999 -9999 -9999 -9999 -9999 -9999 -9999 -9999 -9999 -9999 -9999 54.23 54.205 54.158 54.165 54.13 53.998 53.973 53.965 53.885 53.68 53.365 53.185 53.143 53.143 53.093 53.055 53.075 53.075 53.095 53.038 53.078 53.113 53.128 53.113 53.168 53.133 53.155 53.14 53.14 53.115 53.09 53.07 53.065 53.043 52.993 52.955 52.903 52.873 52.835 52.813 52.728 52.718 52.71 52.7 52.64 52.645 52.65 52.683 52.698 52.658 52.623 52.63 52.55 52.575 52.51 52.455 52.388 52.338 52.26 52.18 52.1 52.055 51.993 51.92 51.9 51.798 51.74 51.665 51.61 51.54 51.475 51.393 51.295 51.218 51.15 51.058 50.97 50.91 50.788 50.703 50.633 50.56 50.453 50.363 50.288 50.205 50.143 50.143 50.095 50.095 50.093 50.088 50.145 50.168 50.228 50.258 50.32 50.42 50.503 50.533 50.57 50.665 50.748 50.83 50.885 50.925 50.965 51.025 51.065 51.09 51.128 51.078 51.053 51.015 50.863 50.683 50.56 50.395 50.303 50.225 50.125 50.01 49.945 49.848 49.73 49.573 49.42 49.36 49.283 49.265 49.148 48.995 48.86 48.733 48.623 48.4 48.293 48.285 48.265 48.21 48.11 48.053 47.97 47.91 47.89 47.878 47.855 47.845 47.818 47.775 47.758 47.763 47.788 47.513 47.51 47.753 47.838 47.95 48.213 48.505 48.71 48.89 49.02 49.113 49.2 49.315 49.465 49.648 49.783 49.828 49.853 49.805 49.713 49.695 49.723 49.823 49.795 49.748 49.7 49.638 49.545 49.435 49.353 49.295 49.225 49.13 49.055 49.01 48.968 48.893 48.86 48.833 48.798 48.765 48.763 48.755 48.773 48.808 48.79 48.803 48.788 48.833 48.93 49.038 49.113 49.198 49.27 49.428 49.518 49.59 49.708 49.81 49.908 50.043 50.198 50.315 50.43 50.543 50.643 50.77 50.908 51.033 51.105 51.288 51.418 51.523 51.668 51.793 51.903 52.008 52.09 52.183 52.28 52.37 52.48 52.64 52.838 52.888 52.57 52.035 51.503 51.313 51.248 51.238 51.305 51.34 51.393 51.498
-9999 -9999 -9999 -9999 -9999 -9999 -9999 -9999 -9999 -9999 -9999 -9999 -9999 -9999 -9999 -9999 -9999 -9999 -9999 -9999 -9999 -9999 -9999 -9999 -9999 -9999 -9999 -9999 -9999 -9999 -9999 -9999 -9999 -9999 -9999 -9999 -9999 -9999 -9999 -9999 -9999 -9999 -9999 -9999 -9999 -9999 -9999 -9999 -9999 -9999 -9999 -9999 -9999 -9999 -9999 -9999 -9999 -9999 -9999 -9999 -9999 -9999 -9999 -9999 -9999 -9999 -9999 -9999 -9999 -9999 -9999 -9999 -9999 -9999 -9999 -9999 -9999 -9999 -9999 -9999 -9999 -9999 -9999 -9999 -9999 -9999 -9999 -9999 -9999 -9999 -9999 -9999 -9999 -9999 -9999 -9999 -9999 -9999 -9999 -9999 -9999 -9999 -9999 -9999 -9999 -9999 -9999 -9999 -9999 -9999 -9999 -9999 -9999 -9999 -9999 -9999 -9999 -9999 -9999 -9999 -9999 -9999 -9999 -9999 -9999 -9999 -9999 -9999 -9999 -9999 -9999 -9999 -9999 -9999 -9999 -9999 -9999 -9999 -9999 -9999 -9999 -9999 -9999 -9999 -9999 -9999 -9999 -9999 -9999 -9999 -9999 -9999 -9999 -9999 -9999 -9999 -9999 -9999 -9999 -9999 -9999 -9999 -9999 -9999 -9999 -9999 -9999 -9999 -9999 -9999 -9999 -9999 -9999 -9999 -9999 -9999 -9999 -9999 -9999 -9999 -9999 -9999 -9999 -9999 -9999 -9999 -9999 -9999 -9999 -9999 -9999 -9999 -9999 -9999 -9999 -9999 -9999 -9999 -9999 -9999 -9999 -9999 -9999 -9999 -9999 -9999 -9999 -9999 -9999 -9999 -9999 -9999 -9999 -9999 -9999 -9999 -9999 -9999 -9999 -9999 -9999 -9999 -9999 -9999 -9999 -9999 -9999 -9999 -9999 -9999 -9999 54.215 54.153 54.153 54.068 53.963 53.94 53.953 53.848 53.563 53.253 53.098 53.075 53.073 53.025 52.99 52.995 52.993 52.99 52.993 53.01 53.04 53.013 53.02 53.07 53.065 53.095 53.105 53.09 53.08 53.078 53.043 53.043 53.038 53.008 52.955 52.923 52.878 52.87 52.845 52.8 52.765 52.735 52.74 52.698 52.67 52.675 52.693 52.69 52.688 52.688 52.648 52.575 52.59 52.545 52.465 52.433 52.33 52.323 52.24 52.158 52.058 52.035 51.95 51.928 51.828 51.738 51.648 51.6 51.51 51.445 51.338 51.25 51.19 51.088 51.003 50.893 50.833 50.733 50.633 50.538 50.43 50.363 50.263 50.178 50.113 50.073 50.03 49.993 49.958 49.983 50.013 50.058 50.055 50.123 50.18 50.25 50.355 50.413 50.495 50.565 50.648 50.69 50.78 50.838 50.88 50.923 51.005 51.05 51.09 51.113 51.113 51.045 50.988 50.955 50.793 50.648 50.47 50.3 50.225 50.153 50.05 49.97 49.85 49.755 49.67 49.513 49.328 49.273 49.25 49.195 49.128 48.988 48.893 48.783 48.603 48.38 48.32 48.308 48.268 48.155 48.038 47.955 47.933 47.863 47.868 47.87 47.848 47.845 47.825 47.805 47.783 47.845 47.835 47.415 47.663 47.845 47.91 48.143 48.463 48.678 48.86 48.97 49.08 49.183 49.305 49.433 49.593 49.708 49.775 49.803 49.743 49.62 49.503 49.513 49.613 49.713 49.713 49.635 49.545 49.508 49.418 49.303 49.238 49.143 49.08 49.018 48.96 48.878 48.853 48.818 48.778 48.755 48.738 48.733 48.69 48.71 48.76 48.743 48.775 48.808 48.815 48.888 48.943 49.035 49.143 49.21 49.323 49.42 49.495 49.605 49.718 49.85 49.975 50.073 50.18 50.293 50.425 50.55 50.668 50.805 50.91 51 51.135 51.263 51.398 51.513 51.62 51.718 51.85 51.938 52.035 52.128 52.268 52.388 52.615 52.688 52.468 51.985 51.41 51.18 51.145 51.183 51.268 51.33 51.433 51.478 51.613
-9999 -9999 -9999 -9999 -9999 -9999 -9999 -9999 -9999 -9999 -9999 -9999 -9999 -9999 -9999 -9999 -9999 -9999 -9999 -9999 -9999 -9999 -9999 -9999 -9999 -9999 -9999 -9999 -9999 -9999 -9999 -9999 -9999 -9999 -9999 -9999 -9999 -9999 -9999 -9999 -9999 -9999 -9999 -9999 -9999 -9999 -9999 -9999 -9999 -9999 -9999 -9999 -9999 -9999 -9999 -9999 -9999 -9999 -9999 -9999 -9999 -9999 -9999 -9999 -9999 -9999 -9999 -9999 -9999 -9999 -9999 -9999 -9999 -9999 -9999 -9999 -9999 -9999 -9999 -9999 -9999 -9999 -9999 -9999 -9999 -9999 -9999 -9999 -9999 -9999 -9999 -9999 -9999 -9999 -9999 -9999 -9999 -9999 -9999 -9999 -9999 -9999 -9999 -9999 -9999 -9999 -9999 -9999 -9999 -9999 -9999 -9999 -9999 -9999 -9999 -9999 -9999 -9999 -9999 -9999 -9999 -9999 -9999 -9999 -9999 -9999 -9999 -9999 -9999 -9999 -9999 -9999 -9999 -9999 -9999 -9999 -9999 -9999 -9999 -9999 -9999 -9999 -9999 -9999 -9999 -9999 -9999 -9999 -9999 -9999 -9999 -9999 -9999 -9999 -9999 -9999 -9999 -9999 -9999 -9999 -9999 -9999 -9999 -9999 -9999 -9999 -9999 -9999 -9999 -9999 -9999 -9999 -9999 -9999 -9999 -9999 -9999 -9999 -9999 -9999 -9999 -9999 -9999 -9999 -9999 -9999 -9999 -9999 -9999 -9999 -9999 -9999 -9999 -9999 -9999 -9999 -9999 -9999 -9999 -9999 -9999 -9999 -9999 -9999 -9999 -9999 -9999 -9999 -9999 -9999 -9999 -9999 -9999 -9999 -9999 -9999 -9999 -9999 -9999 -9999 -9999 -9999 -9999 -9999 -9999 -9999 -9999 -9999 -9999 -9999 -9999 54.205 54.17 54.133 53.978 53.978 53.96 53.91 53.855 53.413 53.133 53.04 53.013 52.978 52.948 52.913 52.908 52.915 52.925 52.938 52.948 52.958 52.96 52.973 52.975 52.983 52.998 53.025 53.05 53.045 53.043 53.04 53.025 53.04 53.008 52.97 52.93 52.895 52.893 52.828 52.815 52.778 52.758 52.743 52.688 52.693 52.705 52.728 52.695 52.713 52.67 52.633 52.603 52.595 52.53 52.485 52.413 52.353 52.303 52.253 52.15 52.083 52.04 51.913 51.87 51.81 51.725 51.635 51.558 51.483 51.408 51.283 51.175 51.12 51.008 50.908 50.808 50.735 50.66 50.56 50.433 50.358 50.25 50.155 50.103 49.973 49.938 49.908 49.885 49.88 49.89 49.92 49.94 49.985 50 50.105 50.18 50.235 50.345 50.455 50.533 50.618 50.67 50.705 50.788 50.853 50.895 50.948 51.003 51.03 51.05 51.06 51.01 50.973 50.97 50.858 50.718 50.525 50.348 50.235 50.158 50.09 49.985 49.863 49.755 49.665 49.563 49.41 49.293 49.263 49.223 49.153 49.07 48.925 48.803 48.738 48.59 48.415 48.335 48.285 48.175 48.023 47.935 47.928 47.86 47.87 47.88 47.86 47.89 47.908 47.853 47.795 47.825 47.878 47.633 47.478 47.818 47.868 48.033 48.375 48.645 48.813 48.96 49.05 49.158 49.29 49.4 49.543 49.663 49.73 49.735 49.673 49.55 49.46 49.315 49.35 49.488 49.628 49.565 49.465 49.423 49.318 49.245 49.173 49.105 49.023 48.968 48.883 48.85 48.828 48.765 48.75 48.7 48.7 48.705 48.688 48.685 48.685 48.698 48.775 48.77 48.838 48.845 48.918 48.99 49.095 49.163 49.275 49.373 49.443 49.528 49.62 49.738 49.823 49.955 50.07 50.213 50.303 50.433 50.57 50.71 50.783 50.87 50.993 51.118 51.275 51.395 51.505 51.605 51.703 51.783 51.918 52.035 52.158 52.403 52.643 52.443 51.895 51.353 51.155 51.12 51.113 51.21 51.248 51.313 51.41 51.548 51.718
-9999 -9999 -9999 -9999 -9999 -9999 -9999 -9999 -9999 -9999 -9999 -9999 -9999 -9999 -9999 -9999 -9999 -9999 -9999 -9999 -9999 -9999 -9999 -9999 -9999 -9999 -9999 -9999 -9999 -9999 -9999 -9999 -9999 -9999 -9999 -9999 -9999 -9999 -9999 -9999 -9999 -9999 -9999 -9999 -9999 -9999 -9999 -9999 -9999 -9999 -9999 -9999 -9999 -9999 -9999 -9999 -9999 -9999 -9999 -9999 -9999 -9999 -9999 -9999 -9999 -9999 -9999 -9999 -9999 -9999 -9999 -9999 -9999 -9999 -9999 -9999 -9999 -9999 -9999 -9999 -9999 -9999 -9999 -9999 -9999 -9999 -9999 -9999 -9999 -9999 -9999 -9999 -9999 -9999 -9999 -9999 -9999 -9999 -9999 -9999 -9999 -9999 -9999 -9999 -9999 -9999 -9999 -9999 -9999 -9999 -9999 -9999 -9999 -9999 -9999 -9999 -9999 -9999 -9999 -9999 -9999 -9999 -9999 -9999 -9999 -9999 -9999 -9999 -9999 -9999 -9999 -9999 -9999 -9999 -9999 -9999 -9999 -9999 -9999 -9999 -9999 -9999 -9999 -9999 -9999 -9999 -9999 -9999 -9999 -9999 -9999 -9999 -9999 -9999 -9999 -9999 -9999 -9999 -9999 -9999 -9999 -9999 -9999 -9999 -9999 -9999 -9999 -9999 -9999 -9999 -9999 -9999 -9999 -9999 -9999 -9999 -9999 -9999 -9999 -9999 -9999 -9999 -9999 -9999 -9999 -9999 -9999 -9999 -9999 -9999 -9999 -9999 -9999 -9999 -9999 -9999 -9999 -9999 -9999 -9999 -9999 -9999 -9999 -9999 -9999 -9999 -9999 -9999 -9999 -9999 -9999 -9999 -9999 -9999 -9999 -9999 -9999 -9999 -9999 -9999 -9999 -9999 -9999 -9999 -9999 -9999 -9999 -9999 -9999 -9999 -9999 -9999 54.187 54.11 53.97 53.988 54.003 53.97 53.813 53.293 53.06 53.003 52.973 52.913 52.89 52.84 52.838 52.88 52.83 52.823 52.835 52.883 52.903 52.935 52.958 52.953 52.928 52.978 53.015 52.998 53.018 53.013 53 53.043 52.975 52.97 52.95 52.908 52.858 52.82 52.815 52.773 52.755 52.76 52.713 52.72 52.7 52.733 52.73 52.725 52.663 52.635 52.613 52.6 52.568 52.505 52.448 52.383 52.308 52.225 52.143 52.103 52.003 51.873 51.818 51.783 51.69 51.583 51.51 51.418 51.335 51.255 51.143 51.045 50.933 50.848 50.723 50.638 50.575 50.46 50.345 50.228 50.148 50.043 49.988 49.885 49.833 49.808 49.818 49.79 49.795 49.813 49.843 49.905 49.93 49.98 50.118 50.218 50.315 50.403 50.483 50.573 50.62 50.653 50.723 50.758 50.85 50.895 50.955 50.97 50.975 51.023 50.99 50.99 50.98 50.925 50.768 50.598 50.42 50.278 50.138 50.06 49.983 49.89 49.77 49.678 49.59 49.503 49.375 49.255 49.203 49.145 49.13 49 48.86 48.798 48.778 48.565 48.395 48.295 48.17 48.08 47.94 47.895 47.868 47.858 47.873 47.88 47.91 47.935 47.948 47.908 47.865 47.863 47.863 47.435 47.678 47.88 47.97 48.29 48.605 48.78 48.92 49.003 49.128 49.283 49.383 49.473 49.55 49.648 49.65 49.585 49.488 49.37 49.295 49.228 49.325 49.435 49.498 49.435 49.35 49.25 49.21 49.123 49.06 48.953 48.905 48.858 48.798 48.77 48.755 48.71 48.67 48.64 48.678 48.653 48.655 48.648 48.67 48.743 48.765 48.825 48.83 48.9 48.963 49.03 49.105 49.173 49.288 49.375 49.443 49.56 49.663 49.72 49.848 49.953 50.113 50.21 50.313 50.445 50.588 50.698 50.79 50.928 51.023 51.148 51.258 51.345 51.425 51.538 51.66 51.78 51.918 52.15 52.35 52.17 51.758 51.238 51.075 51.075 51.088 51.108 51.195 51.295 51.383 51.513 51.665 51.793
-9999 -9999 -9999 -9999 -9999 -9999 -9999 -9999 -9999 -9999 -9999 -9999 -9999 -9999 -9999 -9999 -9999 -9999 -9999 -9999 -9999 -9999 -9999 -9999 -9999 -9999 -9999 -9999 -9999 -9999 -9999 -9999 -9999 -9999 -9999 -9999 -9999 -9999 -9999 -9999 -9999 -9999 -9999 -9999 -9999 -9999 -9999 -9999 -9999 -9999 -9999 -9999 -9999 -9999 -9999 -9999 -9999 -9999 -9999 -9999 -9999 -9999 -9999 -9999 -9999 -9999 -9999 -9999 -9999 -9999 -9999 -9999 -9999 -9999 -9999 -9999 -9999 -9999 -9999 -9999 -9999 -9999 -9999 -9999 -9999 -9999 -9999 -9999 -9999 -9999 -9999 -9999 -9999 -9999 -9999 -9999 -9999 -9999 -9999 -9999 -9999 -9999 -9999 -9999 -9999 -9999 -9999 -9999 -9999 -9999 -9999 -9999 -9999 -9999 -9999 -9999 -9999 -9999 -9999 -9999 -9999 -9999 -9999 -9999 -9999 -9999 -9999 -9999 -9999 -9999 -9999 -9999 -9999 -9999 -9999 -9999 -9999 -9999 -9999 -9999 -9999 -9999 -9999 -9999 -9999 -9999 -9999 -9999 -9999 -9999 -9999 -9999 -9999 -9999 -9999 -9999 -9999 -9999 -9999 -9999 -9999 -9999 -9999 -9999 -9999 -9999 -9999 -9999 -9999 -9999 -9999 -9999 -9999 -9999 -9999 -9999 -9999 -9999 -9999 -9999 -9999 -9999 -9999 -9999 -9999 -9999 -9999 -9999 -9999 -9999 -9999 -9999 -9999 -9999 -9999 -9999 -9999 -9999 -9999 -9999 -9999 -9999 -9999 -9999 -9999 -9999 -9999 -9999 -9999 -9999 -9999 -9999 -9999 -9999 -9999 -9999 -9999 -9999 -9999 -9999 -9999 -9999 -9999 -9999 -9999 -9999 -9999 -9999 -9999 -9999 -9999 -9999 -9999 54.035 53.97 54.008 54.003 53.978 53.695 53.165 53.008 52.963 52.935 52.885 52.803 52.805 52.785 52.788 52.773 52.758 52.79 52.815 52.835 52.838 52.9 52.898 52.915 52.91 52.965 52.968 52.985 52.965 52.99 53.005 52.945 52.965 52.925 52.908 52.885 52.87 52.858 52.8 52.765 52.74 52.753 52.738 52.71 52.74 52.748 52.718 52.7 52.658 52.625 52.608 52.568 52.475 52.428 52.4 52.328 52.188 52.148 52.073 51.995 51.923 51.783 51.723 51.635 51.513 51.465 51.363 51.275 51.18 51.1 50.985 50.84 50.75 50.645 50.565 50.468 50.37 50.248 50.15 50.06 49.963 49.855 49.785 49.755 49.705 49.7 49.668 49.688 49.738 49.773 49.823 49.883 49.98 50.073 50.155 50.26 50.34 50.428 50.485 50.57 50.648 50.698 50.735 50.805 50.845 50.873 50.89 50.928 50.953 50.96 50.978 50.948 50.908 50.83 50.695 50.483 50.345 50.193 50.065 49.983 49.908 49.775 49.685 49.618 49.545 49.478 49.31 49.203 49.143 49.14 49.085 48.94 48.838 48.845 48.758 48.55 48.323 48.173 48.063 47.988 47.918 47.878 47.878 47.868 47.883 47.903 47.96 48.028 48.023 47.955 47.903 47.925 47.693 47.525 47.855 47.99 48.225 48.533 48.75 48.888 48.99 49.1 49.228 49.335 49.458 49.52 49.558 49.575 49.485 49.415 49.335 49.258 49.225 49.218 49.305 49.38 49.38 49.285 49.23 49.098 49.058 49.008 48.943 48.898 48.818 48.773 48.735 48.69 48.658 48.633 48.62 48.625 48.633 48.648 48.685 48.678 48.705 48.755 48.808 48.82 48.878 48.918 48.995 49.065 49.165 49.265 49.353 49.435 49.475 49.555 49.64 49.775 49.895 50.028 50.138 50.263 50.36 50.488 50.593 50.703 50.808 50.943 51.068 51.143 51.245 51.335 51.445 51.555 51.668 51.845 52.015 51.93 51.51 51.203 50.998 51.02 51.04 51.088 51.153 51.23 51.308 51.458 51.645 51.823 51.995
-9999 -9999 -9999 -9999 -9999 -9999 -9999 -9999 -9999 -9999 -9999 -9999 -9999 -9999 -9999 -9999 -9999 -9999 -9999 -9999 -9999 -9999 -9999 -9999 -9999 -9999 -9999 -9999 -9999 -9999 -9999 -9999 -9999 -9999 -9999 -9999 -9999 -9999 -9999 -9999 -9999 -9999 -9999 -9999 -9999 -9999 -9999 -9999 -9999 -9999 -9999 -9999 -9999 -9999 -9999 -9999 -9999 -9999 -9999 -9999 -9999 -9999 -9999 -9999 -9999 -9999 -9999 -9999 -9999 -9999 -9999 -9999 -9999 -9999 -9999 -9999 -9999 -9999 -9999 -9999 -9999 -9999 -9999 -9999 -9999 -9999 -9999 -9999 -9999 -9999 -9999 -9999 -9999 -9999 -9999 -9999 -9999 -9999 -9999 -9999 -9999 -9999 -9999 -9999 -9999 -9999 -9999 -9999 -9999 -9999 -9999 -9999 -9999 -9999 -9999 -9999 -9999 -9999 -9999 -9999 -9999 -9999 -9999 -9999 -9999 -9999 -9999 -9999 -9999 -9999 -9999 -9999 -9999 -9999 -9999 -9999 -9999 -9999 -9999 -9999 -9999 -9999 -9999 -9999 -9999 -9999 -9999 -9999 -9999 -9999 -9999 -9999 -9999 -9999 -9999 -9999 -9999 -9999 -9999 -9999 -9999 -9999 -9999 -9999 -9999 -9999 -9999 -9999 -9999 -9999 -9999 -9999 -9999 -9999 -9999 -9999 -9999 -9999 -9999 -9999 -9999 -9999 -9999 -9999 -9999 -9999 -9999 -9999 -9999 -9999 -9999 -9999 -9999 -9999 -9999 -9999 -9999 -9999 -9999 -9999 -9999 -9999 -9999 -9999 -9999 -9999 -9999 -9999 -9999 -9999 -9999 -9999 -9999 -9999 -9999 -9999 -9999 -9999 -9999 -9999 -9999 -9999 -9999 -9999 -9999 -9999 -9999 -9999 -9999 -9999 -9999 -9999 -9999 -9999 54.013 54.003 53.983 54.048 53.653 53.115 52.958 52.93 52.9 52.85 52.798 52.753 52.763 52.705 52.723 52.705 52.758 52.753 52.793 52.795 52.85 52.875 52.89 52.898 52.91 52.955 52.948 52.923 52.925 52.963 52.923 52.945 52.903 52.888 52.893 52.86 52.833 52.828 52.768 52.773 52.745 52.74 52.733 52.748 52.76 52.743 52.723 52.663 52.643 52.598 52.573 52.498 52.438 52.35 52.298 52.185 52.088 52.05 51.95 51.843 51.75 51.678 51.608 51.503 51.42 51.323 51.23 51.13 51.015 50.9 50.82 50.738 50.615 50.475 50.368 50.285 50.165 50.035 49.918 49.848 49.768 49.723 49.633 49.625 49.593 49.563 49.595 49.663 49.668 49.725 49.843 49.895 50.023 50.093 50.173 50.28 50.35 50.448 50.56 50.618 50.683 50.725 50.755 50.793 50.83 50.85 50.865 50.915 50.903 50.938 50.913 50.835 50.815 50.768 50.625 50.418 50.178 50.045 49.953 49.898 49.843 49.713 49.625 49.553 49.49 49.413 49.253 49.143 49.105 49.093 49.065 48.94 48.865 48.845 48.758 48.485 48.24 48.07 47.975 47.9 47.88 47.878 47.86 47.885 47.933 48.023 48.073 48.13 48.048 47.925 47.915 47.91 47.595 47.755 48 48.17 48.448 48.715 48.843 48.933 49.048 49.153 49.268 49.38 49.43 49.49 49.458 49.388 49.335 49.288 49.243 49.15 49.133 49.07 49.105 49.2 49.255 49.193 49.07 49.008 48.975 48.898 48.838 48.775 48.74 48.71 48.65 48.623 48.603 48.62 48.608 48.615 48.608 48.655 48.693 48.688 48.728 48.778 48.835 48.885 48.91 48.985 49.068 49.148 49.225 49.285 49.37 49.43 49.493 49.6 49.713 49.84 49.93 50.063 50.193 50.278 50.38 50.508 50.64 50.77 50.86 50.928 51.018 51.113 51.205 51.33 51.44 51.495 51.553 51.605 51.383 51.093 50.995 50.948 50.983 51.063 51.125 51.193 51.265 51.413 51.605 51.818 51.938 52.018
-9999 -9999 -9999 -9999 -9999 -9999 -9999 -9999 -9999 -9999 -9999 -9999 -9999 -9999 -9999 -9999 -9999 -9999 -9999 -9999 -9999 -9999 -9999 -9999 -9999 -9999 -9999 -9999 -9999 -9999 -9999 -9999 -9999 -9999 -9999 -9999 -9999 -9999 -9999 -9999 -9999 -9999 -9999 -9999 -9999 -9999 -9999 -9999 -9999 -9999 -9999 -9999 -9999 -9999 -9999 -9999 -9999 -9999 -9999 -9999 -9999 -9999 -9999 -9999 -9999 -9999 -9999 -9999 -9999 -9999 -9999 -9999 -9999 -9999 -9999 -9999 -9999 -9999 -9999 -9999 -9999 -9999 -9999 -9999 -9999 -9999 -9999 -9999 -9999 -9999 -9999 -9999 -9999 -9999 -9999 -9999 -9999 -9999 -9999 -9999 -9999 -9999 -9999 -9999 -9999 -9999 -9999 -9999 -9999 -9999 -9999 -9999 -9999 -9999 -9999 -9999 -9999 -9999 -9999 -9999 -9999 -9999 -9999 -9999 -9999 -9999 -9999 -9999 -9999 -9999 -9999 -9999 -9999 -9999 -9999 -9999 -9999 -9999 -9999 -9999 -9999 -9999 -9999 -9999 -9999 -9999 -9999 -9999 -9999 -9999 -9999 -9999 -9999 -9999 -9999 -9999 -9999 -9999 -9999 -9999 -9999 -9999 -9999 -9999 -9999 -9999 -9999 -9999 -9999 -9999 -9999 -9999 -9999 -9999 -9999 -9999 -9999 -9999 -9999 -9999 -9999 -9999 -9999 -9999 -9999 -9999 -9999 -9999 -9999 -9999 -9999 -9999 -9999 -9999 -9999 -9999 -9999 -9999 -9999 -9999 -9999 -9999 -9999 -9999 -9999 -9999 -9999 -9999 -9999 -9999 -9999 -9999 -9999 -9999 -9999 -9999 -9999 -9999 -9999 -9999 -9999 -9999 -9999 -9999 -9999 -9999 -9999 -9999 -9999 -9999 -9999 -9999 -9999 -9999 54.027 53.995 54.02 53.998 53.533 53.073 52.913 52.903 52.875 52.808 52.775 52.735 52.738 52.68 52.708 52.668 52.678 52.69 52.748 52.763 52.81 52.825 52.84 52.87 52.903 52.905 52.933 52.948 52.945 52.95 52.905 52.903 52.898 52.903 52.87 52.82 52.858 52.825 52.813 52.78 52.738 52.72 52.743 52.765 52.745 52.738 52.695 52.693 52.643 52.573 52.525 52.5 52.43 52.328 52.23 52.145 52.065 51.98 51.898 51.803 51.728 51.598 51.538 51.44 51.343 51.25 51.135 51.013 50.935 50.84 50.748 50.633 50.535 50.398 50.27 50.17 50.055 49.91 49.818 49.75 49.688 49.593 49.55 49.51 49.503 49.525 49.515 49.55 49.625 49.695 49.775 49.87 49.965 50.053 50.135 50.19 50.333 50.41 50.51 50.588 50.635 50.725 50.69 50.735 50.775 50.798 50.818 50.845 50.853 50.863 50.87 50.813 50.785 50.785 50.715 50.47 50.218 50.095 49.948 49.868 49.848 49.763 49.64 49.548 49.47 49.435 49.35 49.213 49.11 49.075 49.093 49.04 48.928 48.825 48.753 48.608 48.408 48.165 48.055 47.953 47.91 47.878 47.85 47.89 47.958 48.03 48.108 48.163 48.133 48 47.928 47.89 47.648 47.503 47.963 48.145 48.363 48.618 48.793 48.898 48.995 49.083 49.188 49.3 49.323 49.383 49.363 49.298 49.258 49.233 49.213 49.143 49.08 49.005 48.98 49.02 49.088 49.115 49.05 48.988 48.91 48.863 48.813 48.748 48.705 48.675 48.64 48.603 48.595 48.615 48.62 48.648 48.648 48.65 48.668 48.69 48.713 48.775 48.838 48.913 48.935 49.003 49.063 49.118 49.188 49.29 49.34 49.398 49.473 49.573 49.655 49.775 49.865 49.98 50.113 50.228 50.32 50.46 50.593 50.703 50.8 50.83 50.925 50.988 51.113 51.23 51.378 51.32 51.278 51.223 51.07 50.97 50.923 50.918 51.003 51.058 51.128 51.198 51.303 51.498 51.643 51.773 51.875 52.005
-9999 -9999 -9999 -9999 -9999 -9999 -9999 -9999 -9999 -9999 -9999 -9999 -9999 -9999 -9999 -9999 -9999 -9999 -9999 -9999 -9999 -9999 -9999 -9999 -9999 -9999 -9999 -9999 -9999 -9999 -9999 -9999 -9999 -9999 -9999 -9999 -9999 -9999 -9999 -9999 -9999 -9999 -9999 -9999 -9999 -9999 -9999 -9999 -9999 -9999 -9999 -9999 -9999 -9999 -9999 -9999 -9999 -9999 -9999 -9999 -9999 -9999 -9999 -9999 -9999 -9999 -9999 -9999 -9999 -9999 -9999 -9999 -9999 -9999 -9999 -9999 -9999 -9999 -9999 -9999 -9999 -9999 -9999 -9999 -9999 -9999 -9999 -9999 -9999 -9999 -9999 -9999 -9999 -9999 -9999 -9999 -9999 -9999 -9999 -9999 -9999 -9999 -9999 -9999 -9999 -9999 -9999 -9999 -9999 -9999 -9999 -9999 -9999 -9999 -9999 -9999 -9999 -9999 -9999 -9999 -9999 -9999 -9999 -9999 -9999 -9999 -9999 -9999 -9999 -9999 -9999 -9999 -9999 -9999 -9999 -9999 -9999 -9999 -9999 -9999 -9999 -9999 -9999 -9999 -9999 -9999 -9999 -9999 -9999 -9999 -9999 -9999 -9999 -9999 -9999 -9999 -9999 -9999 -9999 -9999 -9999 -9999 -9999 -9999 -9999 -9999 -9999 -9999 -9999 -9999 -9999 -9999 -9999 -9999 -9999 -9999 -9999 -9999 -9999 -9999 -9999 -9999 -9999 -9999 -9999 -9999 -9999 -9999 -9999 -9999 -9999 -9999 -9999 -9999 -9999 -9999 -9999 -9999 -9999 -9999 -9999 -9999 -9999 -9999 -9999 -9999 -9999 -9999 -9999 -9999 -9999 -9999 -9999 -9999 -9999 -9999 -9999 -9999 -9999 -9999 -9999 -9999 -9999 -9999 -9999 -9999 -9999 -9999 -9999 -9999 -9999 -9999 -9999 -9999 -9999 54.03 54.018 53.968 53.403 53.018 52.91 52.895 52.848 52.82 52.763 52.7 52.698 52.655 52.683 52.64 52.673 52.713 52.723 52.765 52.743 52.77 52.803 52.853 52.868 52.89 52.908 52.913 52.91 52.9 52.92 52.905 52.92 52.898 52.87 52.868 52.858 52.818 52.765 52.78 52.75 52.765 52.75 52.788 52.718 52.695 52.693 52.668 52.638 52.57 52.528 52.488 52.39 52.298 52.188 52.13 52 51.92 51.808 51.71 51.638 51.548 51.453 51.368 51.258 51.148 51.035 50.97 50.88 50.775 50.668 50.558 50.433 50.275 50.16 50.043 49.915 49.823 49.745 49.648 49.558 49.483 49.48 49.443 49.418 49.458 49.448 49.478 49.588 49.663 49.728 49.818 49.895 49.995 50.088 50.185 50.293 50.368 50.455 50.573 50.623 50.698 50.723 50.698 50.708 50.738 50.763 50.758 50.783 50.805 50.82 50.783 50.763 50.743 50.67 50.528 50.34 50.163 49.948 49.86 49.815 49.753 49.695 49.593 49.503 49.47 49.39 49.318 49.178 49.12 49.103 49.04 48.968 48.838 48.723 48.67 48.635 48.388 48.18 48.07 48.003 47.933 47.923 47.963 48.015 48.105 48.2 48.203 48.148 48.078 47.978 47.908 47.823 47.588 47.795 48.125 48.318 48.515 48.7 48.805 48.91 49.008 49.12 49.178 49.24 49.273 49.295 49.238 49.195 49.155 49.153 49.11 49 48.943 48.898 48.845 48.835 48.943 49 48.928 48.865 48.815 48.765 48.733 48.673 48.648 48.618 48.57 48.563 48.595 48.595 48.635 48.64 48.663 48.695 48.725 48.725 48.795 48.883 48.92 48.96 49.008 49.063 49.12 49.183 49.243 49.303 49.368 49.448 49.545 49.618 49.718 49.828 49.955 50.053 50.208 50.315 50.438 50.523 50.618 50.685 50.755 50.823 50.94 51.06 51.253 51.245 51.188 51.065 50.993 50.928 50.878 50.893 50.95 51 51.063 51.158 51.208 51.313 51.425 51.618 51.728 51.828 52.043
-9999 -9999 -9999 -9999 -9999 -9999 -9999 -9999 -9999 -9999 -9999 -9999 -9999 -9999 -9999 -9999 -9999 -9999 -9999 -9999 -9999 -9999 -9999 -9999 -9999 -9999 -9999 -9999 -9999 -9999 -9999 -9999 -9999 -9999 -9999 -9999 -9999 -9999 -9999 -9999 -9999 -9999 -9999 -9999 -9999 -9999 -9999 -9999 -9999 -9999 -9999 -9999 -9999 -9999 -9999 -9999 -9999 -9999 -9999 -9999 -9999 -9999 -9999 -9999 -9999 -9999 -9999 -9999 -9999 -9999 -9999 -9999 -9999 -9999 -9999 -9999 -9999 -9999 -9999 -9999 -9999 -9999 -9999 -9999 -9999 -9999 -9999 -9999 -9999 -9999 -9999 -9999 -9999 -9999 -9999 -9999 -9999 -9999 -9999 -9999 -9999 -9999 -9999 -9999 -9999 -9999 -9999 -9999 -9999 -9999 -9999 -9999 -9999 -9999 -9999 -9999 -9999 -9999 -9999 -9999 -9999 -9999 -9999 -9999 -9999 -9999 -9999 -9999 -9999 -9999 -9999 -9999 -9999 -9999 -9999 -9999 -9999 -9999 -9999 -9999 -9999 -9999 -9999 -9999 -9999 -9999 -9999 -9999 -9999 -9999 -9999 -9999 -9999 -9999 -9999 -9999 -9999 -9999 -9999 -9999 -9999 -9999 -9999 -9999 -9999 -9999 -9999 -9999 -9999 -9999 -9999 -9999 -9999 -9999 -9999 -9999 -9999 -9999 -9999 -9999 -9999 -9999 -9999 -9999 -9999 -9999 -9999 -9999 -9999 -9999 -9999 -9999 -9999 -9999 -9999 -9999 -9999 -9999 -9999 -9999 -9999 -9999 -9999 -9999 -9999 -9999 -9999 -9999 -9999 -9999 -9999 -9999 -9999 -9999 -9999 -9999 -9999 -9999 -9999 -9999 -9999 -9999 -9999 -9999 -9999 -9999 -9999 -9999 -9999 -9999 -9999 -9999 -9999 -9999 -9999 -9999 53.951 53.776 53.286 53.003 52.913 52.876 52.846 52.788 52.753 52.721 52.683 52.651 52.626 52.648 52.676 52.701 52.688 52.726 52.718 52.731 52.798 52.801 52.863 52.886 52.903 52.893 52.908 52.883 52.908 52.913 52.921 52.911 52.883 52.871 52.858 52.848 52.808 52.778 52.758 52.748 52.721 52.731 52.706 52.666 52.661 52.633 52.591 52.528 52.493 52.411 52.331 52.223 52.183 52.073 51.973 51.901 51.813 51.703 51.578 51.518 51.378 51.283 51.183 51.051 51.026 50.906 50.791 50.713 50.578 50.458 50.323 50.173 50.016 49.923 49.813 49.721 49.621 49.553 49.456 49.403 49.383 49.368 49.353 49.396 49.446 49.496 49.518 49.586 49.666 49.733 49.836 49.953 50.041 50.131 50.238 50.341 50.448 50.531 50.583 50.611 50.643 50.646 50.698 50.696 50.716 50.708 50.711 50.746 50.793 50.728 50.748 50.741 50.651 50.598 50.463 50.291 50.063 49.898 49.821 49.743 49.711 49.648 49.546 49.461 49.401 49.351 49.278 49.203 49.116 49.023 48.986 48.951 48.796 48.773 48.763 48.616 48.403 48.256 48.121 48.063 48.068 48.041 48.118 48.218 48.313 48.288 48.213 48.146 48.043 47.971 47.983 47.846 47.648 48.031 48.293 48.458 48.578 48.753 48.856 48.961 48.976 49.016 49.123 49.181 49.178 49.188 49.128 49.106 49.041 48.996 48.928 48.808 48.703 48.678 48.611 48.613 48.743 48.856 48.841 48.793 48.721 48.718 48.668 48.628 48.596 48.563 48.566 48.608 48.603 48.641 48.658 48.661 48.718 48.771 48.793 48.808 48.871 48.921 48.983 49.031 49.066 49.128 49.156 49.211 49.298 49.386 49.451 49.541 49.636 49.731 49.828 49.923 50.056 50.158 50.268 50.353 50.423 50.493 50.583 50.683 50.773 50.876 51.001 51.151 51.046 50.946 50.911 50.911 50.826 50.836 50.916 50.951 51.008 51.053 51.126 51.206 51.356 51.428 51.583 51.771 51.911 52.168
-9999 -9999 -9999 -9999 -9999 -9999 -9999 -9999 -9999 -9999 -9999 -9999 -9999 -9999 -9999 -9999 -9999 -9999 -9999 -9999 -9999 -9999 -9999 -9999 -9999 -9999 -9999 -9999 -9999 -9999 -9999 -9999 -9999 -9999 -9999 -9999 -9999 -9999 -9999 -9999 -9999 -9999 -9999 -9999 -9999 -9999 -9999 -9999 -9999 -9999 -9999 -9999 -9999 -9999 -9999 -9999 -9999 -9999 -9999 -9999 -9999 -9999 -9999 -9999 -9999 -9999 -9999 -9999 -9999 -9999 -9999 -9999 -9999 -9999 -9999 -9999 -9999 -9999 -9999 -9999 -9999 -9999 -9999 -9999 -9999 -9999 -9999 -9999 -9999 -9999 -9999 -9999 -9999 -9999 -9999 -9999 -9999 -9999 -9999 -9999 -9999 -9999 -9999 -9999 -9999 -9999 -9999 -9999 -9999 -9999 -9999 -9999 -9999 -9999 -9999 -9999 -9999 -9999 -9999 -9999 -9999 -9999 -9999 -9999 -9999 -9999 -9999 -9999 -9999 -9999 -9999 -9999 -9999 -9999 -9999 -9999 -9999 -9999 -9999 -9999 -9999 -9999 -9999 -9999 -9999 -9999 -9999 -9999 -9999 -9999 -9999 -9999 -9999 -9999 -9999 -9999 -9999 -9999 -9999 -9999 -9999 -9999 -9999 -9999 -9999 -9999 -9999 -9999 -9999 -9999 -9999 -9999 -9999 -9999 -9999 -9999 -9999 -9999 -9999 -9999 -9999 -9999 -9999 -9999 -9999 -9999 -9999 -9999 -9999 -9999 -9999 -9999 -9999 -9999 -9999 -9999 -9999 -9999 -9999 -9999 -9999 -9999 -9999 -9999 -9999 -9999 -9999 -9999 -9999 -9999 -9999 -9999 -9999 -9999 -9999 -9999 -9999 -9999 -9999 -9999 -9999 -9999 -9999 -9999 -9999 -9999 -9999 -9999 -9999 -9999 -9999 -9999 -9999 -9999 -9999 -9999 53.931 53.703 53.238 53.036 52.948 52.893 52.841 52.798 52.746 52.736 52.673 52.648 52.633 52.618 52.633 52.671 52.631 52.673 52.683 52.698 52.761 52.791 52.848 52.876 52.866 52.883 52.888 52.866 52.883 52.891 52.908 52.911 52.876 52.873 52.836 52.826 52.838 52.801 52.761 52.733 52.743 52.738 52.681 52.628 52.643 52.621 52.586 52.513 52.458 52.411 52.321 52.188 52.128 52.033 51.961 51.838 51.748 51.638 51.548 51.421 51.323 51.238 51.136 51.023 50.966 50.828 50.706 50.596 50.476 50.346 50.196 50.058 49.893 49.836 49.711 49.631 49.538 49.436 49.363 49.326 49.288 49.281 49.303 49.353 49.391 49.378 49.441 49.508 49.606 49.708 49.783 49.916 49.998 50.088 50.178 50.293 50.383 50.468 50.511 50.581 50.631 50.653 50.696 50.673 50.633 50.673 50.688 50.733 50.723 50.696 50.713 50.691 50.613 50.626 50.531 50.426 50.176 49.961 49.831 49.768 49.706 49.663 49.603 49.523 49.443 49.398 49.351 49.253 49.176 49.093 49.056 49.038 48.948 48.798 48.766 48.798 48.651 48.436 48.348 48.291 48.208 48.203 48.261 48.311 48.363 48.343 48.281 48.206 48.113 48.026 47.981 47.943 47.671 47.691 48.183 48.408 48.543 48.656 48.776 48.856 48.853 48.901 49.003 49.091 49.091 49.103 49.058 48.996 48.896 48.796 48.693 48.538 48.413 48.311 48.253 48.238 48.363 48.536 48.753 48.733 48.703 48.731 48.666 48.626 48.596 48.568 48.571 48.591 48.623 48.646 48.626 48.671 48.713 48.761 48.828 48.841 48.883 48.923 49.003 49.061 49.098 49.126 49.131 49.208 49.273 49.388 49.501 49.581 49.638 49.678 49.786 49.881 49.978 50.101 50.203 50.261 50.386 50.456 50.556 50.671 50.858 50.878 50.926 50.911 50.836 50.798 50.763 50.766 50.768 50.843 50.878 50.918 50.981 51.016 51.126 51.283 51.456 51.598 51.731 51.963 52.138 52.296
-9999 -9999 -9999 -9999 -9999 -9999 -9999 -9999 -9999 -9999 -9999 -9999 -9999 -9999 -9999 -9999 -9999 -9999 -9999 -9999 -9999 -9999 -9999 -9999 -9999 -9999 -9999 -9999 -9999 -9999 -9999 -9999 -9999 -9999 -9999 -9999 -9999 -9999 -9999 -9999 -9999 -9999 -9999 -9999 -9999 -9999 -9999 -9999 -9999 -9999 -9999 -9999 -9999 -9999 -9999 -9999 -9999 -9999 -9999 -9999 -9999 -9999 -9999 -9999 -9999 -9999 -9999 -9999 -9999 -9999 -9999 -9999 -9999 -9999 -9999 -9999 -9999 -9999 -9999 -9999 -9999 -9999 -9999 -9999 -9999 -9999 -9999 -9999 -9999 -9999 -9999 -9999 -9999 -9999 -9999 -9999 -9999 -9999 -9999 -9999 -9999 -9999 -9999 -9999 -9999 -9999 -9999 -9999 -9999 -9999 -9999 -9999 -9999 -9999 -9999 -9999 -9999 -9999 -9999 -9999 -9999 -9999 -9999 -9999 -9999 -9999 -9999 -9999 -9999 -9999 -9999 -9999 -9999 -9999 -9999 -9999 -9999 -9999 -9999 -9999 -9999 -9999 -9999 -9999 -9999 -9999 -9999 -9999 -9999 -9999 -9999 -9999 -9999 -9999 -9999 -9999 -9999 -9999 -9999 -9999 -9999 -9999 -9999 -9999 -9999 -9999 -9999 -9999 -9999 -9999 -9999 -9999 -9999 -9999 -9999 -9999 -9999 -9999 -9999 -9999 -9999 -9999 -9999 -9999 -9999 -9999 -9999 -9999 -9999 -9999 -9999 -9999 -9999 -9999 -9999 -9999 -9999 -9999 -9999 -9999 -9999 -9999 -9999 -9999 -9999 -9999 -9999 -9999 -9999 -9999 -9999 -9999 -9999 -9999 -9999 -9999 -9999 -9999 -9999 -9999 -9999 -9999 -9999 -9999 -9999 -9999 -9999 -9999 -9999 -9999 -9999 -9999 -9999 -9999 -9999 -9999 -9999 53.621 53.218 53.038 52.981 52.936 52.876 52.791 52.768 52.718 52.678 52.671 52.646 52.633 52.621 52.616 52.646 52.666 52.666 52.678 52.741 52.761 52.796 52.816 52.833 52.903 52.856 52.833 52.843 52.876 52.881 52.891 52.861 52.858 52.826 52.843 52.803 52.821 52.743 52.763 52.766 52.738 52.693 52.648 52.633 52.576 52.511 52.446 52.403 52.341 52.283 52.173 52.043 51.981 51.891 51.756 51.678 51.568 51.463 51.396 51.268 51.183 51.096 50.943 50.813 50.716 50.616 50.493 50.341 50.213 50.053 49.928 49.803 49.708 49.606 49.531 49.436 49.328 49.283 49.263 49.246 49.253 49.283 49.301 49.321 49.301 49.406 49.478 49.568 49.671 49.761 49.828 49.953 50.046 50.151 50.248 50.338 50.438 50.476 50.541 50.608 50.608 50.638 50.656 50.626 50.626 50.663 50.686 50.666 50.631 50.666 50.668 50.618 50.591 50.541 50.473 50.251 50.033 49.883 49.788 49.731 49.693 49.648 49.568 49.488 49.411 49.381 49.338 49.241 49.141 49.076 49.056 49.056 48.938 48.808 48.923 48.856 48.673 48.523 48.488 48.413 48.386 48.421 48.413 48.403 48.371 48.303 48.188 48.068 48.036 47.988 48.023 47.856 47.668 47.956 48.421 48.561 48.596 48.656 48.706 48.716 48.756 48.806 48.948 49.006 48.986 48.958 48.853 48.716 48.536 48.401 48.276 48.156 48.046 48.006 47.943 47.983 48.198 48.428 48.696 48.686 48.643 48.641 48.631 48.608 48.576 48.611 48.631 48.641 48.663 48.676 48.688 48.728 48.778 48.826 48.853 48.931 48.991 48.998 49.048 49.063 49.088 49.143 49.196 49.288 49.413 49.528 49.613 49.608 49.641 49.733 49.866 49.968 50.076 50.168 50.276 50.368 50.491 50.641 50.768 50.901 50.803 50.843 50.808 50.746 50.698 50.648 50.711 50.781 50.811 50.851 50.921 51.108 51.281 51.456 51.608 51.701 51.881 51.973 52.101 52.148 52.221
-9999 -9999 -9999 -9999 -9999 -9999 -9999 -9999 -9999 -9999 -9999 -9999 -9999 -9999 -9999 -9999 -9999 -9999 -9999 -9999 -9999 -9999 -9999 -9999 -9999 -9999 -9999 -9999 -9999 -9999 -9999 -9999 -9999 -9999 -9999 -9999 -9999 -9999 -9999 -9999 -9999 -9999 -9999 -9999 -9999 -9999 -9999 -9999 -9999 -9999 -9999 -9999 -9999 -9999 -9999 -9999 -9999 -9999 -9999 -9999 -9999 -9999 -9999 -9999 -9999 -9999 -9999 -9999 -9999 -9999 -9999 -9999 -9999 -9999 -9999 -9999 -9999 -9999 -9999 -9999 -9999 -9999 -9999 -9999 -9999 -9999 -9999 -9999 -9999 -9999 -9999 -9999 -9999 -9999 -9999 -9999 -9999 -9999 -9999 -9999 -9999 -9999 -9999 -9999 -9999 -9999 -9999 -9999 -9999 -9999 -9999 -9999 -9999 -9999 -9999 -9999 -9999 -9999 -9999 -9999 -9999 -9999 -9999 -9999 -9999 -9999 -9999 -9999 -9999 -9999 -9999 -9999 -9999 -9999 -9999 -9999 -9999 -9999 -9999 -9999 -9999 -9999 -9999 -9999 -9999 -9999 -9999 -9999 -9999 -9999 -9999 -9999 -9999 -9999 -9999 -9999 -9999 -9999 -9999 -9999 -9999 -9999 -9999 -9999 -9999 -9999 -9999 -9999 -9999 -9999 -9999 -9999 -9999 -9999 -9999 -9999 -9999 -9999 -9999 -9999 -9999 -9999 -9999 -9999 -9999 -9999 -9999 -9999 -9999 -9999 -9999 -9999 -9999 -9999 -9999 -9999 -9999 -9999 -9999 -9999 -9999 -9999 -9999 -9999 -9999 -9999 -9999 -9999 -9999 -9999 -9999 -9999 -9999 -9999 -9999 -9999 -9999 -9999 -9999 -9999 -9999 -9999 -9999 -9999 -9999 -9999 -9999 -9999 -9999 -9999 -9999 -9999 -9999 -9999 -9999 -9999 -9999 53.554 53.216 53.091 53.013 52.993 52.931 52.836 52.788 52.746 52.698 52.671 52.626 52.646 52.606 52.636 52.618 52.631 52.671 52.678 52.741 52.741 52.786 52.823 52.846 52.873 52.871 52.871 52.878 52.873 52.863 52.856 52.833 52.831 52.843 52.841 52.818 52.813 52.768 52.768 52.771 52.723 52.666 52.656 52.626 52.546 52.478 52.406 52.368 52.306 52.216 52.151 52.031 51.901 51.861 51.721 51.661 51.533 51.403 51.336 51.221 51.078 50.966 50.848 50.736 50.638 50.506 50.353 50.211 50.073 49.933 49.791 49.671 49.591 49.511 49.438 49.336 49.223 49.231 49.226 49.198 49.201 49.233 49.236 49.253 49.313 49.371 49.468 49.538 49.636 49.706 49.808 49.911 50.006 50.121 50.193 50.293 50.398 50.428 50.506 50.561 50.588 50.618 50.631 50.633 50.591 50.601 50.618 50.608 50.596 50.611 50.601 50.586 50.593 50.561 50.488 50.391 50.196 49.941 49.801 49.731 49.733 49.671 49.603 49.546 49.493 49.421 49.381 49.316 49.218 49.101 49.006 49.046 49.068 48.923 48.826 48.871 48.906 48.706 48.608 48.561 48.536 48.528 48.513 48.443 48.326 48.213 48.136 48.063 48.036 48.036 48.033 48.056 47.938 47.731 48.263 48.543 48.556 48.456 48.476 48.473 48.556 48.653 48.758 48.831 48.793 48.721 48.611 48.441 48.306 48.191 48.106 48.008 47.891 47.813 47.791 47.763 47.848 48.171 48.623 48.636 48.603 48.608 48.598 48.626 48.628 48.626 48.653 48.648 48.663 48.683 48.728 48.783 48.823 48.868 48.878 48.948 48.978 48.978 49.018 49.053 49.093 49.173 49.218 49.316 49.391 49.496 49.566 49.598 49.658 49.741 49.838 49.986 50.116 50.183 50.331 50.386 50.421 50.476 50.546 50.648 50.683 50.686 50.723 50.703 50.636 50.688 50.716 50.768 50.731 50.853 51.021 51.206 51.373 51.591 51.758 51.788 51.796 51.866 51.926 51.956 51.971
