ncols 444
nrows 32
xllcorner    425032
yllcorner    489340
cellsize     2
NODATA_value -9999
50.858 50.695 50.558 50.37 50.208 50.06 49.983 49.72 49.553 49.338 49.175 49.038 48.878 48.733 48.575 48.345 48.175 48.033 47.92 47.773 47.595 47.478 47.383 47.23 47.12 47.035 46.978 46.873 46.823 46.763 46.7 46.588 46.52 46.46 46.378 46.305 46.235 46.183 46.163 46.13 46.118 46.093 46.06 46.018 46.018 45.99 45.975 45.965 45.97 45.97 45.965 45.968 45.985 45.988 45.99 46.003 46.01 46.053 46.028 46.045 46.038 46.033 46.048 46.06 46.058 46.018 46.01 45.975 45.985 45.993 45.98 45.993 46.015 46.015 46.003 46 46.035 46.065 46.138 46.2 46.238 46.263 46.18 46.175 46.155 46.168 46.15 46.288 46.358 46.35 46.213 46.048 45.993 45.998 45.945 45.835 45.71 45.643 45.555 45.483 45.508 45.715 45.835 45.98 46.145 46.338 46.463 46.568 46.673 46.755 46.81 46.89 47 47.045 47.045 47.018 47.035 47.16 47.028 46.95 46.815 46.728 46.48 46.35 46.185 46.058 45.903 45.685 45.505 45.275 45.118 45.025 44.905 44.888 44.878 44.773 44.655 44.785 45.105 45.213 45.27 45.335 45.388 45.415 45.49 45.595 45.59 45.56 45.598 45.523 45.43 45.418 45.405 45.408 45.543 45.54 45.528 45.65 45.538 45.455 45.393 45.278 45.078 44.863 44.64 44.525 44.525 44.503 44.493 44.505 44.373 44.225 44.22 44.225 44.248 44.198 44.19 44.118 44.008 43.768 43.213 42.915 42.9 42.7 42.403 42.18 42.14 42.168 42.133 42.073 42.098 42.06 42.053 42.07 42.123 42.203 42.26 42.365 42.443 42.513 42.505 42.54 42.505 42.5 42.448 42.405 42.323 42.208 42.118 42.048 41.995 41.905 41.86 41.793 41.745 41.735 41.685 41.618 41.618 41.565 41.488 41.395 41.38 41.3 41.228 41.088 40.915 40.675 40.338 40.133 40.185 40.14 40.12 40.168 40.163 40.133 40.118 40.113 40.138 40.17 40.178 40.133 39.865 39.188 39.828 40.043 40.04 40.098 40.223 40.513 40.89 41.26 41.633 41.835 41.983 42.093 42.175 42.373 42.485 42.588 42.683 42.688 42.653 42.735 42.75 42.758 42.748 42.78 42.848 42.92 42.998 43.045 43.115 43.165 43.215 43.3 43.303 43.388 43.41 43.473 43.53 43.573 43.603 43.628 43.615 43.603 43.588 43.603 43.598 43.548 43.528 43.495 43.45 43.418 43.348 43.308 43.238 43.185 43.1 43.013 42.915 42.845 42.74 42.633 42.55 42.465 42.37 42.333 42.33 42.245 42.155 42.07 42.015 41.93 41.875 41.84 41.8 41.77 41.723 41.685 41.683 41.62 41.583 41.545 41.498 41.468 41.425 41.38 41.358 41.293 41.238 41.233 41.215 41.148 41.108 41.075 41.025 40.968 40.928 40.853 40.768 40.69 40.638 40.553 40.445 40.375 40.328 40.24 40.185 40.133 40.085 40.06 40.085 40.065 40.03 40.033 40.038 40.038 39.993 39.963 39.958 39.96 39.943 39.933 39.895 39.863 39.838 39.815 39.798 39.783 39.69 39.64 39.57 39.473 39.433 39.398 39.358 39.355 39.318 39.325 39.295 39.335 39.34 39.323 39.318 39.303 39.33 39.313 39.305 39.315 39.32 39.31 39.305 39.28 39.24 39.198 39.163 39.118 39.028 39.018 38.925 38.85 38.735 38.508 38.303 38.158 38.023 37.965 37.878 37.848 37.893 37.928 37.838 37.883 37.855 37.84 37.89 37.86 37.82 37.865 37.92 37.97 38.105 38.115 38.198 38.29 38.435 38.45 38.533 38.62 38.698 38.708 38.7 38.79 38.665 38.76 38.778 38.763 38.718 38.658 38.563 38.485 38.49 38.493
50.93 50.78 50.62 50.448 50.29 50.18 50.058 49.77 49.615 49.438 49.243 49.095 48.923 48.818 48.688 48.415 48.243 48.108 47.983 47.83 47.668 47.51 47.41 47.275 47.178 47.068 47.013 46.948 46.87 46.803 46.74 46.62 46.53 46.468 46.4 46.333 46.213 46.193 46.173 46.118 46.073 46.075 46.065 46.04 46.033 45.998 45.975 45.945 45.95 45.943 45.958 45.96 45.955 46.003 46 45.99 46.008 46.008 46.003 46.005 46.01 46.03 46.023 46.033 46.038 45.985 45.98 45.96 45.963 45.96 45.973 45.99 46.015 46.005 45.988 45.998 46.028 46.083 46.163 46.238 46.24 46.198 46.15 46.145 46.158 46.45 46.503 46.463 46.49 46.325 46.328 46.258 46.038 46.028 45.975 45.89 45.863 45.85 45.683 45.723 45.795 45.9 46.045 46.135 46.275 46.415 46.573 46.728 46.783 46.875 46.878 46.975 47.14 47.16 47.213 47.09 46.988 47.185 47.178 46.97 46.825 46.75 46.56 46.425 46.283 46.12 45.968 45.77 45.48 45.348 45.173 45.03 44.878 44.89 44.81 44.825 44.73 44.628 44.898 45.223 45.353 45.368 45.363 45.37 45.453 45.565 45.6 45.57 45.538 45.458 45.355 45.313 45.288 45.293 45.32 45.303 45.318 45.33 45.273 45.185 45.15 45.035 44.87 44.71 44.553 44.488 44.465 44.418 44.443 44.428 44.365 44.27 44.218 44.2 44.14 44.14 44.168 44.138 44.013 43.755 43.213 43.073 43.068 42.883 42.698 42.333 42.138 42.2 42.213 42.06 42.068 42.038 41.985 41.865 41.908 42 42.025 41.998 42.05 42.063 42.163 42.253 42.278 42.273 42.338 42.298 42.19 42.19 42.11 42.048 42 41.92 41.85 41.8 41.75 41.723 41.74 41.623 41.598 41.545 41.478 41.438 41.35 41.248 41.158 41.078 40.883 40.65 40.33 40.16 40.143 40.133 40.16 40.158 40.193 40.21 40.13 40.14 40.18 40.228 40.153 40.09 39.768 39.34 39.925 40.018 40.05 40.16 40.255 40.685 41.155 41.48 41.82 42.018 42.113 42.195 42.275 42.473 42.628 42.713 42.735 42.705 42.665 42.738 42.748 42.71 42.745 42.795 42.838 42.908 42.99 43.038 43.088 43.163 43.188 43.25 43.303 43.333 43.388 43.463 43.53 43.558 43.583 43.623 43.625 43.648 43.628 43.62 43.618 43.595 43.56 43.545 43.508 43.47 43.418 43.36 43.32 43.248 43.175 43.058 42.963 42.895 42.815 42.74 42.648 42.56 42.475 42.448 42.415 42.335 42.255 42.175 42.11 42.02 41.983 41.925 41.875 41.845 41.77 41.743 41.698 41.653 41.613 41.593 41.533 41.505 41.465 41.418 41.373 41.365 41.308 41.29 41.25 41.198 41.145 41.093 41.03 40.988 40.908 40.853 40.778 40.693 40.638 40.523 40.45 40.385 40.31 40.275 40.185 40.118 40.09 40.065 40.058 40.033 40.023 40.013 40.03 40.008 39.995 39.965 39.943 39.918 39.91 39.915 39.915 39.88 39.878 39.838 39.825 39.773 39.723 39.655 39.605 39.548 39.493 39.438 39.378 39.388 39.345 39.365 39.363 39.363 39.34 39.345 39.335 39.33 39.363 39.338 39.328 39.315 39.29 39.288 39.29 39.243 39.225 39.193 39.128 39.06 39.005 38.96 38.978 38.84 38.603 38.445 38.333 38.168 38.005 37.925 37.873 37.918 37.985 37.945 37.913 37.893 37.918 37.915 37.97 37.913 37.86 37.855 37.98 38.01 38.113 38.2 38.298 38.36 38.46 38.383 38.42 38.555 38.745 38.733 38.855 38.885 38.74 38.773 38.75 38.708 38.668 38.635 38.573 38.528 38.553 38.54
50.998 50.84 50.703 50.53 50.398 50.26 50.073 49.86 49.693 49.483 49.305 49.175 48.98 48.863 48.718 48.5 48.295 48.165 48.048 47.893 47.755 47.608 47.46 47.325 47.208 47.155 47.065 46.96 46.898 46.81 46.755 46.668 46.578 46.455 46.403 46.343 46.26 46.213 46.158 46.133 46.093 46.063 46.075 46.053 46.05 46.015 46.003 45.985 45.98 45.985 45.953 45.955 45.975 45.985 45.995 45.96 45.958 46.033 46.008 46.04 46.005 46.02 45.97 46.018 46.018 45.988 45.978 45.935 45.925 45.978 46.023 45.995 45.973 45.98 45.995 46.01 46.065 46.145 46.21 46.25 46.215 46.225 46.275 46.155 46.26 46.74 46.74 46.66 46.49 46.505 46.51 46.348 46.16 46.085 46.048 46.035 46.01 45.98 45.883 45.928 45.948 46.043 46.213 46.398 46.478 46.508 46.695 46.868 46.958 46.98 47.058 47.088 47.22 47.33 47.355 47.268 47.143 47.158 47.23 47.073 46.943 46.785 46.665 46.523 46.403 46.228 46.02 45.838 45.6 45.45 45.208 45.033 44.858 44.85 44.7 44.73 44.73 44.72 44.703 44.9 45.255 45.348 45.348 45.398 45.465 45.478 45.503 45.495 45.508 45.44 45.318 45.285 45.305 45.28 45.258 45.27 45.255 45.223 45.115 45.018 44.96 44.85 44.66 44.53 44.48 44.458 44.47 44.49 44.478 44.433 44.353 44.308 44.22 44.148 44.06 44.01 44.065 44.023 43.87 43.553 43.243 43.253 43.045 42.838 42.668 42.365 42.175 42.265 42.225 42.09 42.048 42.028 41.955 41.915 42.005 42.038 42.013 41.953 41.89 41.805 41.835 41.835 41.878 41.848 41.845 41.895 41.88 41.975 41.963 41.965 41.97 41.95 41.938 41.913 41.888 41.875 41.82 41.76 41.688 41.598 41.528 41.415 41.313 41.2 41.098 40.97 40.86 40.648 40.413 40.17 40.11 40.125 40.163 40.145 40.18 40.21 40.188 40.165 40.193 40.245 40.16 40.025 39.495 39.448 39.9 39.98 40.015 40.188 40.433 40.9 41.433 41.728 41.925 42.1 42.165 42.213 42.383 42.62 42.763 42.748 42.688 42.688 42.663 42.698 42.68 42.673 42.708 42.783 42.845 42.88 42.948 43.01 43.075 43.108 43.16 43.23 43.273 43.343 43.375 43.435 43.535 43.548 43.53 43.58 43.608 43.628 43.65 43.603 43.588 43.588 43.578 43.56 43.52 43.5 43.468 43.418 43.373 43.293 43.218 43.143 43.048 42.97 42.893 42.83 42.745 42.648 42.548 42.548 42.493 42.365 42.293 42.235 42.183 42.105 42.04 42 41.943 41.888 41.86 41.823 41.743 41.698 41.683 41.623 41.593 41.545 41.495 41.448 41.425 41.385 41.353 41.305 41.245 41.21 41.15 41.095 41.025 40.99 40.92 40.865 40.773 40.688 40.61 40.538 40.453 40.393 40.3 40.233 40.165 40.113 40.078 40.065 40.04 39.993 39.978 40 40.013 39.973 39.968 39.98 39.973 39.92 39.908 39.923 39.893 39.883 39.88 39.86 39.838 39.79 39.735 39.68 39.605 39.57 39.493 39.438 39.428 39.368 39.388 39.37 39.358 39.375 39.365 39.363 39.345 39.328 39.33 39.343 39.318 39.305 39.285 39.283 39.29 39.225 39.185 39.145 39.083 39.035 38.933 38.898 38.923 38.753 38.508 38.408 38.31 38.188 37.965 37.835 37.888 37.938 37.993 38.003 37.98 37.975 38.05 37.998 38.008 38.02 37.898 37.855 38.055 38.12 38.195 38.235 38.308 38.405 38.488 38.565 38.635 38.685 38.755 38.78 38.845 38.845 38.82 38.815 38.765 38.653 38.638 38.65 38.62 38.6 38.565 38.595
51.065 50.89 50.765 50.618 50.46 50.305 50.13 49.948 49.735 49.548 49.38 49.218 49.048 48.908 48.765 48.553 48.363 48.205 48.078 47.938 47.778 47.635 47.543 47.4 47.26 47.178 47.118 47.065 46.973 46.883 46.773 46.688 46.628 46.548 46.478 46.35 46.27 46.198 46.138 46.128 46.105 46.088 46.08 46.058 46.038 46.023 46.008 45.993 45.95 45.983 45.993 45.978 45.985 45.978 46.003 45.978 45.975 46.008 45.995 45.995 45.998 45.99 46.015 46.013 46.003 45.965 45.925 45.918 45.955 45.985 46.008 45.963 45.975 46.013 46.015 46.07 46.105 46.198 46.238 46.253 46.215 46.303 46.215 46.265 46.605 46.883 46.893 46.71 46.538 46.623 46.613 46.383 46.238 46.188 46.135 46.145 46.13 46.08 46.193 46.175 46.118 46.205 46.398 46.58 46.635 46.665 46.78 46.935 47 47.078 47.168 47.293 47.448 47.48 47.44 47.435 47.315 47.25 47.283 47.208 47.028 46.785 46.715 46.658 46.553 46.308 46.073 45.85 45.703 45.418 45.21 45.125 44.838 44.648 44.595 44.633 44.715 44.813 44.725 44.715 45.023 45.235 45.31 45.458 45.533 45.448 45.468 45.43 45.41 45.255 45.208 45.255 45.238 45.233 45.215 45.195 45.215 45.125 45.003 44.89 44.843 44.723 44.605 44.5 44.413 44.383 44.45 44.365 44.453 44.395 44.395 44.333 44.263 44.185 44.08 44.033 43.973 43.945 43.725 43.263 43.2 43.265 42.963 42.768 42.64 42.363 42.123 42.235 42.123 42.028 41.978 41.94 41.91 41.93 41.883 41.928 41.978 41.96 41.92 41.835 41.833 41.828 41.83 41.8 41.713 41.618 41.643 41.575 41.62 41.665 41.685 41.74 41.805 41.84 41.938 41.94 41.908 41.89 41.79 41.703 41.648 41.48 41.35 41.225 41.14 40.998 40.898 40.74 40.473 40.208 40.098 39.988 40.063 40.113 40.075 40.153 40.155 40.128 40.135 40.18 40.18 40.04 39.425 39.488 39.905 39.985 40.038 40.168 40.595 41.098 41.573 41.938 41.995 42.145 42.225 42.295 42.485 42.718 42.77 42.713 42.655 42.653 42.66 42.668 42.63 42.628 42.673 42.748 42.815 42.885 42.913 42.96 43.023 43.075 43.123 43.17 43.243 43.303 43.348 43.39 43.473 43.533 43.55 43.573 43.603 43.615 43.635 43.615 43.618 43.59 43.588 43.578 43.56 43.505 43.475 43.445 43.4 43.338 43.29 43.185 43.103 43.03 42.98 42.908 42.83 42.76 42.685 42.643 42.573 42.518 42.408 42.318 42.24 42.165 42.098 42.033 41.975 41.933 41.893 41.828 41.833 41.745 41.718 41.653 41.625 41.595 41.543 41.495 41.43 41.41 41.34 41.303 41.253 41.205 41.13 41.105 41.045 40.998 40.93 40.888 40.77 40.69 40.628 40.55 40.463 40.368 40.315 40.273 40.183 40.128 40.075 40.038 40.023 40.005 39.99 39.995 39.988 39.965 39.975 39.94 39.915 39.895 39.923 39.895 39.88 39.898 39.865 39.848 39.838 39.815 39.735 39.683 39.625 39.558 39.523 39.468 39.425 39.413 39.37 39.368 39.363 39.343 39.335 39.365 39.353 39.348 39.35 39.33 39.325 39.275 39.273 39.255 39.243 39.213 39.145 39.098 39.03 39.013 38.933 38.855 38.77 38.63 38.44 38.328 38.24 38.04 37.883 37.903 38.04 38.035 38.04 38.038 38.063 38.093 38.065 38.038 37.998 38.055 38.048 37.98 38.078 38.148 38.195 38.253 38.305 38.42 38.55 38.698 38.625 38.63 38.725 38.76 38.808 38.835 38.835 38.845 38.775 38.653 38.63 38.65 38.668 38.653 38.483 38.598
51.165 50.97 50.808 50.663 50.525 50.403 50.21 49.993 49.808 49.633 49.445 49.283 49.125 48.975 48.795 48.608 48.443 48.268 48.163 48.028 47.818 47.66 47.57 47.443 47.323 47.233 47.175 47.078 46.985 46.908 46.825 46.745 46.618 46.558 46.483 46.375 46.288 46.248 46.2 46.158 46.148 46.108 46.1 46.083 46.048 46.03 45.995 45.96 45.965 45.97 45.97 45.993 45.978 45.978 45.968 45.948 45.95 45.965 45.968 46.003 46.013 45.993 45.995 45.945 45.94 45.978 45.928 45.945 45.928 45.935 45.963 45.97 45.993 46.005 46.058 46.118 46.163 46.245 46.245 46.245 46.258 46.295 46.325 46.515 46.805 46.953 46.855 46.783 46.618 46.608 46.53 46.473 46.463 46.36 46.283 46.218 46.158 46.193 46.213 46.26 46.318 46.388 46.49 46.565 46.723 46.795 46.753 46.793 46.985 47.13 47.298 47.485 47.56 47.508 47.47 47.505 47.343 47.23 47.25 47.183 47.13 46.908 46.79 46.713 46.645 46.448 46.185 45.973 45.75 45.495 45.29 45.103 44.83 44.628 44.535 44.608 44.653 44.803 44.803 44.668 44.745 45.098 45.333 45.333 45.433 45.415 45.38 45.315 45.283 45.213 45.188 45.19 45.183 45.18 45.16 45.1 45.113 45.023 44.93 44.785 44.653 44.543 44.435 44.383 44.345 44.368 44.47 44.433 44.413 44.408 44.413 44.348 44.313 44.265 44.21 43.985 43.848 43.795 43.545 43.198 43.223 43.11 42.835 42.635 42.565 42.33 42.168 42.245 42.145 42.055 41.98 41.96 41.928 41.888 41.855 41.845 41.845 41.905 41.865 41.818 41.793 41.853 41.835 41.763 41.733 41.69 41.84 41.803 41.698 41.618 41.503 41.388 41.358 41.41 41.468 41.55 41.65 41.778 41.738 41.71 41.668 41.528 41.415 41.273 41.14 40.98 40.923 40.788 40.603 40.365 40.19 40.185 40.158 40.138 40.118 40.148 40.145 40.158 40.163 40.18 40.165 39.985 39.445 39.525 39.925 40.015 40.095 40.353 40.828 41.323 41.768 42.045 42.113 42.195 42.278 42.328 42.555 42.77 42.735 42.675 42.623 42.603 42.665 42.635 42.61 42.6 42.67 42.728 42.753 42.83 42.898 42.94 43 43.033 43.105 43.133 43.238 43.265 43.3 43.395 43.463 43.518 43.553 43.588 43.59 43.603 43.63 43.645 43.608 43.59 43.588 43.595 43.588 43.538 43.485 43.483 43.445 43.38 43.335 43.248 43.165 43.113 43.055 43.003 42.943 42.825 42.778 42.735 42.62 42.545 42.47 42.4 42.318 42.248 42.155 42.108 42.06 41.99 41.923 41.863 41.848 41.768 41.728 41.688 41.618 41.58 41.528 41.478 41.43 41.363 41.313 41.283 41.245 41.188 41.13 41.115 41.045 40.973 40.918 40.86 40.785 40.708 40.648 40.588 40.46 40.375 40.35 40.28 40.218 40.135 40.088 40.073 40.03 39.998 40 39.968 39.963 39.975 39.97 39.923 39.875 39.853 39.9 39.87 39.88 39.885 39.873 39.855 39.825 39.81 39.755 39.685 39.625 39.565 39.523 39.458 39.398 39.39 39.39 39.38 39.368 39.343 39.34 39.378 39.368 39.38 39.358 39.345 39.333 39.275 39.263 39.238 39.198 39.19 39.078 39.045 38.998 38.96 38.935 38.805 38.673 38.58 38.44 38.285 38.143 37.89 37.85 37.975 38.09 38.155 38.153 38.095 38.103 38.11 38.063 38.083 38.09 38.138 38.098 38.148 38.103 38.138 38.248 38.3 38.325 38.46 38.56 38.623 38.67 38.71 38.718 38.693 38.665 38.755 38.798 38.798 38.7 38.613 38.588 38.605 38.62 38.575 38.545 38.578
51.208 51.035 50.88 50.753 50.585 50.448 50.29 50.093 49.888 49.693 49.495 49.353 49.158 49 48.878 48.683 48.48 48.32 48.175 48.048 47.875 47.738 47.635 47.513 47.378 47.283 47.175 47.098 46.978 46.933 46.87 46.78 46.688 46.588 46.505 46.398 46.328 46.268 46.208 46.193 46.14 46.118 46.158 46.14 46.088 46.043 46.008 45.988 45.98 46.005 46.02 45.978 45.983 45.98 45.965 45.973 45.963 45.965 45.993 45.993 45.97 45.963 45.99 45.958 45.973 45.985 45.943 45.94 45.94 45.94 45.955 45.973 46.005 46.033 46.063 46.118 46.198 46.213 46.193 46.315 46.29 46.355 46.533 46.883 47.04 47 46.885 46.768 46.653 46.57 46.555 46.565 46.505 46.463 46.393 46.318 46.25 46.303 46.385 46.473 46.553 46.595 46.59 46.618 46.733 46.803 46.9 47.018 46.995 47.183 47.37 47.448 47.535 47.62 47.49 47.458 47.368 47.355 47.333 47.295 47.32 47.055 46.888 46.833 46.643 46.43 46.25 45.975 45.713 45.563 45.388 45.198 44.92 44.705 44.583 44.638 44.61 44.683 44.798 44.828 44.733 44.87 45.103 45.235 45.293 45.235 45.225 45.17 45.155 45.19 45.13 45.135 45.04 45.105 45.058 45.013 44.958 44.89 44.82 44.673 44.548 44.453 44.333 44.3 44.305 44.31 44.398 44.375 44.33 44.388 44.51 44.443 44.37 44.283 44.175 43.998 43.805 43.65 43.408 43.228 43.255 43.08 42.805 42.625 42.56 42.448 42.31 42.25 42.183 42.085 42.048 41.945 41.91 41.878 41.848 41.818 41.823 41.84 41.833 41.858 41.86 41.825 41.798 41.658 41.67 41.695 41.778 41.835 41.943 41.965 41.708 41.533 41.625 41.648 41.468 41.3 41.19 41.218 41.173 41.305 41.408 41.383 41.378 41.288 41.208 41.06 40.988 40.89 40.71 40.49 40.268 40.225 40.19 40.148 40.138 40.165 40.15 40.21 40.253 40.215 40.14 39.92 39.44 39.65 39.978 40.028 40.15 40.518 41.05 41.5 41.845 42.01 42.138 42.193 42.293 42.423 42.618 42.718 42.708 42.618 42.585 42.603 42.608 42.583 42.563 42.565 42.623 42.683 42.71 42.748 42.843 42.875 42.948 42.995 43.06 43.11 43.165 43.248 43.29 43.353 43.418 43.458 43.493 43.575 43.595 43.605 43.625 43.628 43.638 43.625 43.615 43.585 43.603 43.575 43.553 43.5 43.458 43.42 43.353 43.315 43.223 43.213 43.138 43.075 42.993 42.938 42.915 42.8 42.698 42.615 42.535 42.473 42.375 42.325 42.235 42.185 42.123 42.063 42.005 41.935 41.89 41.818 41.738 41.695 41.63 41.618 41.565 41.49 41.423 41.385 41.328 41.265 41.218 41.178 41.128 41.073 41.015 40.94 40.895 40.87 40.8 40.74 40.64 40.555 40.48 40.383 40.318 40.253 40.18 40.128 40.05 40.015 39.978 39.983 39.94 39.97 39.953 39.968 39.945 39.915 39.898 39.888 39.875 39.848 39.848 39.86 39.858 39.843 39.808 39.788 39.75 39.685 39.63 39.568 39.525 39.465 39.438 39.4 39.383 39.385 39.38 39.343 39.38 39.398 39.38 39.378 39.36 39.37 39.33 39.293 39.26 39.218 39.165 39.098 39.048 39.008 38.97 38.9 38.845 38.763 38.708 38.555 38.36 38.165 37.998 37.883 37.885 38.118 38.133 38.21 38.208 38.17 38.165 38.15 38.133 38.128 38.135 38.185 38.135 38.173 38.163 38.193 38.288 38.3 38.365 38.448 38.5 38.55 38.63 38.655 38.688 38.675 38.65 38.68 38.69 38.64 38.618 38.63 38.66 38.69 38.68 38.598 38.63 38.643
51.253 51.123 50.985 50.853 50.675 50.52 50.338 50.168 49.96 49.763 49.573 49.413 49.23 49.063 48.895 48.695 48.533 48.418 48.203 48.073 47.918 47.793 47.718 47.565 47.42 47.285 47.23 47.138 47.048 46.983 46.905 46.815 46.708 46.62 46.535 46.44 46.363 46.29 46.21 46.193 46.18 46.175 46.16 46.143 46.065 46.045 46.025 45.978 45.99 46.02 46.015 45.995 45.978 45.993 45.988 45.975 45.95 45.95 45.97 45.988 45.975 45.975 45.983 45.975 45.965 45.953 45.935 45.943 45.988 45.915 45.94 46.003 46.043 46.085 46.135 46.2 46.225 46.233 46.288 46.265 46.315 46.57 46.728 46.91 47.008 47.015 46.928 46.753 46.725 46.713 46.688 46.69 46.635 46.583 46.533 46.438 46.375 46.363 46.52 46.763 46.77 46.773 46.775 46.778 46.833 46.968 47.103 47.303 47.265 47.373 47.375 47.52 47.538 47.66 47.603 47.523 47.428 47.4 47.37 47.323 47.293 47.1 46.875 46.778 46.523 46.418 46.295 46.108 45.825 45.595 45.335 45.173 44.89 44.678 44.575 44.575 44.558 44.573 44.685 44.805 44.718 44.708 44.818 45.088 45.263 45.245 45.19 45.125 45.115 45.105 45.088 45.098 45 45.03 44.95 44.893 44.82 44.75 44.678 44.578 44.425 44.345 44.233 44.188 44.21 44.238 44.29 44.223 44.245 44.313 44.408 44.378 44.273 44.235 44.145 44.013 43.825 43.598 43.29 43.14 43.03 42.913 42.708 42.623 42.563 42.45 42.323 42.26 42.188 42.11 42.075 42.005 41.975 41.938 41.873 41.868 41.845 41.823 41.84 41.818 41.795 41.798 41.713 41.615 41.598 41.548 41.558 41.623 41.753 41.888 41.753 41.653 41.923 42.068 42.053 41.95 41.76 41.545 41.278 41.125 41.053 40.99 40.953 40.975 40.983 40.928 40.803 40.863 40.778 40.63 40.395 40.28 40.255 40.24 40.195 40.205 40.183 40.21 40.255 40.22 40.145 39.978 39.37 39.743 39.978 40.063 40.283 40.765 41.268 41.703 41.935 42.07 42.183 42.213 42.355 42.48 42.623 42.688 42.608 42.56 42.55 42.588 42.565 42.533 42.495 42.54 42.585 42.645 42.708 42.743 42.813 42.838 42.895 42.968 42.995 43.045 43.128 43.205 43.253 43.315 43.378 43.458 43.47 43.553 43.575 43.59 43.595 43.608 43.628 43.633 43.62 43.61 43.618 43.588 43.573 43.548 43.52 43.485 43.425 43.393 43.325 43.263 43.198 43.093 43.025 43.038 42.963 42.838 42.773 42.698 42.633 42.573 42.458 42.378 42.3 42.218 42.168 42.09 42.038 41.995 41.935 41.86 41.765 41.7 41.658 41.648 41.568 41.505 41.443 41.385 41.345 41.295 41.25 41.185 41.133 41.07 41.013 40.94 40.895 40.83 40.77 40.713 40.618 40.54 40.478 40.395 40.308 40.223 40.178 40.098 40.048 39.993 39.95 39.935 39.913 39.91 39.898 39.91 39.883 39.885 39.85 39.848 39.835 39.848 39.81 39.83 39.825 39.843 39.82 39.763 39.695 39.65 39.583 39.543 39.473 39.448 39.438 39.408 39.408 39.383 39.373 39.35 39.41 39.428 39.41 39.398 39.393 39.348 39.315 39.305 39.228 39.208 39.143 39.06 39.013 38.968 38.9 38.848 38.81 38.743 38.673 38.483 38.245 38.115 37.95 37.978 38.038 38.195 38.288 38.245 38.238 38.243 38.198 38.215 38.198 38.135 38.17 38.215 38.205 38.228 38.228 38.23 38.243 38.255 38.363 38.413 38.403 38.495 38.598 38.618 38.69 38.725 38.715 38.683 38.64 38.635 38.595 38.655 38.64 38.645 38.69 38.718 38.673 38.645
51.348 51.215 51.085 50.89 50.72 50.585 50.425 50.213 50.033 49.81 49.635 49.435 49.253 49.12 48.955 48.763 48.568 48.413 48.243 48.103 47.943 47.828 47.725 47.613 47.47 47.358 47.268 47.178 47.08 46.99 46.913 46.843 46.743 46.665 46.575 46.468 46.383 46.363 46.3 46.26 46.218 46.208 46.2 46.17 46.108 46.085 46.075 46.035 46.013 46.033 46.008 46.003 46 45.985 45.985 45.98 45.965 45.958 45.97 45.938 45.948 45.963 45.958 45.963 45.943 45.913 45.923 45.933 45.945 45.933 45.988 46.018 46.07 46.128 46.168 46.15 46.263 46.26 46.24 46.268 46.585 46.793 46.885 46.895 46.953 47.015 46.973 46.873 46.873 46.91 46.843 46.768 46.713 46.695 46.69 46.61 46.56 46.573 46.618 46.883 46.945 46.878 46.923 46.923 46.943 47.178 47.298 47.363 47.418 47.538 47.485 47.738 47.698 47.698 47.64 47.628 47.59 47.453 47.345 47.263 47.24 47.143 46.83 46.778 46.54 46.458 46.323 46.128 45.903 45.548 45.343 45.163 44.963 44.703 44.543 44.538 44.545 44.568 44.653 44.685 44.748 44.72 44.57 44.788 45.17 45.283 45.195 45.088 45.07 45.04 45.005 45.06 44.95 44.948 44.85 44.81 44.738 44.625 44.545 44.413 44.298 44.218 44.138 44.07 44.038 44.183 44.105 44.148 44.145 44.22 44.303 44.223 44.13 44.113 44.035 44.003 43.82 43.455 43.203 43.135 42.898 42.763 42.655 42.608 42.568 42.403 42.4 42.345 42.223 42.168 42.14 42.083 41.99 41.923 41.873 41.888 41.865 41.86 41.79 41.753 41.8 41.723 41.648 41.573 41.545 41.46 41.415 41.47 41.54 41.665 41.548 41.533 41.823 41.9 41.925 41.94 41.883 41.865 41.783 41.633 41.52 41.525 41.303 41.06 40.835 40.803 40.635 40.62 40.59 40.478 40.348 40.365 40.433 40.363 40.35 40.303 40.263 40.235 40.253 40.255 40.183 39.83 39.35 39.873 40.06 40.24 40.66 41.083 41.533 41.813 41.978 42.053 42.183 42.26 42.393 42.583 42.693 42.713 42.568 42.503 42.498 42.525 42.5 42.435 42.438 42.49 42.55 42.59 42.655 42.698 42.758 42.808 42.845 42.903 42.955 43.023 43.085 43.145 43.215 43.278 43.32 43.43 43.47 43.518 43.548 43.573 43.605 43.605 43.59 43.613 43.625 43.63 43.658 43.625 43.615 43.625 43.565 43.543 43.5 43.458 43.378 43.285 43.225 43.17 43.103 43.088 43.03 42.893 42.848 42.805 42.715 42.638 42.563 42.445 42.39 42.298 42.223 42.165 42.108 42.028 41.99 41.895 41.79 41.735 41.673 41.648 41.585 41.485 41.46 41.4 41.37 41.295 41.22 41.15 41.123 41.085 40.995 40.93 40.88 40.82 40.765 40.668 40.623 40.55 40.423 40.355 40.253 40.195 40.113 40.078 39.995 39.97 39.928 39.893 39.885 39.878 39.853 39.868 39.865 39.863 39.808 39.81 39.803 39.805 39.788 39.788 39.783 39.798 39.785 39.72 39.688 39.648 39.603 39.525 39.478 39.433 39.43 39.418 39.39 39.385 39.388 39.413 39.398 39.398 39.423 39.388 39.375 39.35 39.305 39.233 39.208 39.165 39.093 39.05 38.988 38.918 38.838 38.805 38.738 38.715 38.66 38.403 38.178 38.045 37.93 37.995 38.268 38.343 38.325 38.248 38.265 38.255 38.26 38.288 38.185 38.135 38.198 38.278 38.26 38.235 38.27 38.273 38.28 38.315 38.36 38.423 38.433 38.51 38.575 38.665 38.698 38.703 38.68 38.708 38.655 38.613 38.62 38.64 38.64 38.58 38.663 38.695 38.683 38.698
51.425 51.245 51.113 50.96 50.808 50.683 50.51 50.283 50.063 49.858 49.66 49.495 49.295 49.148 49.018 48.825 48.625 48.425 48.28 48.145 48.003 47.885 47.77 47.65 47.513 47.42 47.315 47.223 47.113 47.065 46.97 46.89 46.795 46.728 46.638 46.515 46.45 46.415 46.365 46.313 46.258 46.23 46.2 46.168 46.138 46.093 46.07 46.05 46.045 46.038 46.013 46.013 45.99 45.99 45.978 45.983 45.96 45.943 45.973 45.948 45.938 45.943 45.955 45.933 45.928 45.88 45.87 45.898 45.905 45.933 45.995 46.043 46.143 46.195 46.228 46.193 46.353 46.275 46.253 46.498 46.783 46.9 46.965 46.965 46.995 46.96 46.98 47.003 46.985 46.965 47.013 46.923 46.773 46.733 46.703 46.74 46.67 46.745 46.705 46.723 46.868 46.893 47.003 47.11 47.125 47.25 47.31 47.283 47.538 47.668 47.608 47.813 47.768 47.703 47.713 47.645 47.6 47.538 47.395 47.34 47.278 47.17 47.008 46.803 46.685 46.545 46.445 46.195 45.998 45.725 45.455 45.05 44.953 44.745 44.56 44.518 44.575 44.608 44.665 44.74 44.828 44.94 44.713 44.563 45.023 45.328 45.225 45.098 45.013 44.975 44.938 44.925 44.883 44.85 44.755 44.73 44.613 44.505 44.43 44.29 44.238 44.148 44.09 43.968 43.735 43.97 43.983 43.935 44.005 44.12 44.22 44.115 44.063 43.998 43.938 43.9 43.763 43.315 43.145 43.03 42.84 42.69 42.613 42.575 42.613 42.403 42.338 42.32 42.285 42.233 42.165 42.16 42.07 41.92 41.875 41.89 41.87 41.84 41.778 41.778 41.778 41.698 41.628 41.573 41.503 41.473 41.413 41.408 41.4 41.47 41.31 41.393 41.588 41.545 41.553 41.638 41.603 41.568 41.543 41.583 41.505 41.595 41.583 41.445 41.023 40.965 40.81 40.87 40.925 40.74 40.36 40.21 40.185 40.21 40.3 40.24 40.185 40.153 40.235 40.318 39.975 39.535 39.55 40.03 40.243 40.575 41.013 41.425 41.753 41.93 41.998 42.078 42.175 42.338 42.465 42.605 42.665 42.633 42.475 42.455 42.475 42.448 42.435 42.41 42.395 42.428 42.49 42.54 42.6 42.645 42.705 42.76 42.778 42.865 42.913 42.978 43.033 43.09 43.19 43.26 43.32 43.368 43.423 43.478 43.51 43.568 43.588 43.615 43.635 43.595 43.63 43.628 43.658 43.658 43.643 43.643 43.6 43.56 43.548 43.513 43.425 43.355 43.313 43.255 43.168 43.175 43.098 43.013 42.94 42.858 42.76 42.69 42.645 42.573 42.485 42.405 42.355 42.273 42.188 42.095 42.035 41.965 41.895 41.838 41.748 41.67 41.608 41.528 41.485 41.368 41.365 41.313 41.238 41.183 41.1 41.04 40.975 40.915 40.885 40.818 40.745 40.663 40.613 40.513 40.44 40.315 40.235 40.175 40.078 40.023 39.958 39.908 39.873 39.875 39.863 39.84 39.828 39.825 39.835 39.815 39.783 39.785 39.758 39.773 39.768 39.775 39.763 39.733 39.723 39.71 39.645 39.608 39.533 39.49 39.465 39.41 39.388 39.393 39.385 39.408 39.373 39.378 39.385 39.393 39.393 39.358 39.348 39.328 39.275 39.218 39.17 39.118 39.043 39.015 38.963 38.858 38.82 38.755 38.668 38.605 38.59 38.383 38.158 38.04 37.99 38.19 38.365 38.32 38.293 38.24 38.285 38.28 38.27 38.263 38.295 38.338 38.375 38.373 38.368 38.335 38.368 38.39 38.395 38.43 38.45 38.523 38.533 38.55 38.575 38.645 38.61 38.663 38.655 38.683 38.62 38.615 38.63 38.618 38.623 38.64 38.683 38.785 38.77 38.738
51.498 51.313 51.195 51.038 50.873 50.735 50.55 50.348 50.138 49.975 49.735 49.54 49.33 49.195 49.058 48.868 48.66 48.468 48.3 48.21 48.043 47.903 47.783 47.653 47.533 47.438 47.325 47.243 47.163 47.085 46.993 46.908 46.843 46.723 46.658 46.585 46.485 46.468 46.38 46.335 46.33 46.3 46.24 46.218 46.18 46.11 46.09 46.055 46 46.025 46.01 46.015 45.988 45.985 45.99 45.965 45.953 45.943 45.93 45.915 45.933 45.933 45.948 45.945 45.965 45.868 45.868 45.873 45.963 45.95 46.01 46.08 46.155 46.158 46.208 46.3 46.445 46.443 46.61 46.728 46.808 46.938 47.035 47.048 47.06 47.02 47.07 47.073 47.03 47.033 47.095 46.94 46.908 46.935 46.878 46.825 46.788 46.833 46.818 46.785 46.838 46.925 47.028 47.205 47.248 47.345 47.463 47.443 47.578 47.74 47.7 47.733 47.775 47.748 47.768 47.745 47.735 47.68 47.508 47.4 47.295 47.183 47.045 46.835 46.718 46.498 46.428 46.168 46.08 45.84 45.53 45.205 45.008 44.728 44.528 44.415 44.375 44.498 44.63 44.74 44.828 45 44.95 44.633 44.77 45.148 45.243 45.203 45.013 44.94 44.898 44.835 44.798 44.743 44.648 44.573 44.425 44.363 44.315 44.28 44.218 44.085 44.005 43.948 43.733 43.8 43.838 43.843 43.9 44.033 44.12 44.045 44.01 43.888 43.825 43.7 43.533 43.215 43.093 42.97 42.793 42.708 42.665 42.655 42.66 42.438 42.373 42.325 42.285 42.208 42.143 42.078 42.045 41.963 41.943 41.91 41.868 41.838 41.76 41.808 41.783 41.673 41.61 41.535 41.468 41.428 41.388 41.418 41.36 41.35 41.115 41.255 41.313 41.293 41.308 41.335 41.37 41.365 41.335 41.313 41.308 41.323 41.328 41.265 41.148 41.093 41.028 41.048 41.083 40.993 40.645 40.308 40.208 40.208 40.233 40.215 40.15 40.055 40.07 40.073 39.613 39.32 39.783 40.265 40.535 40.94 41.253 41.545 41.853 41.985 42.02 42.128 42.17 42.32 42.435 42.57 42.6 42.465 42.403 42.41 42.425 42.398 42.353 42.328 42.348 42.39 42.423 42.47 42.518 42.57 42.643 42.703 42.76 42.813 42.855 42.928 42.973 43.055 43.153 43.213 43.278 43.35 43.408 43.46 43.51 43.513 43.543 43.593 43.615 43.648 43.645 43.643 43.665 43.673 43.68 43.668 43.65 43.623 43.598 43.565 43.488 43.415 43.365 43.313 43.283 43.258 43.185 43.115 43.028 42.975 42.873 42.785 42.723 42.653 42.535 42.458 42.4 42.343 42.258 42.195 42.093 42.048 41.95 41.873 41.818 41.733 41.673 41.588 41.518 41.433 41.385 41.293 41.26 41.148 41.103 41.038 40.973 40.903 40.84 40.8 40.73 40.658 40.575 40.488 40.418 40.318 40.215 40.128 40.08 40.028 39.973 39.893 39.865 39.835 39.795 39.82 39.783 39.798 39.773 39.773 39.79 39.748 39.725 39.718 39.7 39.743 39.74 39.743 39.715 39.68 39.598 39.56 39.533 39.47 39.455 39.443 39.385 39.38 39.358 39.388 39.375 39.355 39.37 39.375 39.395 39.363 39.345 39.348 39.275 39.218 39.13 39.085 39.02 38.98 38.908 38.83 38.763 38.708 38.615 38.565 38.525 38.333 38.15 38.055 38.143 38.298 38.35 38.395 38.408 38.41 38.335 38.328 38.385 38.398 38.513 38.55 38.48 38.47 38.463 38.458 38.47 38.485 38.445 38.503 38.528 38.523 38.593 38.558 38.573 38.663 38.648 38.68 38.723 38.668 38.59 38.61 38.635 38.675 38.803 38.748 38.778 38.828 38.848 38.803
51.595 51.415 51.26 51.088 50.928 50.783 50.618 50.39 50.243 50.053 49.813 49.608 49.408 49.24 49.095 48.925 48.708 48.53 48.385 48.245 48.078 47.915 47.788 47.67 47.57 47.485 47.38 47.26 47.185 47.103 47.033 46.955 46.885 46.783 46.703 46.618 46.523 46.468 46.423 46.36 46.365 46.323 46.298 46.258 46.228 46.178 46.123 46.1 46.053 46.053 46.02 45.993 45.993 45.998 45.988 45.968 45.965 45.93 45.933 45.915 45.933 45.93 45.94 45.94 45.933 45.908 45.923 45.93 45.955 46.005 46.045 46.093 46.133 46.178 46.31 46.47 46.58 46.653 46.84 46.848 46.845 46.978 47.038 47.085 47.13 47.065 47.105 47.148 47.083 47.088 47.1 47.043 47.08 47.09 47.11 47 46.913 46.895 46.988 46.958 46.955 47.035 47.11 47.243 47.288 47.375 47.628 47.628 47.668 47.715 47.68 47.71 47.735 47.82 47.795 47.74 47.715 47.785 47.595 47.42 47.323 47.22 47.028 46.883 46.735 46.523 46.315 46.138 46.025 45.825 45.483 45.238 44.993 44.79 44.535 44.505 44.338 44.45 44.565 44.63 44.775 44.855 45.01 44.915 44.59 44.945 45.073 45.188 45.08 44.973 44.91 44.808 44.748 44.678 44.495 44.425 44.315 44.28 44.258 44.283 44.185 44.093 44.013 43.9 43.818 43.718 43.625 43.783 43.813 43.92 43.918 43.903 43.888 43.785 43.605 43.463 43.29 43.165 43.095 42.918 42.81 42.75 42.75 42.725 42.675 42.393 42.335 42.333 42.3 42.198 42.153 42.075 42.025 41.953 41.953 41.915 41.833 41.79 41.765 41.843 41.835 41.673 41.528 41.488 41.428 41.36 41.33 41.313 41.308 41.233 41.06 41.165 41.128 41.148 41.153 41.16 41.2 41.173 41.195 41.248 41.165 41.163 41.133 41.118 41.013 40.955 40.97 41.025 40.923 40.778 40.553 40.303 40.268 40.288 40.335 40.395 40.433 40.285 40.243 40.223 39.595 39.22 40.183 40.538 40.793 41.11 41.4 41.62 41.795 41.965 42.03 42.155 42.213 42.293 42.438 42.55 42.515 42.348 42.36 42.365 42.35 42.338 42.305 42.273 42.325 42.315 42.345 42.42 42.488 42.51 42.573 42.655 42.695 42.75 42.815 42.875 42.958 43.028 43.12 43.17 43.248 43.328 43.383 43.425 43.465 43.475 43.525 43.568 43.598 43.635 43.638 43.65 43.675 43.695 43.713 43.71 43.71 43.71 43.628 43.603 43.563 43.503 43.463 43.413 43.4 43.378 43.29 43.24 43.168 43.065 42.98 42.898 42.79 42.695 42.635 42.533 42.448 42.413 42.3 42.223 42.14 42.073 41.998 41.92 41.838 41.73 41.675 41.633 41.553 41.47 41.363 41.293 41.22 41.175 41.128 41.035 40.978 40.908 40.835 40.783 40.71 40.615 40.515 40.42 40.373 40.295 40.193 40.13 40.06 40.008 39.94 39.913 39.875 39.85 39.825 39.803 39.78 39.785 39.775 39.763 39.738 39.743 39.735 39.703 39.69 39.73 39.703 39.698 39.658 39.653 39.588 39.593 39.528 39.475 39.448 39.43 39.408 39.4 39.385 39.365 39.348 39.355 39.37 39.383 39.368 39.348 39.338 39.288 39.243 39.15 39.11 39.06 39.003 38.935 38.843 38.79 38.705 38.655 38.585 38.513 38.49 38.315 38.125 38.09 38.228 38.34 38.388 38.425 38.44 38.45 38.453 38.425 38.44 38.415 38.568 38.545 38.55 38.583 38.553 38.608 38.605 38.565 38.553 38.565 38.623 38.593 38.535 38.558 38.623 38.658 38.523 38.565 38.645 38.7 38.623 38.63 38.705 38.748 38.808 38.82 38.835 38.813 38.848 38.763
51.633 51.478 51.315 51.16 51.018 50.845 50.673 50.465 50.313 50.07 49.86 49.67 49.488 49.293 49.138 48.958 48.71 48.545 48.39 48.278 48.133 47.99 47.855 47.738 47.633 47.55 47.435 47.34 47.223 47.118 47.053 46.988 46.918 46.79 46.728 46.655 46.57 46.513 46.473 46.43 46.415 46.375 46.32 46.295 46.27 46.205 46.14 46.085 46.03 46.005 46.013 46.003 45.983 45.973 45.973 45.95 45.933 45.915 45.908 45.908 45.92 45.923 45.928 45.948 45.928 45.925 45.905 45.938 45.985 46.023 46.1 46.105 46.12 46.243 46.41 46.423 46.603 46.785 46.88 46.955 46.963 46.96 46.978 47.03 47.178 47.193 47.2 47.22 47.228 47.243 47.255 47.24 47.205 47.133 47.17 47.088 46.99 46.963 47.013 47.023 47.075 47.205 47.215 47.265 47.238 47.428 47.7 47.743 47.738 47.71 47.77 47.805 47.82 47.798 47.79 47.725 47.66 47.593 47.495 47.305 47.23 47.17 47.045 46.865 46.715 46.51 46.408 46.138 46.023 45.815 45.473 45.275 45 44.74 44.57 44.498 44.508 44.51 44.583 44.66 44.745 44.843 45.045 45.145 44.865 44.685 44.985 45.168 45.053 44.988 44.903 44.773 44.68 44.618 44.423 44.283 44.255 44.255 44.305 44.32 44.2 44.17 44.098 43.945 43.828 43.773 43.748 43.833 43.81 43.783 43.805 43.848 43.733 43.598 43.505 43.418 43.238 43.143 43.023 42.91 42.825 42.8 42.778 42.725 42.643 42.368 42.273 42.335 42.328 42.228 42.163 42.068 42.035 41.938 41.94 41.915 41.898 41.795 41.84 41.883 41.778 41.615 41.485 41.415 41.398 41.358 41.305 41.245 41.163 41.195 41.038 41.053 40.965 40.95 40.968 41.005 41.055 41.078 41.148 41.24 41.108 41.08 41.063 41.043 40.963 40.96 40.953 41.06 41 40.853 40.598 40.343 40.283 40.288 40.318 40.36 40.395 40.393 40.445 40.5 39.758 39.648 40.5 40.783 41.043 41.238 41.515 41.728 41.845 41.908 42.008 42.07 42.16 42.278 42.355 42.423 42.39 42.27 42.233 42.315 42.303 42.288 42.26 42.233 42.235 42.275 42.293 42.373 42.42 42.48 42.525 42.578 42.638 42.68 42.753 42.813 42.88 42.973 43.05 43.13 43.21 43.288 43.343 43.388 43.42 43.465 43.523 43.538 43.578 43.623 43.645 43.67 43.695 43.718 43.745 43.765 43.743 43.713 43.693 43.675 43.64 43.58 43.52 43.515 43.523 43.458 43.403 43.308 43.233 43.163 43.053 42.938 42.83 42.753 42.685 42.613 42.55 42.435 42.36 42.273 42.223 42.138 42.038 41.955 41.873 41.783 41.715 41.63 41.538 41.478 41.38 41.313 41.235 41.143 41.07 41.015 40.955 40.885 40.813 40.71 40.675 40.59 40.503 40.408 40.345 40.278 40.168 40.113 40.045 39.983 39.903 39.885 39.863 39.853 39.825 39.815 39.793 39.803 39.785 39.77 39.738 39.725 39.7 39.68 39.713 39.698 39.635 39.64 39.645 39.623 39.583 39.54 39.498 39.435 39.435 39.4 39.418 39.42 39.405 39.405 39.39 39.398 39.375 39.383 39.383 39.328 39.308 39.273 39.213 39.18 39.075 39.015 38.958 38.888 38.795 38.74 38.683 38.62 38.525 38.465 38.445 38.273 38.093 38.12 38.27 38.353 38.383 38.415 38.448 38.508 38.525 38.553 38.575 38.535 38.533 38.57 38.603 38.67 38.695 38.66 38.58 38.593 38.67 38.538 38.605 38.65 38.595 38.603 38.653 38.63 38.593 38.563 38.66 38.74 38.68 38.778 38.833 38.828 38.86 38.908 38.858 38.795 38.793 38.77
51.68 51.525 51.373 51.21 51.11 50.9 50.738 50.543 50.363 50.125 49.923 49.708 49.52 49.345 49.203 49.033 48.773 48.61 48.415 48.295 48.183 48.03 47.89 47.79 47.658 47.57 47.418 47.33 47.26 47.19 47.12 47.033 46.945 46.805 46.72 46.678 46.618 46.553 46.49 46.453 46.44 46.378 46.348 46.3 46.293 46.228 46.145 46.078 46.058 46.013 46.013 45.993 45.998 45.978 45.968 45.948 45.94 45.91 45.933 45.905 45.933 45.928 45.925 45.945 45.885 45.89 45.915 45.945 46 46.043 46.1 46.115 46.133 46.283 46.435 46.58 46.718 46.845 46.89 47.013 47.005 46.945 47.01 47.115 47.218 47.258 47.305 47.298 47.285 47.313 47.358 47.343 47.308 47.235 47.175 47.113 47.073 47.075 47.215 47.195 47.218 47.33 47.285 47.155 47.128 47.433 47.705 47.775 47.778 47.795 47.855 47.888 47.86 47.785 47.813 47.725 47.64 47.575 47.528 47.345 47.19 47.155 47.068 46.853 46.643 46.49 46.4 46.093 45.923 45.775 45.438 45.228 44.93 44.638 44.55 44.515 44.53 44.525 44.588 44.62 44.733 44.863 44.983 45.143 45.22 44.795 44.805 45.133 45.078 44.913 44.85 44.723 44.593 44.448 44.343 44.25 44.245 44.318 44.313 44.283 44.218 44.248 44.105 43.985 43.873 43.87 43.913 43.88 43.795 43.668 43.7 43.733 43.645 43.575 43.475 43.325 43.258 43.178 43.013 42.945 42.863 42.848 42.82 42.72 42.65 42.453 42.485 42.483 42.395 42.31 42.275 42.143 42.08 42 41.908 41.895 41.96 41.758 41.868 41.925 41.74 41.568 41.473 41.388 41.325 41.278 41.2 41.178 41.183 40.953 40.913 40.93 40.89 40.88 40.85 40.8 40.783 40.965 41.078 41.098 41.08 41.068 41.128 41.048 40.993 40.963 41.01 41.068 41.003 40.855 40.583 40.353 40.295 40.298 40.308 40.353 40.365 40.348 40.358 40.34 39.608 39.785 40.555 40.843 41.128 41.26 41.53 41.773 41.883 41.925 42.018 42.098 42.183 42.315 42.308 42.365 42.32 42.23 42.235 42.26 42.22 42.218 42.173 42.15 42.175 42.228 42.258 42.313 42.353 42.4 42.46 42.52 42.595 42.645 42.695 42.76 42.833 42.9 42.978 43.063 43.143 43.22 43.28 43.325 43.38 43.433 43.488 43.515 43.56 43.598 43.64 43.68 43.715 43.743 43.763 43.77 43.76 43.73 43.72 43.718 43.668 43.633 43.575 43.608 43.603 43.525 43.46 43.408 43.293 43.203 43.09 43.018 42.94 42.845 42.745 42.675 42.603 42.475 42.383 42.315 42.233 42.193 42.085 41.993 41.928 41.833 41.735 41.66 41.565 41.483 41.39 41.32 41.21 41.145 41.03 40.998 40.893 40.813 40.748 40.665 40.62 40.558 40.448 40.388 40.303 40.223 40.128 40.07 39.965 39.963 39.873 39.85 39.84 39.818 39.813 39.795 39.788 39.79 39.763 39.715 39.725 39.685 39.65 39.65 39.683 39.663 39.66 39.638 39.63 39.59 39.558 39.535 39.48 39.448 39.443 39.413 39.395 39.4 39.385 39.42 39.385 39.413 39.38 39.378 39.373 39.318 39.293 39.28 39.218 39.118 39.045 38.995 38.955 38.88 38.773 38.728 38.655 38.608 38.565 38.46 38.423 38.253 38.075 38.15 38.355 38.373 38.385 38.48 38.483 38.59 38.595 38.655 38.658 38.605 38.643 38.645 38.63 38.728 38.725 38.695 38.688 38.73 38.77 38.693 38.733 38.725 38.7 38.668 38.645 38.723 38.733 38.728 38.768 38.76 38.615 38.823 38.888 38.883 38.86 38.905 38.83 38.798 38.778 38.783
51.75 51.603 51.433 51.283 51.14 50.978 50.803 50.603 50.373 50.178 50.023 49.775 49.568 49.39 49.213 49.055 48.853 48.693 48.495 48.378 48.248 48.093 47.945 47.82 47.69 47.595 47.525 47.403 47.318 47.235 47.123 47.073 46.958 46.86 46.79 46.73 46.668 46.598 46.535 46.488 46.49 46.445 46.413 46.355 46.32 46.265 46.173 46.09 46.033 45.993 46.035 45.988 45.993 45.973 45.95 45.945 45.953 45.93 45.908 45.928 45.958 45.935 45.933 45.923 45.943 45.96 45.955 45.975 46.05 46.06 46.023 46.09 46.14 46.183 46.418 46.713 46.838 46.95 46.998 47.083 47.03 46.97 47.15 47.27 47.243 47.273 47.348 47.373 47.395 47.475 47.515 47.528 47.448 47.31 47.268 47.275 47.133 47.123 47.173 47.238 47.33 47.38 47.27 47.173 47.278 47.558 47.715 47.818 47.81 47.8 47.82 47.95 47.95 47.9 47.793 47.763 47.593 47.52 47.48 47.47 47.278 47.075 47.038 46.905 46.693 46.468 46.28 46.085 45.895 45.695 45.383 45.133 44.813 44.585 44.573 44.56 44.42 44.533 44.595 44.665 44.74 44.845 44.91 45.078 45.328 45.218 44.96 44.953 44.89 44.838 44.713 44.653 44.485 44.315 44.275 44.235 44.255 44.285 44.303 44.168 44.03 44.05 43.988 43.935 43.863 43.86 43.825 43.773 43.738 43.645 43.608 43.543 43.513 43.49 43.405 43.275 43.223 43.145 43.04 42.993 42.938 42.82 42.755 42.693 42.63 42.445 42.545 42.58 42.393 42.313 42.278 42.183 42.098 41.998 41.97 41.988 41.953 41.808 41.965 41.82 41.575 41.495 41.423 41.378 41.268 41.19 41.16 41.133 41.09 40.875 40.855 40.828 40.803 40.798 40.778 40.693 40.695 40.785 40.87 40.958 41.048 41.07 41.095 41.058 41.065 41.075 41.08 41.053 41.025 40.848 40.613 40.343 40.253 40.298 40.325 40.37 40.358 40.263 40.31 40.14 39.505 40.23 40.75 40.88 41.068 41.315 41.595 41.815 41.923 41.97 42.105 42.153 42.228 42.39 42.435 42.37 42.22 42.163 42.223 42.193 42.158 42.133 42.123 42.093 42.12 42.148 42.195 42.26 42.293 42.335 42.398 42.473 42.543 42.575 42.635 42.7 42.778 42.845 42.93 43 43.093 43.148 43.218 43.29 43.288 43.358 43.408 43.483 43.525 43.563 43.615 43.658 43.708 43.745 43.748 43.793 43.788 43.803 43.803 43.773 43.72 43.713 43.688 43.688 43.663 43.583 43.535 43.445 43.348 43.255 43.14 43.073 42.995 42.903 42.823 42.718 42.67 42.553 42.465 42.385 42.293 42.228 42.12 42.045 41.948 41.833 41.75 41.67 41.575 41.495 41.4 41.318 41.23 41.108 41.03 40.955 40.85 40.78 40.728 40.63 40.583 40.478 40.408 40.328 40.23 40.128 40.053 40.033 39.96 39.933 39.863 39.84 39.828 39.825 39.838 39.82 39.785 39.818 39.773 39.76 39.713 39.718 39.67 39.645 39.648 39.595 39.648 39.61 39.598 39.578 39.533 39.483 39.468 39.45 39.435 39.415 39.4 39.388 39.405 39.428 39.418 39.405 39.403 39.423 39.405 39.37 39.295 39.275 39.168 39.135 39.05 39.025 38.943 38.82 38.738 38.7 38.65 38.578 38.538 38.453 38.385 38.26 38.163 38.28 38.435 38.383 38.423 38.468 38.533 38.628 38.685 38.72 38.743 38.72 38.738 38.733 38.665 38.753 38.7 38.758 38.785 38.778 38.798 38.818 38.805 38.743 38.718 38.745 38.75 38.745 38.735 38.828 38.823 38.825 38.808 38.83 38.893 38.945 38.955 38.943 38.9 38.835 38.795 38.815
51.843 51.678 51.5 51.355 51.218 51.09 50.868 50.65 50.485 50.268 50.04 49.838 49.64 49.455 49.285 49.123 48.908 48.698 48.533 48.428 48.263 48.115 47.993 47.893 47.768 47.608 47.52 47.43 47.35 47.255 47.203 47.1 47 46.893 46.815 46.775 46.68 46.625 46.573 46.533 46.503 46.475 46.433 46.393 46.328 46.258 46.198 46.13 46.06 45.99 46.003 45.963 45.968 45.965 45.973 45.975 45.92 45.923 45.905 45.923 45.928 45.923 45.905 45.915 45.963 45.995 46.02 46.018 46.09 46.06 46.07 46.11 46.16 46.348 46.49 46.7 46.825 46.87 46.908 46.955 47.003 47.068 47.208 47.265 47.283 47.413 47.488 47.535 47.483 47.518 47.548 47.51 47.423 47.38 47.335 47.375 47.288 47.223 47.203 47.2 47.223 47.288 47.29 47.343 47.395 47.568 47.78 47.815 47.805 47.843 47.9 47.923 47.87 47.81 47.738 47.7 47.673 47.38 47.41 47.373 47.18 46.998 46.95 46.88 46.685 46.408 46.198 46.043 45.85 45.605 45.298 45.023 44.738 44.568 44.545 44.565 44.543 44.62 44.683 44.79 44.798 44.908 44.978 45.12 45.28 45.365 45.36 45.15 45.045 44.915 44.818 44.843 44.583 44.355 44.338 44.3 44.31 44.363 44.38 44.35 44.22 44.183 44.063 44 43.948 43.91 43.855 43.76 43.688 43.583 43.528 43.448 43.428 43.39 43.368 43.233 43.165 43.14 43.07 42.948 42.873 42.845 42.773 42.77 42.733 42.46 42.658 42.683 42.538 42.455 42.415 42.35 42.228 42.088 42.01 41.985 41.888 41.74 41.888 41.765 41.595 41.488 41.438 41.335 41.268 41.168 41.125 41.075 40.983 40.813 40.8 40.785 40.763 40.778 40.718 40.61 40.608 40.57 40.67 40.8 40.908 40.968 40.995 41.043 41.078 41.113 41.1 41.058 41.003 40.83 40.598 40.355 40.318 40.265 40.253 40.288 40.308 40.308 40.205 39.623 39.643 40.33 40.763 41.12 41.145 41.275 41.565 41.808 41.958 41.963 42.058 42.115 42.185 42.348 42.398 42.33 42.123 42.098 42.163 42.133 42.098 42.06 42.065 42.033 42.065 42.105 42.135 42.178 42.235 42.285 42.325 42.39 42.445 42.498 42.588 42.673 42.748 42.808 42.868 42.95 43.028 43.09 43.163 43.205 43.265 43.298 43.365 43.415 43.488 43.538 43.578 43.638 43.7 43.75 43.765 43.783 43.8 43.803 43.803 43.785 43.74 43.718 43.73 43.77 43.725 43.635 43.59 43.51 43.4 43.343 43.215 43.158 43.075 42.965 42.848 42.8 42.728 42.633 42.558 42.445 42.36 42.295 42.19 42.098 41.995 41.868 41.8 41.678 41.618 41.525 41.428 41.32 41.205 41.125 41.038 40.953 40.85 40.78 40.705 40.61 40.535 40.445 40.4 40.283 40.2 40.095 40.06 39.99 39.923 39.88 39.865 39.84 39.825 39.838 39.83 39.823 39.833 39.843 39.82 39.78 39.73 39.698 39.668 39.638 39.635 39.573 39.615 39.615 39.593 39.573 39.548 39.503 39.458 39.423 39.41 39.408 39.383 39.405 39.403 39.415 39.405 39.395 39.41 39.418 39.403 39.368 39.32 39.285 39.21 39.11 39.075 38.985 38.925 38.843 38.745 38.675 38.62 38.57 38.49 38.435 38.375 38.305 38.225 38.353 38.425 38.395 38.44 38.523 38.578 38.66 38.765 38.823 38.828 38.823 38.785 38.823 38.815 38.848 38.85 38.865 38.87 38.85 38.87 38.875 38.87 38.823 38.77 38.785 38.865 38.81 38.79 38.818 38.855 38.87 38.838 38.85 38.91 38.993 39.015 38.978 38.95 38.9 38.85 38.823
51.91 51.77 51.555 51.423 51.298 51.13 50.955 50.733 50.54 50.385 50.153 49.928 49.693 49.52 49.33 49.188 49.003 48.768 48.588 48.465 48.328 48.143 47.998 47.915 47.805 47.678 47.573 47.448 47.393 47.325 47.233 47.115 47.035 46.95 46.838 46.773 46.718 46.635 46.578 46.565 46.54 46.473 46.468 46.428 46.353 46.305 46.243 46.123 46.11 46.02 45.963 45.963 45.955 45.983 45.97 45.938 45.928 45.928 45.925 45.923 45.928 45.91 45.873 45.943 45.988 46.025 46.065 46.088 46.063 46.08 46.2 46.265 46.428 46.588 46.628 46.708 46.75 46.755 46.888 46.93 47.003 47.193 47.205 47.19 47.33 47.448 47.523 47.565 47.585 47.608 47.578 47.518 47.458 47.42 47.38 47.48 47.365 47.278 47.25 47.24 47.255 47.338 47.425 47.43 47.483 47.613 47.678 47.738 47.848 47.96 47.96 47.905 47.835 47.743 47.663 47.585 47.598 47.425 47.413 47.308 47.02 46.955 46.953 46.893 46.688 46.438 46.248 45.993 45.705 45.513 45.188 44.89 44.663 44.5 44.515 44.525 44.56 44.585 44.778 44.9 44.903 44.94 44.988 45.098 45.253 45.315 45.44 45.258 45.153 44.985 44.905 44.913 44.708 44.448 44.405 44.473 44.433 44.533 44.535 44.533 44.493 44.423 44.28 44.188 44.138 44.108 44.078 44.025 43.928 43.785 43.788 43.715 43.595 43.445 43.365 43.285 43.193 43.103 43.063 43.005 42.993 42.948 42.88 42.833 42.79 42.53 42.72 42.855 42.788 42.675 42.533 42.425 42.383 42.208 42.103 41.98 41.813 41.718 41.8 41.723 41.605 41.45 41.375 41.303 41.213 41.128 41.05 40.993 40.878 40.643 40.708 40.668 40.67 40.728 40.673 40.593 40.548 40.485 40.56 40.615 40.69 40.743 40.838 40.895 40.988 41.003 41.025 41.033 40.955 40.798 40.593 40.408 40.325 40.38 40.37 40.393 40.428 40.373 39.843 39.515 40.003 40.425 40.75 41.248 41.4 41.28 41.385 41.655 41.858 41.923 42.018 42.125 42.238 42.35 42.358 42.248 42.055 42.09 42.113 42.058 42.03 42.003 42.005 41.993 42.013 42.05 42.075 42.105 42.15 42.223 42.273 42.35 42.39 42.435 42.515 42.568 42.638 42.718 42.783 42.858 42.92 43.003 43.095 43.155 43.225 43.288 43.33 43.373 43.445 43.488 43.54 43.615 43.675 43.745 43.778 43.768 43.82 43.825 43.825 43.8 43.775 43.723 43.808 43.823 43.808 43.715 43.655 43.553 43.483 43.36 43.28 43.238 43.14 43.013 42.93 42.843 42.763 42.685 42.598 42.503 42.415 42.333 42.233 42.175 42.065 41.943 41.858 41.748 41.66 41.565 41.433 41.335 41.213 41.13 41.043 40.94 40.853 40.75 40.665 40.568 40.523 40.433 40.35 40.273 40.178 40.115 40.055 39.973 39.933 39.905 39.868 39.863 39.855 39.855 39.855 39.84 39.853 39.855 39.823 39.79 39.745 39.72 39.663 39.635 39.608 39.595 39.615 39.603 39.598 39.54 39.513 39.503 39.478 39.438 39.413 39.428 39.403 39.398 39.395 39.37 39.385 39.383 39.393 39.403 39.403 39.368 39.34 39.26 39.205 39.123 39.043 38.965 38.918 38.845 38.765 38.663 38.61 38.538 38.453 38.405 38.368 38.253 38.233 38.39 38.458 38.443 38.498 38.575 38.673 38.72 38.79 38.895 38.853 38.84 38.848 38.883 38.858 38.89 38.93 38.905 38.895 38.793 38.928 38.908 38.94 38.915 38.835 38.855 38.878 38.845 38.87 38.863 38.85 38.883 38.915 38.948 38.98 38.99 39.008 38.995 38.928 38.95 38.97 38.91
51.975 51.805 51.663 51.49 51.375 51.203 51.035 50.81 50.583 50.405 50.248 49.985 49.813 49.593 49.423 49.265 49.09 48.865 48.678 48.52 48.393 48.218 48.065 47.975 47.868 47.745 47.61 47.525 47.455 47.365 47.243 47.128 47.035 46.975 46.908 46.8 46.75 46.683 46.63 46.59 46.578 46.54 46.518 46.43 46.37 46.315 46.245 46.153 46.098 46.045 45.995 45.965 45.968 45.99 45.955 45.948 45.968 45.935 45.908 45.93 45.933 45.903 45.903 45.993 46.055 46.065 46.1 46.048 46.04 46.09 46.243 46.388 46.548 46.658 46.638 46.685 46.71 46.805 46.903 46.928 47.15 47.203 47.243 47.21 47.348 47.468 47.608 47.65 47.613 47.538 47.615 47.628 47.533 47.453 47.41 47.465 47.473 47.433 47.375 47.313 47.318 47.373 47.398 47.508 47.473 47.575 47.73 47.733 47.728 47.933 48.01 47.873 47.915 47.963 47.685 47.613 47.593 47.485 47.388 47.293 47.1 46.97 46.94 46.748 46.528 46.333 46.173 45.908 45.658 45.383 45.075 44.87 44.695 44.54 44.543 44.545 44.585 44.633 44.768 44.883 44.905 44.935 45.038 45.098 45.238 45.245 45.248 45.255 45.173 45.023 44.92 44.825 44.71 44.55 44.5 44.518 44.505 44.685 44.875 44.865 44.77 44.648 44.503 44.365 44.27 44.215 44.208 44.19 44.058 43.963 43.885 43.835 43.725 43.64 43.58 43.455 43.305 43.128 43.025 42.938 42.923 42.935 42.92 42.948 42.92 42.665 42.91 42.99 42.88 42.77 42.613 42.48 42.445 42.28 42.188 42.065 41.768 41.753 41.755 41.645 41.528 41.463 41.318 41.19 41.168 41.125 40.968 40.898 40.725 40.608 40.645 40.598 40.633 40.635 40.615 40.55 40.535 40.505 40.495 40.568 40.638 40.67 40.68 40.735 40.83 40.813 40.875 40.915 40.845 40.778 40.573 40.288 40.17 40.393 40.443 40.468 40.395 40.1 39.49 39.685 40.233 40.493 40.83 41.16 41.55 41.568 41.515 41.455 41.675 41.888 41.963 42.1 42.23 42.343 42.308 42.145 42.023 42.095 42.073 41.978 41.943 41.93 41.945 41.938 41.943 41.988 42.033 42.065 42.11 42.145 42.193 42.28 42.33 42.37 42.435 42.49 42.575 42.655 42.723 42.773 42.84 42.928 42.998 43.078 43.165 43.23 43.288 43.338 43.385 43.45 43.508 43.605 43.655 43.703 43.758 43.783 43.798 43.815 43.8 43.805 43.748 43.78 43.85 43.845 43.82 43.775 43.703 43.58 43.523 43.415 43.365 43.295 43.203 43.1 43.018 42.923 42.825 42.753 42.648 42.56 42.425 42.385 42.273 42.163 42.09 41.99 41.878 41.78 41.673 41.55 41.458 41.338 41.245 41.13 41.043 40.93 40.818 40.73 40.675 40.57 40.478 40.413 40.305 40.228 40.135 40.083 40.003 39.955 39.938 39.913 39.878 39.885 39.868 39.86 39.87 39.865 39.9 39.87 39.835 39.823 39.785 39.728 39.698 39.66 39.628 39.638 39.643 39.645 39.59 39.553 39.558 39.548 39.518 39.45 39.448 39.458 39.435 39.445 39.423 39.395 39.433 39.42 39.398 39.42 39.405 39.338 39.31 39.268 39.215 39.148 39.075 39.003 38.918 38.838 38.758 38.68 38.618 38.528 38.45 38.43 38.365 38.24 38.23 38.353 38.495 38.525 38.57 38.605 38.683 38.768 38.818 38.905 38.833 38.91 38.94 38.923 38.918 38.933 38.993 38.943 38.928 38.86 38.903 38.925 38.95 38.933 38.92 38.9 38.858 38.83 38.898 38.898 38.92 38.888 38.845 38.94 38.998 38.938 38.94 38.95 39.025 39.083 39.063 38.975
52.068 51.888 51.738 51.568 51.443 51.288 51.115 50.88 50.66 50.463 50.25 50.06 49.89 49.675 49.483 49.328 49.133 48.92 48.718 48.588 48.445 48.335 48.113 48.01 47.9 47.805 47.678 47.595 47.488 47.385 47.34 47.233 47.095 47.015 46.923 46.86 46.783 46.703 46.675 46.625 46.613 46.585 46.558 46.463 46.408 46.35 46.285 46.185 46.145 46.08 46.038 45.98 45.96 45.973 45.968 45.948 45.958 45.95 45.963 45.948 45.928 45.908 45.948 46.02 46.08 46.078 46.063 46.048 46.033 46.04 46.138 46.413 46.568 46.63 46.605 46.668 46.828 46.9 46.868 46.965 47.123 47.2 47.253 47.308 47.398 47.518 47.643 47.703 47.593 47.52 47.675 47.758 47.64 47.478 47.355 47.523 47.578 47.488 47.415 47.405 47.415 47.438 47.413 47.455 47.458 47.54 47.703 47.71 47.693 47.763 47.83 47.82 47.92 47.993 47.775 47.66 47.525 47.42 47.263 47.185 47.058 46.858 46.778 46.548 46.328 46.175 46.048 45.758 45.528 45.258 45.038 44.77 44.623 44.55 44.548 44.573 44.645 44.698 44.758 44.91 44.933 44.968 45.058 45.085 45.113 45.17 45.16 45.2 45.17 45.053 44.94 44.84 44.775 44.705 44.62 44.585 44.568 44.695 44.815 44.893 44.95 45.028 44.71 44.455 44.505 44.41 44.3 44.265 44.178 44.068 44 43.9 43.775 43.728 43.718 43.568 43.34 43.125 43.02 42.885 42.895 42.935 43.113 43.093 42.98 42.743 42.805 42.83 42.853 42.798 42.66 42.605 42.495 42.348 42.163 42.008 41.688 41.785 41.703 41.55 41.435 41.38 41.24 41.165 41.13 41.105 40.948 40.818 40.625 40.618 40.595 40.535 40.515 40.49 40.505 40.493 40.483 40.473 40.438 40.45 40.483 40.578 40.59 40.63 40.69 40.718 40.775 40.783 40.788 40.68 40.51 40.28 40.195 40.36 40.438 40.455 40.335 39.763 39.563 40.053 40.34 40.57 40.865 41.335 41.658 41.735 41.743 41.75 41.68 41.69 41.8 42.05 42.243 42.25 42.223 42.085 42.045 42.07 42.038 41.983 41.903 41.87 41.88 41.883 41.905 41.905 41.923 41.998 42.018 42.078 42.138 42.205 42.23 42.303 42.378 42.433 42.495 42.543 42.615 42.71 42.765 42.855 42.943 42.988 43.058 43.14 43.193 43.248 43.308 43.388 43.463 43.528 43.605 43.67 43.725 43.755 43.778 43.795 43.79 43.768 43.75 43.86 43.903 43.858 43.83 43.783 43.703 43.615 43.54 43.49 43.423 43.325 43.198 43.135 43.03 42.963 42.888 42.78 42.693 42.573 42.49 42.433 42.285 42.228 42.098 42.01 41.87 41.765 41.673 41.555 41.453 41.33 41.22 41.12 41.02 40.893 40.785 40.715 40.633 40.563 40.495 40.388 40.283 40.22 40.135 40.083 40.015 39.98 39.953 39.943 39.915 39.913 39.91 39.88 39.89 39.908 39.92 39.908 39.885 39.865 39.843 39.798 39.76 39.73 39.68 39.678 39.645 39.628 39.605 39.625 39.615 39.568 39.505 39.463 39.475 39.453 39.45 39.44 39.468 39.445 39.465 39.458 39.428 39.445 39.39 39.37 39.338 39.278 39.233 39.16 39.113 39.023 38.928 38.848 38.743 38.7 38.62 38.563 38.45 38.418 38.42 38.338 38.303 38.425 38.523 38.568 38.578 38.658 38.798 38.805 38.84 38.875 38.93 38.993 39.008 38.968 38.945 38.955 38.998 38.958 39.02 38.978 38.868 39.053 39.035 39.003 38.993 38.95 38.9 38.933 38.958 38.953 38.963 38.973 38.908 38.933 38.945 38.93 38.97 39.003 39.063 39.063 38.978 38.915
52.148 51.975 51.805 51.64 51.51 51.37 51.233 50.988 50.753 50.558 50.345 50.143 49.918 49.748 49.575 49.415 49.19 48.948 48.773 48.635 48.5 48.34 48.185 48.07 47.96 47.85 47.715 47.628 47.53 47.433 47.385 47.245 47.17 47.095 46.968 46.875 46.843 46.758 46.755 46.683 46.658 46.585 46.588 46.51 46.45 46.395 46.325 46.213 46.158 46.1 46.07 46.013 45.988 45.985 45.995 45.948 45.963 45.95 45.96 45.923 45.923 45.928 45.975 46.075 46.098 46.06 46.043 46.18 46.15 46.17 46.303 46.465 46.53 46.575 46.503 46.623 46.748 46.808 46.913 47.08 47.118 47.248 47.298 47.333 47.418 47.528 47.583 47.663 47.613 47.603 47.608 47.628 47.625 47.528 47.465 47.618 47.55 47.418 47.338 47.388 47.523 47.478 47.45 47.485 47.538 47.58 47.66 47.753 47.733 47.7 47.765 47.79 47.883 47.985 47.813 47.603 47.48 47.408 47.283 47.1 47.053 46.935 46.725 46.51 46.313 46.168 45.973 45.7 45.415 45.168 44.908 44.75 44.583 44.543 44.58 44.62 44.708 44.81 44.833 44.898 44.903 44.985 45.095 45.205 45.203 45.183 45.16 45.138 45.085 45.065 45.035 45.02 44.995 44.963 44.955 44.945 44.9 44.855 44.83 44.755 44.715 44.66 44.578 44.478 44.495 44.483 44.228 44.215 44.14 44.085 44.03 43.968 43.86 43.79 43.798 43.608 43.335 43.15 42.945 42.878 42.855 42.98 43.188 43.175 43.033 42.785 42.778 42.8 42.843 42.798 42.743 42.695 42.513 42.39 42.2 41.97 41.635 41.76 41.658 41.54 41.385 41.248 41.183 41.13 41.045 40.988 40.86 40.743 40.588 40.665 40.603 40.525 40.485 40.478 40.468 40.468 40.448 40.433 40.42 40.395 40.403 40.528 40.638 40.683 40.708 40.73 40.718 40.71 40.64 40.49 40.335 40.235 40.25 40.3 40.375 40.375 40.143 39.653 39.87 40.263 40.375 40.603 40.985 41.375 41.65 41.783 41.915 42.068 42.028 42.015 42.015 42.133 42.225 42.148 42.153 42.043 42.048 42.035 41.985 41.948 41.888 41.865 41.838 41.855 41.863 41.9 41.898 41.95 41.983 42.025 42.06 42.118 42.175 42.223 42.255 42.315 42.36 42.43 42.523 42.608 42.693 42.788 42.858 42.91 42.965 43.048 43.128 43.208 43.278 43.333 43.408 43.488 43.548 43.605 43.645 43.71 43.74 43.763 43.788 43.775 43.783 43.905 43.87 43.855 43.82 43.785 43.728 43.66 43.563 43.523 43.44 43.363 43.258 43.193 43.098 42.998 42.898 42.81 42.735 42.62 42.533 42.425 42.313 42.218 42.098 42.015 41.903 41.77 41.668 41.598 41.465 41.308 41.213 41.113 41.013 40.905 40.763 40.688 40.588 40.518 40.475 40.378 40.268 40.195 40.125 40.07 40.035 39.988 39.968 39.973 39.978 39.938 39.963 39.96 39.95 39.98 39.94 39.958 39.958 39.91 39.873 39.83 39.798 39.755 39.748 39.708 39.688 39.663 39.645 39.66 39.64 39.573 39.545 39.54 39.53 39.485 39.478 39.47 39.45 39.448 39.468 39.443 39.453 39.453 39.428 39.373 39.343 39.305 39.233 39.193 39.11 39.023 38.943 38.87 38.76 38.72 38.628 38.555 38.495 38.418 38.455 38.35 38.268 38.523 38.573 38.523 38.613 38.688 38.85 38.843 38.848 38.858 38.958 39 38.95 38.98 38.97 38.98 38.993 38.948 38.858 39.015 38.998 39.008 39.045 39.058 39.058 38.998 38.99 38.958 38.973 38.96 39.015 39.035 38.968 38.978 39.023 39.043 39.093 39.06 39.063 39.055 39.005 38.933
52.248 52.058 51.88 51.723 51.585 51.458 51.31 51.075 50.84 50.618 50.393 50.213 50.053 49.85 49.66 49.465 49.288 49.063 48.888 48.745 48.57 48.415 48.283 48.158 48.033 47.925 47.825 47.713 47.613 47.508 47.428 47.323 47.228 47.125 47.025 46.93 46.893 46.803 46.798 46.76 46.698 46.638 46.618 46.57 46.54 46.468 46.37 46.27 46.24 46.153 46.085 46.055 46.028 45.993 46.003 45.973 45.965 45.963 45.93 45.913 45.975 45.97 46.045 46.098 46.073 46.043 46.215 46.385 46.408 46.445 46.448 46.393 46.42 46.485 46.518 46.518 46.618 46.833 46.905 47.148 47.178 47.275 47.38 47.408 47.48 47.523 47.51 47.578 47.713 47.76 47.758 47.623 47.68 47.638 47.553 47.508 47.485 47.363 47.368 47.423 47.458 47.495 47.395 47.445 47.628 47.593 47.688 47.763 47.735 47.658 47.65 47.718 47.84 47.985 47.84 47.663 47.428 47.42 47.298 47.153 47.13 46.983 46.733 46.498 46.273 46.063 45.85 45.813 45.465 45.13 44.933 44.868 44.71 44.595 44.623 44.673 44.79 44.878 44.833 44.855 44.933 44.985 45.005 45.105 45.113 45.103 45.145 45.14 45.143 45.118 45.088 45.045 45.043 45.078 45.083 45.133 45.163 45.17 45.16 45.103 45.043 44.945 44.78 44.58 44.448 44.29 44.155 44.11 44.068 44.06 44.02 43.888 43.78 43.738 43.793 43.715 43.505 43.278 43.005 42.895 42.848 42.895 43.09 43.11 43.053 42.825 42.893 42.913 42.803 42.775 42.725 42.678 42.518 42.348 42.183 41.878 41.62 41.733 41.578 41.493 41.313 41.195 41.175 41.1 41.005 40.925 40.803 40.718 40.638 40.658 40.555 40.458 40.538 40.458 40.44 40.44 40.438 40.478 40.483 40.46 40.455 40.533 40.6 40.648 40.698 40.733 40.738 40.745 40.678 40.46 40.298 40.243 40.215 40.285 40.295 40.293 40.03 39.7 40.063 40.32 40.458 40.71 41.085 41.38 41.635 41.758 41.88 41.985 42.043 42.083 42.098 42.193 42.24 42.18 42.08 42.04 42.04 41.99 41.925 41.863 41.825 41.833 41.835 41.82 41.835 41.858 41.875 41.88 41.908 41.965 41.995 42.025 42.078 42.14 42.188 42.233 42.285 42.35 42.44 42.523 42.578 42.645 42.705 42.768 42.84 42.93 43.015 43.095 43.15 43.248 43.318 43.4 43.45 43.54 43.58 43.635 43.68 43.675 43.735 43.733 43.778 43.873 43.853 43.845 43.825 43.803 43.743 43.65 43.6 43.523 43.428 43.348 43.303 43.218 43.128 43.048 42.933 42.828 42.74 42.648 42.528 42.408 42.318 42.23 42.11 42.05 41.9 41.793 41.643 41.568 41.473 41.333 41.223 41.093 40.995 40.873 40.76 40.688 40.593 40.518 40.43 40.395 40.33 40.228 40.19 40.11 40.035 40.02 40.013 39.98 39.99 39.963 39.998 39.993 39.993 40.015 40.035 40.018 39.983 39.963 39.92 39.848 39.79 39.77 39.803 39.733 39.735 39.73 39.733 39.728 39.69 39.653 39.638 39.595 39.595 39.543 39.535 39.528 39.495 39.488 39.48 39.47 39.46 39.473 39.43 39.398 39.32 39.29 39.243 39.203 39.145 39.048 38.993 38.898 38.81 38.745 38.645 38.573 38.49 38.47 38.373 38.245 38.28 38.533 38.6 38.565 38.745 38.755 38.78 38.843 38.88 38.9 38.96 39.018 39.053 39.04 39.058 38.985 38.965 39.008 39.045 39.068 39.073 39.045 39.03 39.01 39.005 39.018 39.013 38.99 38.993 38.978 39.015 39.06 39.05 39.033 39.088 39.133 39.093 39.093 39.065 39.055 39.038 38.975
52.338 52.14 51.968 51.825 51.69 51.55 51.36 51.168 50.93 50.708 50.493 50.283 50.103 49.953 49.755 49.595 49.375 49.113 48.94 48.795 48.66 48.563 48.355 48.265 48.108 47.978 47.883 47.785 47.708 47.593 47.51 47.418 47.32 47.205 47.125 47.038 46.973 46.923 46.88 46.808 46.753 46.68 46.68 46.638 46.59 46.51 46.418 46.375 46.275 46.193 46.14 46.12 46.08 46.048 46.048 46.02 45.98 45.99 45.978 45.978 46.015 46.065 46.11 46.078 46.07 46.15 46.29 46.38 46.418 46.428 46.428 46.405 46.44 46.5 46.54 46.525 46.65 46.808 46.908 47.125 47.19 47.26 47.375 47.445 47.535 47.565 47.535 47.61 47.71 47.78 47.818 47.783 47.663 47.708 47.57 47.528 47.515 47.43 47.398 47.478 47.615 47.543 47.475 47.458 47.63 47.638 47.708 47.803 47.743 47.82 47.61 47.593 47.63 47.753 47.813 47.765 47.475 47.273 47.2 47.023 47.015 46.803 46.58 46.37 46.155 46.03 45.8 45.695 45.475 45.19 44.988 44.918 44.818 44.748 44.793 44.825 44.815 44.825 44.813 44.885 44.968 44.99 44.973 45.003 45.038 45.1 45.148 45.185 45.243 45.163 45.13 45.083 45.075 45.088 45.12 45.148 45.19 45.223 45.208 45.173 45.188 45.143 45.063 44.928 44.843 44.66 44.563 44.41 44.245 44.083 43.973 43.833 43.693 43.635 43.64 43.568 43.513 43.303 43.08 43.035 42.923 42.885 42.878 42.853 42.82 42.755 42.848 42.805 42.748 42.71 42.673 42.595 42.413 42.23 42.105 41.698 41.625 41.653 41.52 41.428 41.298 41.175 41.09 41.058 40.965 40.86 40.788 40.68 40.583 40.635 40.545 40.493 40.553 40.47 40.445 40.43 40.438 40.453 40.48 40.5 40.495 40.525 40.52 40.57 40.54 40.525 40.635 40.698 40.673 40.538 40.393 40.235 40.22 40.283 40.245 40.23 39.738 39.698 40.095 40.26 40.613 40.92 41.203 41.508 41.678 41.805 41.875 42.033 42.043 42.09 42.155 42.223 42.233 42.133 42.023 42.01 42.025 41.958 41.898 41.828 41.813 41.798 41.78 41.768 41.79 41.803 41.803 41.813 41.865 41.895 41.92 41.96 42.015 42.053 42.11 42.15 42.203 42.273 42.343 42.443 42.485 42.538 42.62 42.673 42.745 42.848 42.905 42.983 43.06 43.18 43.26 43.313 43.385 43.43 43.518 43.573 43.603 43.61 43.66 43.688 43.768 43.853 43.82 43.82 43.818 43.785 43.725 43.68 43.615 43.548 43.438 43.348 43.303 43.245 43.13 43.04 42.943 42.84 42.753 42.65 42.538 42.428 42.323 42.218 42.108 42.018 41.878 41.773 41.673 41.523 41.43 41.298 41.173 41.058 40.97 40.848 40.733 40.628 40.553 40.488 40.428 40.36 40.31 40.215 40.163 40.148 40.113 40.068 40.025 40.028 40.025 40.01 40.03 40.04 40.045 40.063 40.073 40.065 40.043 39.995 39.973 39.91 39.878 39.853 39.818 39.79 39.8 39.805 39.795 39.743 39.733 39.708 39.658 39.643 39.635 39.58 39.585 39.563 39.535 39.493 39.48 39.49 39.483 39.463 39.453 39.428 39.36 39.31 39.248 39.203 39.15 39.055 39.01 38.88 38.815 38.743 38.668 38.618 38.533 38.47 38.333 38.238 38.27 38.498 38.643 38.683 38.73 38.75 38.808 38.855 38.87 38.938 38.985 39.083 39.115 39.063 39.09 39.06 39.018 38.985 39.018 39.065 39.045 39.043 39.023 39.06 39 38.96 39.033 39.043 39.068 39.058 39.05 39.083 39.103 39.063 39.083 39.095 39.043 38.988 38.99 39.05 39.035 39.013
52.4 52.213 52.068 51.943 51.795 51.63 51.45 51.31 51.033 50.815 50.59 50.42 50.193 49.968 49.805 49.668 49.415 49.193 49.06 48.873 48.75 48.605 48.44 48.323 48.2 48.09 47.98 47.868 47.768 47.66 47.585 47.505 47.428 47.323 47.193 47.055 47.028 46.965 46.945 46.868 46.83 46.78 46.753 46.708 46.65 46.58 46.495 46.415 46.328 46.255 46.203 46.168 46.13 46.11 46.09 46.055 45.995 46.008 45.988 46.028 46.088 46.133 46.115 46.085 46.17 46.225 46.268 46.335 46.31 46.328 46.35 46.465 46.555 46.545 46.53 46.638 46.735 46.85 47.01 47.073 47.195 47.258 47.395 47.478 47.515 47.573 47.6 47.7 47.708 47.675 47.86 48.08 47.868 47.67 47.6 47.548 47.623 47.443 47.4 47.56 47.54 47.45 47.52 47.555 47.68 47.733 47.683 47.618 47.685 47.968 47.748 47.648 47.618 47.553 47.55 47.448 47.283 47.223 47.093 46.945 46.858 46.633 46.538 46.38 46.165 45.98 45.765 45.555 45.478 45.355 45.13 45.045 44.958 44.945 44.97 44.908 44.855 44.853 44.865 44.96 44.965 44.945 44.898 44.925 45.02 45.145 45.208 45.208 45.225 45.198 45.18 45.163 45.235 45.255 45.243 45.238 45.298 45.295 45.275 45.223 45.18 45.183 45.09 45.043 44.978 44.873 44.783 44.698 44.578 44.425 44.285 44.188 43.968 43.833 43.66 43.508 43.343 43.228 43.108 43.07 42.958 42.963 43.07 42.775 42.743 42.768 42.713 42.66 42.623 42.543 42.533 42.508 42.378 42.138 41.868 41.503 41.57 41.538 41.445 41.335 41.228 41.128 41.083 41.06 40.98 40.858 40.783 40.618 40.593 40.575 40.49 40.523 40.533 40.493 40.445 40.435 40.445 40.468 40.46 40.45 40.478 40.51 40.528 40.503 40.5 40.463 40.518 40.54 40.573 40.518 40.388 40.318 40.31 40.345 40.313 40.32 39.71 39.828 40.173 40.228 40.465 40.9 41.255 41.54 41.695 41.81 41.865 41.99 42.028 42.08 42.248 42.305 42.245 42.105 41.993 42.028 41.993 41.89 41.86 41.808 41.793 41.748 41.745 41.753 41.765 41.748 41.75 41.798 41.835 41.845 41.865 41.918 41.955 41.943 41.978 42.065 42.093 42.175 42.225 42.3 42.37 42.443 42.508 42.595 42.675 42.748 42.825 42.908 42.99 43.098 43.173 43.255 43.315 43.368 43.43 43.5 43.528 43.553 43.588 43.635 43.76 43.813 43.813 43.788 43.773 43.758 43.71 43.675 43.58 43.505 43.458 43.4 43.293 43.195 43.115 43.018 42.92 42.828 42.73 42.628 42.523 42.41 42.31 42.2 42.088 42.008 41.888 41.773 41.665 41.535 41.405 41.298 41.128 41.053 40.943 40.818 40.715 40.628 40.543 40.438 40.395 40.34 40.27 40.223 40.18 40.153 40.113 40.1 40.06 40.04 40.025 40.065 40.055 40.063 40.088 40.085 40.105 40.12 40.098 40.055 40.003 39.975 39.93 39.905 39.863 39.82 39.848 39.875 39.84 39.78 39.798 39.745 39.708 39.693 39.683 39.64 39.643 39.658 39.615 39.558 39.52 39.483 39.518 39.508 39.478 39.453 39.425 39.348 39.295 39.248 39.173 39.06 39.02 38.938 38.845 38.755 38.673 38.623 38.533 38.493 38.445 38.308 38.288 38.515 38.68 38.735 38.743 38.76 38.793 38.84 38.863 38.958 38.98 39.033 39.093 39.058 39.04 38.995 39.018 39.035 39.02 39.035 39.035 39.01 39.048 39.06 39.003 38.963 39.113 39.133 39.085 39.073 39.083 39.13 39.113 39.058 39.043 39.05 39.01 39.025 39.025 39.073 39.075 39.023
52.515 52.33 52.158 52.038 51.938 51.753 51.563 51.41 51.135 50.895 50.673 50.498 50.358 50.148 49.938 49.795 49.593 49.33 49.163 48.953 48.815 48.685 48.533 48.443 48.3 48.183 48.073 47.958 47.875 47.795 47.7 47.585 47.465 47.375 47.308 47.17 47.093 47.03 47.013 46.938 46.89 46.87 46.833 46.798 46.723 46.645 46.593 46.513 46.42 46.338 46.265 46.23 46.185 46.143 46.125 46.073 46.035 46.053 46.09 46.083 46.138 46.168 46.138 46.168 46.26 46.308 46.175 46.233 46.248 46.235 46.328 46.478 46.528 46.533 46.53 46.728 46.8 46.92 47.043 47.053 47.118 47.24 47.358 47.42 47.463 47.598 47.713 47.718 47.703 47.688 47.748 48.013 47.885 47.665 47.65 47.623 47.648 47.403 47.425 47.44 47.433 47.423 47.498 47.578 47.66 47.698 47.768 47.715 47.723 47.91 47.868 47.733 47.688 47.59 47.45 47.248 47.175 47.125 47.045 46.92 46.755 46.555 46.47 46.368 46.213 46.018 45.803 45.68 45.595 45.433 45.278 45.218 45.155 45.1 45.02 44.995 44.968 44.933 44.92 44.888 44.828 44.805 44.853 44.95 45.025 45.1 45.243 45.238 45.27 45.303 45.298 45.3 45.353 45.378 45.403 45.463 45.415 45.393 45.36 45.318 45.3 45.218 45.135 45.063 44.993 44.913 44.82 44.735 44.633 44.54 44.41 44.308 44.205 44.198 43.963 43.82 43.565 43.413 43.295 43.118 42.893 42.825 42.793 42.66 42.59 42.615 42.565 42.52 42.5 42.463 42.46 42.433 42.363 42.048 41.705 41.385 41.513 41.47 41.335 41.238 41.155 41.075 40.998 40.985 40.975 40.895 40.813 40.598 40.638 40.59 40.49 40.463 40.45 40.433 40.418 40.418 40.488 40.495 40.483 40.458 40.485 40.523 40.533 40.5 40.473 40.47 40.47 40.378 40.485 40.49 40.428 40.438 40.445 40.435 40.398 40.373 39.833 39.91 40.325 40.493 40.578 40.763 41.098 41.435 41.683 41.835 41.843 41.885 41.98 42.105 42.233 42.265 42.165 42.043 41.98 42.013 41.97 41.88 41.84 41.798 41.765 41.733 41.72 41.733 41.713 41.703 41.713 41.728 41.75 41.783 41.818 41.823 41.868 41.875 41.905 41.955 42.035 42.093 42.14 42.183 42.258 42.345 42.393 42.478 42.555 42.648 42.743 42.813 42.893 43 43.093 43.155 43.228 43.275 43.378 43.435 43.453 43.518 43.57 43.615 43.745 43.765 43.765 43.763 43.73 43.733 43.688 43.618 43.565 43.52 43.398 43.373 43.288 43.203 43.125 43.053 42.953 42.855 42.698 42.655 42.553 42.433 42.305 42.218 42.095 41.963 41.833 41.74 41.62 41.475 41.378 41.245 41.11 41.003 40.913 40.76 40.655 40.583 40.535 40.433 40.398 40.37 40.288 40.225 40.208 40.16 40.125 40.12 40.103 40.115 40.095 40.08 40.085 40.095 40.108 40.15 40.14 40.15 40.113 40.073 40.068 40.015 39.975 39.96 39.933 39.908 39.91 39.895 39.873 39.85 39.85 39.83 39.775 39.738 39.713 39.695 39.678 39.663 39.63 39.588 39.573 39.558 39.565 39.543 39.515 39.478 39.443 39.398 39.315 39.265 39.193 39.09 39.023 38.953 38.868 38.788 38.728 38.65 38.545 38.495 38.53 38.398 38.345 38.53 38.713 38.703 38.745 38.793 38.805 38.813 38.865 38.928 38.98 38.975 38.988 39.043 39.048 38.948 38.998 39.028 39.023 39.023 39.075 39.035 39.078 39.113 39.135 39.133 39.22 39.248 39.12 39.113 39.095 39.083 39.045 38.973 39.088 39.09 39.083 39.09 39.095 39.13 39.085 39.003
52.613 52.433 52.275 52.133 52.048 51.81 51.605 51.428 51.223 50.99 50.788 50.658 50.438 50.193 50.008 49.853 49.668 49.405 49.24 49.075 48.935 48.803 48.598 48.525 48.405 48.28 48.143 48.055 47.975 47.873 47.773 47.678 47.58 47.495 47.398 47.298 47.22 47.143 47.088 46.998 46.975 46.953 46.928 46.858 46.815 46.695 46.645 46.575 46.48 46.383 46.34 46.275 46.243 46.238 46.17 46.14 46.115 46.128 46.15 46.153 46.193 46.18 46.213 46.208 46.238 46.26 46.16 46.2 46.198 46.265 46.335 46.413 46.418 46.56 46.628 46.748 46.745 46.845 46.953 46.998 47.125 47.293 47.37 47.365 47.493 47.623 47.715 47.773 47.745 47.765 47.755 47.77 47.723 47.595 47.56 47.56 47.59 47.54 47.465 47.345 47.36 47.4 47.46 47.533 47.568 47.658 47.783 47.715 47.693 47.72 47.815 47.778 47.73 47.673 47.518 47.235 47.098 47.08 46.995 46.895 46.695 46.525 46.4 46.305 46.188 46.048 45.898 45.77 45.66 45.51 45.445 45.435 45.348 45.213 45.135 45.113 45.06 44.985 44.93 44.8 44.703 44.803 44.92 44.953 45.06 45.128 45.165 45.21 45.293 45.353 45.395 45.428 45.468 45.535 45.588 45.645 45.63 45.575 45.485 45.455 45.398 45.355 45.255 45.183 45.078 44.915 44.808 44.743 44.638 44.58 44.445 44.368 44.283 44.248 44.16 44.098 43.9 43.73 43.605 43.433 43.173 43.023 42.83 42.563 42.4 42.245 42.15 42.153 42.1 42.025 42.153 42.175 42.178 42.018 41.565 41.345 41.518 41.358 41.23 41.16 41.128 41.055 41.03 40.98 40.918 40.83 40.76 40.618 40.643 40.565 40.46 40.453 40.425 40.428 40.385 40.388 40.413 40.43 40.428 40.453 40.46 40.535 40.558 40.58 40.523 40.493 40.49 40.5 40.468 40.443 40.415 40.465 40.508 40.438 40.48 40.485 39.758 40.025 40.46 40.658 40.935 41.19 41.198 41.295 41.57 41.848 41.923 41.903 41.998 42.165 42.245 42.258 42.113 41.988 42.013 42.013 41.938 41.875 41.795 41.78 41.773 41.74 41.74 41.725 41.693 41.69 41.69 41.703 41.708 41.748 41.758 41.805 41.825 41.828 41.868 41.87 41.95 41.973 42.035 42.085 42.16 42.265 42.31 42.388 42.475 42.543 42.63 42.72 42.813 42.903 42.995 43.053 43.135 43.23 43.323 43.37 43.413 43.46 43.48 43.578 43.658 43.718 43.695 43.685 43.698 43.678 43.623 43.598 43.568 43.48 43.418 43.348 43.248 43.165 43.093 42.998 42.885 42.8 42.678 42.618 42.495 42.383 42.268 42.173 42.085 41.958 41.815 41.728 41.58 41.45 41.333 41.23 41.14 40.96 40.888 40.755 40.648 40.558 40.503 40.44 40.355 40.335 40.278 40.24 40.203 40.153 40.148 40.133 40.14 40.138 40.143 40.158 40.125 40.13 40.158 40.178 40.188 40.19 40.163 40.128 40.098 40.09 40.04 40.015 39.995 39.97 39.965 39.945 39.943 39.92 39.878 39.858 39.83 39.778 39.758 39.728 39.703 39.673 39.665 39.638 39.615 39.605 39.593 39.55 39.528 39.48 39.47 39.423 39.37 39.313 39.198 39.128 39.075 39.003 38.923 38.818 38.73 38.68 38.6 38.53 38.54 38.328 38.248 38.395 38.675 38.683 38.753 38.838 38.8 38.82 38.855 38.893 38.955 39.008 38.948 38.973 39.01 38.978 38.988 38.995 39.01 39.01 39.06 39.078 39.065 39.133 39.14 39.145 39.148 39.195 39.19 39.128 39.088 39.08 39.01 39.03 39.16 39.155 39.123 39.153 39.16 39.155 39.133 39.08
52.683 52.553 52.368 52.213 52.065 51.913 51.743 51.538 51.318 51.103 50.89 50.738 50.5 50.298 50.113 49.948 49.76 49.53 49.335 49.165 49.038 48.918 48.753 48.595 48.498 48.423 48.305 48.168 48.058 47.958 47.87 47.765 47.69 47.588 47.48 47.393 47.315 47.24 47.153 47.12 47.098 47.055 47.02 46.93 46.873 46.785 46.723 46.653 46.563 46.503 46.443 46.38 46.325 46.278 46.24 46.193 46.185 46.208 46.225 46.225 46.215 46.253 46.245 46.135 46.068 46.15 46.175 46.175 46.215 46.345 46.388 46.388 46.423 46.633 46.728 46.708 46.74 46.823 46.92 46.99 47.195 47.365 47.39 47.343 47.425 47.55 47.623 47.755 47.788 47.803 47.728 47.623 47.63 47.608 47.545 47.5 47.46 47.508 47.54 47.413 47.405 47.358 47.41 47.423 47.488 47.653 47.715 47.67 47.658 47.635 47.665 47.735 47.723 47.555 47.418 47.25 47.155 47.045 46.885 46.778 46.68 46.513 46.338 46.198 46.138 46.028 45.928 45.853 45.695 45.618 45.563 45.538 45.465 45.37 45.285 45.17 45.108 45.043 44.933 44.83 44.793 44.92 44.955 44.98 45.068 45.108 45.173 45.208 45.305 45.355 45.445 45.543 45.578 45.625 45.673 45.733 45.728 45.693 45.645 45.575 45.503 45.45 45.413 45.28 45.153 44.988 44.865 44.8 44.71 44.633 44.54 44.43 44.348 44.253 44.138 44.115 44.023 43.863 43.718 43.548 43.35 43.148 42.938 42.743 42.513 42.278 42.025 41.738 41.693 41.71 41.73 41.735 41.765 41.638 41.373 41.195 41.373 41.273 41.153 41.103 41.065 41.008 40.988 40.94 40.873 40.815 40.678 40.64 40.638 40.56 40.458 40.44 40.408 40.383 40.36 40.388 40.433 40.41 40.28 40.443 40.465 40.483 40.47 40.508 40.52 40.535 40.56 40.585 40.538 40.475 40.46 40.488 40.528 40.463 40.478 40.443 39.663 40.085 40.625 40.808 41.105 41.378 41.66 41.57 41.54 41.778 41.905 41.968 42.095 42.21 42.285 42.223 42.083 41.968 42.035 41.97 41.9 41.84 41.798 41.763 41.748 41.743 41.72 41.688 41.648 41.648 41.64 41.665 41.66 41.668 41.718 41.738 41.75 41.77 41.775 41.775 41.83 41.87 41.925 41.975 42.085 42.15 42.208 42.308 42.393 42.473 42.558 42.66 42.75 42.835 42.913 43.005 43.078 43.14 43.258 43.305 43.323 43.378 43.425 43.538 43.608 43.648 43.625 43.635 43.64 43.625 43.623 43.563 43.518 43.463 43.408 43.318 43.2 43.145 43.09 42.99 42.883 42.815 42.693 42.59 42.533 42.41 42.278 42.18 42.06 41.94 41.838 41.705 41.585 41.485 41.345 41.25 41.133 40.953 40.853 40.733 40.628 40.545 40.453 40.39 40.333 40.31 40.253 40.243 40.215 40.175 40.163 40.16 40.163 40.14 40.148 40.153 40.18 40.215 40.195 40.213 40.23 40.245 40.233 40.203 40.168 40.12 40.075 40.068 40.048 40.058 40.053 40.03 40.043 39.968 39.948 39.9 39.855 39.795 39.76 39.748 39.73 39.688 39.683 39.66 39.655 39.615 39.605 39.583 39.57 39.53 39.505 39.455 39.4 39.345 39.26 39.173 39.103 39.038 38.938 38.86 38.785 38.725 38.64 38.553 38.493 38.398 38.28 38.395 38.613 38.653 38.735 38.79 38.78 38.843 38.863 38.838 38.855 38.935 38.973 39.008 39 38.98 39.055 39.025 38.983 39.01 39.015 39.073 39.095 39.128 39.145 39.178 39.135 39.148 39.14 39.093 39.073 39.065 39.045 39.095 39.188 39.233 39.17 39.17 39.12 39.168 39.205 39.153
52.808 52.635 52.453 52.298 52.18 52.028 51.855 51.653 51.453 51.223 51.015 50.813 50.618 50.42 50.218 50.035 49.88 49.675 49.475 49.293 49.148 49.01 48.848 48.728 48.628 48.513 48.4 48.283 48.198 48.105 47.988 47.9 47.795 47.705 47.633 47.515 47.425 47.355 47.255 47.248 47.188 47.15 47.115 47.02 46.953 46.863 46.795 46.72 46.645 46.598 46.51 46.475 46.41 46.343 46.318 46.328 46.29 46.295 46.303 46.28 46.29 46.37 46.218 46.075 46.033 46.12 46.188 46.215 46.305 46.358 46.363 46.428 46.49 46.58 46.72 46.723 46.77 46.835 46.99 47.055 47.163 47.295 47.343 47.378 47.418 47.53 47.648 47.748 47.77 47.738 47.693 47.623 47.595 47.608 47.63 47.663 47.47 47.425 47.488 47.49 47.425 47.415 47.355 47.345 47.508 47.603 47.66 47.635 47.628 47.633 47.588 47.558 47.605 47.478 47.433 47.325 47.168 47.055 46.86 46.77 46.828 46.543 46.315 46.24 46.138 46.038 45.978 45.903 45.81 45.703 45.66 45.608 45.543 45.49 45.393 45.273 45.135 45.023 44.928 44.868 44.913 44.935 44.958 45.038 45.088 45.158 45.235 45.31 45.343 45.41 45.498 45.615 45.673 45.723 45.748 45.765 45.808 45.828 45.763 45.673 45.595 45.55 45.47 45.363 45.263 45.148 44.98 44.87 44.765 44.72 44.623 44.573 44.485 44.368 44.273 44.19 44.06 43.905 43.758 43.59 43.43 43.195 42.975 42.81 42.575 42.325 42.033 41.735 41.823 41.875 41.833 41.83 41.73 41.558 41.333 41.09 40.993 40.983 40.953 40.998 40.975 40.978 40.928 40.89 40.855 40.823 40.665 40.613 40.655 40.563 40.455 40.48 40.408 40.335 40.34 40.39 40.405 40.388 40.4 40.435 40.455 40.478 40.438 40.473 40.525 40.545 40.563 40.62 40.61 40.535 40.525 40.483 40.478 40.415 40.44 40.143 39.52 40.41 40.76 40.958 41.243 41.37 41.673 41.838 41.72 41.66 41.848 42.003 42.153 42.278 42.255 42.155 42.043 41.983 42.02 41.963 41.89 41.81 41.8 41.763 41.76 41.748 41.723 41.675 41.635 41.638 41.608 41.625 41.625 41.603 41.62 41.658 41.64 41.658 41.693 41.713 41.715 41.783 41.828 41.893 41.968 42.058 42.125 42.203 42.3 42.368 42.46 42.588 42.638 42.723 42.81 42.893 42.955 43.055 43.183 43.218 43.273 43.308 43.38 43.5 43.555 43.578 43.575 43.563 43.568 43.575 43.54 43.513 43.47 43.423 43.348 43.278 43.213 43.13 43.055 42.945 42.845 42.77 42.645 42.565 42.488 42.363 42.238 42.15 42.053 41.94 41.8 41.705 41.588 41.458 41.333 41.218 41.075 40.958 40.838 40.695 40.61 40.543 40.478 40.403 40.343 40.295 40.24 40.245 40.22 40.22 40.213 40.193 40.173 40.165 40.173 40.183 40.193 40.23 40.245 40.273 40.263 40.285 40.283 40.243 40.218 40.168 40.143 40.143 40.11 40.12 40.105 40.06 40.035 40.005 39.995 39.963 39.903 39.853 39.828 39.793 39.77 39.725 39.718 39.685 39.685 39.685 39.643 39.61 39.565 39.548 39.53 39.455 39.393 39.353 39.245 39.155 39.1 39.053 38.975 38.898 38.825 38.723 38.65 38.57 38.52 38.438 38.343 38.343 38.54 38.62 38.698 38.773 38.743 38.81 38.788 38.848 38.88 38.865 38.963 38.983 38.985 39.005 39.03 38.983 39.02 39.085 39.08 39.06 39.138 39.138 39.13 39.168 39.173 39.14 39.128 39.15 39.11 39.188 39.183 39.148 39.18 39.21 39.17 39.178 39.165 39.18 39.208 39.21
52.898 52.718 52.573 52.428 52.233 52.085 51.925 51.785 51.563 51.335 51.123 50.935 50.713 50.515 50.358 50.173 50.023 49.773 49.573 49.4 49.248 49.135 48.94 48.848 48.76 48.643 48.53 48.373 48.27 48.195 48.073 48.008 47.91 47.82 47.708 47.583 47.52 47.423 47.373 47.285 47.243 47.215 47.195 47.14 47.048 46.938 46.873 46.8 46.73 46.685 46.633 46.54 46.508 46.455 46.413 46.415 46.393 46.365 46.393 46.398 46.42 46.463 46.32 46.15 46.145 46.28 46.283 46.208 46.335 46.368 46.393 46.51 46.633 46.613 46.653 46.758 46.835 46.903 46.99 47.07 47.118 47.205 47.34 47.368 47.44 47.455 47.563 47.658 47.623 47.675 47.683 47.7 47.745 47.685 47.598 47.573 47.453 47.443 47.448 47.483 47.418 47.348 47.27 47.318 47.445 47.563 47.65 47.65 47.625 47.573 47.605 47.565 47.475 47.42 47.295 47.213 47.108 47.093 46.843 46.733 46.673 46.515 46.385 46.275 46.178 46.128 45.98 45.89 45.87 45.78 45.678 45.578 45.565 45.54 45.548 45.408 45.175 45.025 44.973 44.93 44.905 44.915 44.998 45.103 45.158 45.21 45.283 45.38 45.42 45.503 45.57 45.658 45.723 45.773 45.8 45.85 45.84 45.828 45.82 45.788 45.725 45.608 45.53 45.4 45.313 45.233 45.09 44.953 44.863 44.77 44.673 44.61 44.518 44.428 44.37 44.26 44.103 43.91 43.745 43.583 43.398 43.233 42.953 42.77 42.578 42.32 41.85 41.68 41.865 41.855 41.808 41.795 41.718 41.59 41.553 41.423 41.238 41.118 40.968 40.923 40.823 40.79 40.81 40.768 40.77 40.788 40.725 40.65 40.74 40.57 40.478 40.453 40.365 40.343 40.358 40.38 40.35 40.4 40.368 40.333 40.425 40.445 40.46 40.48 40.553 40.503 40.533 40.613 40.59 40.53 40.533 40.58 40.463 40.405 40.408 39.955 39.768 40.508 40.815 41.103 41.353 41.518 41.668 41.853 41.888 41.825 41.92 42.103 42.243 42.263 42.25 42.125 42.015 42.018 41.993 41.925 41.883 41.8 41.803 41.763 41.743 41.725 41.698 41.66 41.633 41.6 41.608 41.598 41.563 41.57 41.575 41.595 41.59 41.593 41.623 41.645 41.648 41.675 41.72 41.768 41.86 41.92 42.018 42.09 42.188 42.303 42.398 42.498 42.595 42.63 42.73 42.785 42.898 42.988 43.063 43.115 43.143 43.2 43.298 43.403 43.458 43.5 43.538 43.523 43.508 43.525 43.51 43.465 43.433 43.36 43.29 43.235 43.188 43.105 43.04 42.903 42.823 42.735 42.653 42.518 42.43 42.345 42.228 42.145 42.048 41.933 41.77 41.66 41.548 41.46 41.31 41.205 41.065 40.953 40.808 40.705 40.62 40.57 40.46 40.423 40.383 40.33 40.285 40.3 40.245 40.243 40.245 40.225 40.225 40.218 40.223 40.21 40.235 40.248 40.263 40.278 40.288 40.313 40.295 40.278 40.27 40.205 40.2 40.19 40.163 40.155 40.168 40.128 40.1 40.068 40.045 40.015 39.973 39.89 39.873 39.84 39.83 39.788 39.768 39.753 39.725 39.723 39.678 39.64 39.615 39.555 39.533 39.485 39.438 39.363 39.275 39.2 39.143 39.085 38.998 38.925 38.828 38.743 38.69 38.573 38.52 38.483 38.403 38.313 38.533 38.598 38.653 38.693 38.703 38.625 38.673 38.823 38.768 38.718 38.905 38.938 38.94 38.975 39.008 39.013 39.048 39.115 39.115 39.095 39.18 39.178 39.143 39.145 39.213 39.195 39.133 39.16 39.165 39.19 39.175 39.188 39.2 39.19 39.185 39.22 39.18 39.175 39.175 39.135
52.98 52.825 52.643 52.505 52.345 52.21 52.05 51.823 51.643 51.435 51.218 51.043 50.85 50.673 50.455 50.283 50.145 49.93 49.725 49.518 49.365 49.26 49.07 48.965 48.863 48.75 48.618 48.498 48.403 48.303 48.21 48.093 47.995 47.898 47.833 47.713 47.608 47.505 47.453 47.408 47.345 47.295 47.22 47.178 47.133 47.053 46.98 46.898 46.833 46.8 46.695 46.63 46.595 46.603 46.555 46.518 46.525 46.473 46.455 46.465 46.568 46.57 46.513 46.453 46.423 46.433 46.335 46.253 46.355 46.463 46.575 46.623 46.67 46.74 46.72 46.735 46.795 46.93 46.98 47.025 47.043 47.148 47.3 47.355 47.43 47.435 47.448 47.553 47.608 47.69 47.668 47.71 47.73 47.655 47.585 47.548 47.418 47.378 47.388 47.38 47.27 47.243 47.175 47.22 47.43 47.448 47.48 47.583 47.585 47.51 47.488 47.463 47.38 47.325 47.245 47.153 47.023 46.77 46.708 46.648 46.56 46.42 46.298 46.305 46.28 46.183 45.988 45.903 45.91 45.92 45.795 45.663 45.62 45.578 45.538 45.403 45.195 45.135 45.08 44.995 44.938 44.968 45.053 45.058 45.143 45.18 45.308 45.445 45.485 45.573 45.64 45.708 45.74 45.81 45.85 45.878 45.89 45.89 45.903 45.82 45.773 45.675 45.605 45.5 45.34 45.253 45.098 45.008 44.928 44.818 44.745 44.638 44.585 44.525 44.423 44.315 44.158 43.965 43.755 43.593 43.368 43.148 42.93 42.748 42.583 42.283 41.75 41.625 41.808 41.758 41.77 41.705 41.665 41.505 41.39 41.353 41.265 41.203 41.153 41.078 40.95 40.885 40.848 40.753 40.715 40.69 40.71 40.555 40.58 40.498 40.53 40.468 40.48 40.433 40.46 40.418 40.403 40.435 40.363 40.38 40.383 40.41 40.45 40.44 40.455 40.453 40.518 40.573 40.59 40.58 40.528 40.51 40.415 40.39 40.325 39.748 40.015 40.56 40.848 41.18 41.46 41.608 41.695 41.773 41.88 41.955 42.05 42.048 42.083 42.253 42.145 42.058 42.01 42.038 41.963 41.918 41.898 41.845 41.82 41.778 41.77 41.72 41.685 41.645 41.62 41.553 41.553 41.545 41.518 41.538 41.535 41.543 41.54 41.545 41.545 41.565 41.558 41.6 41.618 41.68 41.763 41.838 41.898 42.008 42.083 42.193 42.318 42.368 42.458 42.558 42.668 42.73 42.84 42.943 43.023 43.053 43.118 43.16 43.288 43.32 43.415 43.408 43.45 43.468 43.465 43.453 43.455 43.428 43.39 43.35 43.278 43.19 43.128 43.048 42.968 42.87 42.778 42.7 42.613 42.525 42.425 42.293 42.205 42.075 42.013 41.888 41.768 41.663 41.523 41.405 41.288 41.16 41.038 40.905 40.793 40.708 40.605 40.535 40.483 40.423 40.383 40.375 40.355 40.31 40.293 40.275 40.278 40.225 40.263 40.255 40.263 40.27 40.273 40.28 40.29 40.3 40.313 40.318 40.325 40.3 40.295 40.26 40.21 40.198 40.175 40.19 40.175 40.173 40.17 40.14 40.108 40.065 40.048 40 39.953 39.893 39.87 39.835 39.83 39.823 39.798 39.773 39.745 39.725 39.683 39.62 39.59 39.518 39.43 39.355 39.285 39.225 39.185 39.09 38.985 38.925 38.823 38.733 38.68 38.585 38.555 38.513 38.403 38.268 38.438 38.58 38.615 38.648 38.673 38.67 38.778 38.785 38.74 38.803 38.815 38.87 38.925 38.983 39.015 39.015 38.998 38.99 39.033 39.095 39.2 39.168 39.168 39.163 39.233 39.223 39.21 39.213 39.203 39.185 39.245 39.323 39.26 39.215 39.185 39.223 39.195 39.203 39.188 39.113
53.083 52.895 52.728 52.563 52.44 52.288 52.135 51.96 51.77 51.535 51.358 51.145 50.968 50.773 50.595 50.398 50.263 50.065 49.888 49.673 49.523 49.39 49.238 49.085 48.99 48.88 48.74 48.598 48.495 48.405 48.29 48.175 48.118 48.025 47.913 47.8 47.713 47.623 47.54 47.503 47.415 47.39 47.333 47.278 47.188 47.138 47.073 47.01 46.935 46.85 46.785 46.723 46.703 46.708 46.663 46.653 46.633 46.59 46.548 46.583 46.673 46.675 46.595 46.57 46.535 46.485 46.388 46.355 46.338 46.475 46.635 46.7 46.718 46.778 46.798 46.748 46.718 46.91 46.978 46.988 46.983 47.115 47.205 47.275 47.353 47.378 47.383 47.48 47.54 47.54 47.548 47.658 47.608 47.495 47.483 47.423 47.428 47.358 47.338 47.238 47.213 47.255 47.143 47.143 47.318 47.348 47.42 47.623 47.605 47.49 47.388 47.383 47.32 47.3 47.235 47.15 47.03 46.808 46.67 46.623 46.53 46.298 46.225 46.288 46.218 46.125 46.085 46.01 45.988 45.925 45.89 45.793 45.743 45.623 45.52 45.403 45.408 45.32 45.175 45.088 45.028 45.135 45.153 45.233 45.3 45.358 45.465 45.553 45.623 45.663 45.718 45.76 45.838 45.898 45.928 45.945 45.938 45.938 45.918 45.88 45.818 45.74 45.67 45.55 45.438 45.323 45.178 45.073 44.985 44.943 44.795 44.638 44.615 44.55 44.45 44.355 44.188 44.02 43.795 43.578 43.353 43.093 42.865 42.665 42.495 42.208 41.743 41.62 41.763 41.733 41.68 41.655 41.57 41.36 41.265 41.23 41.21 41.158 41.115 41.088 40.968 40.868 40.833 40.755 40.77 40.745 40.653 40.46 40.398 40.31 40.28 40.27 40.365 40.353 40.433 40.465 40.378 40.45 40.445 40.41 40.39 40.375 40.403 40.41 40.408 40.43 40.485 40.528 40.58 40.568 40.483 40.408 40.398 40.283 39.978 39.893 40.41 40.59 40.81 41.115 41.415 41.588 41.68 41.823 41.875 41.958 42.083 42.123 42.16 42.263 42.083 42.075 42.05 42.043 41.965 41.92 41.885 41.86 41.833 41.78 41.75 41.72 41.685 41.68 41.648 41.585 41.56 41.518 41.525 41.498 41.495 41.495 41.483 41.468 41.485 41.508 41.493 41.518 41.543 41.655 41.693 41.753 41.83 41.935 42.033 42.153 42.238 42.33 42.41 42.485 42.605 42.675 42.77 42.865 42.928 42.983 43.05 43.145 43.255 43.313 43.35 43.41 43.405 43.405 43.413 43.408 43.408 43.38 43.325 43.268 43.218 43.18 43.098 43.023 42.92 42.843 42.74 42.655 42.58 42.488 42.403 42.28 42.18 42.113 41.97 41.845 41.75 41.653 41.533 41.398 41.273 41.138 41.02 40.905 40.77 40.708 40.59 40.51 40.453 40.418 40.415 40.393 40.355 40.338 40.303 40.315 40.298 40.275 40.29 40.27 40.275 40.268 40.29 40.27 40.303 40.323 40.33 40.34 40.34 40.323 40.31 40.278 40.253 40.22 40.2 40.205 40.19 40.2 40.16 40.125 40.108 40.063 40.068 40.05 39.998 39.97 39.955 39.903 39.893 39.863 39.84 39.818 39.798 39.768 39.695 39.653 39.613 39.54 39.483 39.385 39.315 39.26 39.193 39.123 39.013 38.955 38.83 38.755 38.71 38.645 38.64 38.56 38.338 38.235 38.305 38.535 38.66 38.683 38.68 38.68 38.718 38.73 38.723 38.763 38.77 38.81 38.905 38.99 39.018 38.988 39.03 39.018 39.075 39.113 39.188 39.193 39.168 39.228 39.275 39.28 39.268 39.203 39.238 39.265 39.315 39.293 39.235 39.203 39.2 39.2 39.173 39.123 39.188 39.163
53.12 52.988 52.81 52.64 52.505 52.37 52.208 52.063 51.888 51.658 51.463 51.268 51.053 50.875 50.695 50.538 50.385 50.193 49.963 49.765 49.615 49.5 49.445 49.225 49.105 48.98 48.868 48.71 48.613 48.508 48.385 48.288 48.21 48.093 48.015 47.89 47.803 47.695 47.63 47.58 47.54 47.435 47.408 47.318 47.253 47.213 47.185 47.11 47.04 46.948 46.895 46.82 46.8 46.798 46.78 46.778 46.738 46.705 46.643 46.608 46.703 46.74 46.653 46.59 46.535 46.485 46.395 46.383 46.385 46.458 46.51 46.615 46.713 46.713 46.745 46.77 46.785 46.795 46.855 46.985 47.053 47.048 47.133 47.178 47.273 47.35 47.385 47.435 47.493 47.53 47.543 47.508 47.425 47.395 47.41 47.373 47.35 47.213 47.2 47.128 47.118 47.13 47.085 47.075 47.188 47.318 47.4 47.56 47.513 47.37 47.32 47.338 47.268 47.188 47.163 47.16 47.045 46.923 46.695 46.643 46.525 46.365 46.275 46.253 46.223 46.22 46.15 46.095 46.08 45.988 45.898 45.858 45.81 45.68 45.598 45.613 45.61 45.49 45.39 45.31 45.26 45.323 45.355 45.52 45.59 45.573 45.66 45.723 45.755 45.778 45.828 45.888 45.89 45.92 45.913 45.963 46.013 45.965 45.923 45.868 45.825 45.75 45.673 45.555 45.41 45.315 45.203 45.128 45.055 44.975 44.818 44.673 44.583 44.495 44.43 44.31 44.203 44.053 43.858 43.613 43.363 43.085 42.828 42.638 42.355 42.13 41.635 41.703 41.698 41.618 41.53 41.443 41.308 41.248 41.175 41.183 41.153 41.128 41.07 40.998 40.935 40.86 40.773 40.735 40.71 40.638 40.455 40.43 40.513 40.518 40.445 40.33 40.345 40.338 40.33 40.325 40.32 40.258 40.288 40.365 40.375 40.405 40.418 40.348 40.445 40.47 40.488 40.488 40.498 40.468 40.4 40.375 40.318 39.803 39.84 40.325 40.47 40.558 40.788 41.07 41.388 41.565 41.69 41.858 41.875 41.923 42.085 42.298 42.323 42.25 42.103 42.068 42.065 42.04 41.993 41.923 41.855 41.863 41.815 41.778 41.733 41.698 41.678 41.63 41.643 41.585 41.538 41.52 41.455 41.44 41.435 41.453 41.415 41.415 41.38 41.42 41.418 41.443 41.465 41.52 41.62 41.71 41.775 41.895 41.968 42.058 42.163 42.268 42.36 42.448 42.548 42.633 42.74 42.788 42.873 42.928 42.978 43.1 43.193 43.243 43.253 43.313 43.358 43.36 43.385 43.355 43.328 43.285 43.285 43.23 43.193 43.11 43.045 42.965 42.868 42.78 42.683 42.608 42.548 42.443 42.37 42.255 42.153 42.08 41.975 41.84 41.718 41.623 41.48 41.365 41.248 41.143 41.035 40.903 40.793 40.72 40.605 40.533 40.47 40.433 40.405 40.365 40.33 40.318 40.338 40.335 40.31 40.325 40.31 40.318 40.29 40.288 40.293 40.268 40.298 40.293 40.303 40.35 40.348 40.33 40.308 40.268 40.265 40.248 40.25 40.223 40.235 40.24 40.195 40.173 40.15 40.093 40.048 40.043 40.008 39.993 39.965 39.92 39.908 39.895 39.873 39.833 39.818 39.773 39.758 39.69 39.635 39.573 39.525 39.428 39.368 39.27 39.18 39.088 39.008 38.93 38.828 38.765 38.708 38.628 38.61 38.583 38.373 38.34 38.295 38.45 38.625 38.665 38.62 38.618 38.63 38.63 38.685 38.755 38.785 38.85 38.885 38.968 38.97 39.023 39.035 39.073 39.14 39.165 39.19 39.218 39.203 39.218 39.293 39.298 39.345 39.25 39.25 39.16 39.2 39.198 39.175 39.145 39.183 39.265 39.205 39.163 39.185 39.183
53.183 53.06 52.89 52.74 52.6 52.455 52.328 52.163 51.973 51.763 51.548 51.363 51.213 50.995 50.8 50.633 50.465 50.305 50.083 49.885 49.743 49.625 49.465 49.348 49.22 49.083 48.968 48.84 48.738 48.65 48.54 48.39 48.355 48.215 48.125 48.003 47.928 47.823 47.733 47.658 47.625 47.56 47.488 47.44 47.37 47.338 47.293 47.205 47.108 47.038 46.98 46.948 46.94 46.92 46.888 46.868 46.838 46.845 46.773 46.688 46.683 46.725 46.708 46.64 46.553 46.47 46.445 46.445 46.465 46.503 46.45 46.5 46.603 46.715 46.78 46.833 46.883 46.888 46.85 46.925 47.025 47.11 47.19 47.208 47.258 47.345 47.355 47.445 47.533 47.48 47.418 47.34 47.305 47.368 47.29 47.248 47.148 47.135 47.048 47.035 47.06 47.053 47.008 47.03 47.103 47.183 47.208 47.458 47.328 47.088 47.133 47.26 47.215 47.098 47.025 47.03 46.943 46.855 46.7 46.585 46.505 46.42 46.258 46.15 46.223 46.243 46.258 46.183 46.125 46.055 45.953 45.88 45.848 45.818 45.81 45.833 45.77 45.658 45.65 45.67 45.62 45.568 45.633 45.758 45.753 45.768 45.843 45.878 45.928 45.89 45.918 46.005 45.948 45.933 45.91 45.938 45.965 45.948 45.91 45.853 45.805 45.793 45.688 45.538 45.41 45.325 45.213 45.12 45.013 44.953 44.853 44.698 44.573 44.47 44.393 44.28 44.14 44.04 43.87 43.585 43.325 43.105 42.84 42.595 42.358 42.018 41.565 41.498 41.585 41.52 41.395 41.28 41.2 41.158 41.165 41.155 41.165 41.128 41.048 40.978 40.91 40.83 40.775 40.733 40.68 40.6 40.44 40.47 40.5 40.45 40.435 40.388 40.413 40.443 40.45 40.408 40.388 40.38 40.223 40.14 40.145 40.19 40.208 40.208 40.295 40.405 40.505 40.503 40.485 40.458 40.403 40.32 40.035 39.76 40.305 40.468 40.448 40.578 40.825 41.108 41.33 41.528 41.67 41.815 41.843 41.973 42.13 42.25 42.268 42.248 42.108 42.08 42.085 42.015 41.975 41.94 41.945 41.89 41.825 41.8 41.795 41.72 41.69 41.623 41.62 41.543 41.525 41.478 41.44 41.395 41.405 41.393 41.378 41.385 41.363 41.358 41.368 41.42 41.438 41.503 41.61 41.705 41.74 41.788 41.925 42.04 42.123 42.223 42.303 42.395 42.503 42.588 42.66 42.725 42.783 42.858 42.953 43.098 43.158 43.19 43.24 43.253 43.305 43.3 43.328 43.293 43.31 43.268 43.25 43.15 43.115 43.06 43.005 42.933 42.873 42.773 42.703 42.568 42.493 42.405 42.298 42.185 42.115 42.015 41.888 41.81 41.715 41.575 41.488 41.373 41.258 41.135 41 40.888 40.793 40.71 40.628 40.518 40.468 40.415 40.393 40.37 40.363 40.328 40.328 40.318 40.335 40.288 40.285 40.28 40.268 40.288 40.283 40.273 40.293 40.305 40.348 40.37 40.338 40.343 40.313 40.265 40.26 40.263 40.275 40.238 40.263 40.253 40.208 40.183 40.153 40.128 40.068 40.05 40.038 39.995 39.965 39.943 39.925 39.913 39.893 39.868 39.838 39.795 39.763 39.738 39.65 39.58 39.503 39.43 39.375 39.283 39.2 39.128 39.023 38.938 38.863 38.783 38.728 38.645 38.65 38.513 38.435 38.333 38.278 38.36 38.605 38.598 38.595 38.665 38.648 38.635 38.665 38.743 38.788 38.855 38.885 38.925 38.953 39.045 39.035 39.095 39.16 39.198 39.203 39.263 39.28 39.278 39.318 39.343 39.325 39.34 39.375 39.273 39.2 39.173 39.16 39.13 39.15 39.223 39.213 39.158 39.213 39.188
53.235 53.09 52.92 52.798 52.625 52.523 52.395 52.215 52.07 51.873 51.63 51.423 51.285 51.115 50.925 50.735 50.593 50.435 50.195 50.008 49.868 49.75 49.588 49.47 49.363 49.228 49.088 48.97 48.825 48.738 48.643 48.53 48.458 48.353 48.228 48.118 48.005 47.918 47.838 47.765 47.715 47.635 47.58 47.523 47.483 47.433 47.353 47.275 47.193 47.113 47.095 47.065 47.063 47.025 47 47.008 47.035 46.905 46.848 46.808 46.715 46.673 46.718 46.67 46.59 46.488 46.478 46.525 46.555 46.533 46.483 46.43 46.455 46.618 46.813 46.88 47.005 47.015 46.955 46.885 46.993 47.068 47.16 47.173 47.195 47.253 47.283 47.318 47.405 47.415 47.388 47.308 47.335 47.323 47.193 47.118 47.05 47.043 46.95 46.878 46.893 46.898 46.95 46.983 47.02 47.068 47.085 47.21 47.245 47.158 47.113 47.16 47.105 47.01 46.93 46.88 46.798 46.753 46.673 46.543 46.403 46.243 46.173 46.195 46.233 46.305 46.303 46.235 46.138 46.068 45.993 45.97 45.998 46.075 46.048 46.048 45.99 45.955 46.003 46.013 45.908 45.835 45.968 45.94 45.923 46.013 46.068 46.09 46.14 46.148 46.13 46.118 46.053 46.025 46.003 45.955 45.935 45.913 45.89 45.823 45.82 45.8 45.66 45.553 45.458 45.398 45.26 45.133 45.038 44.96 44.868 44.733 44.593 44.47 44.393 44.318 44.09 43.985 43.793 43.533 43.288 43.055 42.818 42.51 42.25 41.923 41.51 41.473 41.455 41.355 41.273 41.21 41.14 41.18 41.16 41.105 41.093 41.075 41 40.945 40.89 40.843 40.77 40.7 40.67 40.593 40.51 40.54 40.503 40.448 40.435 40.413 40.37 40.403 40.423 40.43 40.413 40.428 40.305 40.283 40.363 40.3 40.223 40.218 40.205 40.168 40.195 40.28 40.145 40.213 40.165 40.043 39.74 40.053 40.408 40.41 40.373 40.555 40.8 41.135 41.348 41.508 41.63 41.713 41.805 41.973 42.175 42.278 42.3 42.218 42.108 42.07 42.08 42.013 42.01 41.96 41.968 41.883 41.863 41.853 41.81 41.778 41.73 41.66 41.625 41.573 41.525 41.485 41.448 41.413 41.41 41.37 41.365 41.313 41.333 41.32 41.31 41.36 41.405 41.468 41.548 41.628 41.713 41.795 41.898 41.985 42.095 42.205 42.28 42.375 42.49 42.548 42.6 42.675 42.733 42.798 42.913 43.048 43.095 43.163 43.233 43.23 43.283 43.278 43.293 43.258 43.26 43.255 43.188 43.118 43.07 43.02 42.975 42.883 42.82 42.713 42.648 42.563 42.475 42.38 42.313 42.19 42.113 41.995 41.875 41.778 41.67 41.58 41.45 41.323 41.253 41.118 41.013 40.888 40.77 40.67 40.605 40.538 40.475 40.45 40.418 40.408 40.393 40.335 40.353 40.328 40.295 40.25 40.25 40.26 40.288 40.295 40.268 40.273 40.285 40.303 40.335 40.368 40.363 40.353 40.33 40.338 40.305 40.263 40.26 40.25 40.26 40.265 40.24 40.19 40.175 40.108 40.088 40.053 40.018 39.99 39.988 39.95 39.933 39.908 39.908 39.895 39.85 39.83 39.753 39.73 39.663 39.605 39.52 39.453 39.395 39.293 39.205 39.118 39.01 38.935 38.845 38.77 38.758 38.653 38.653 38.48 38.41 38.35 38.193 38.33 38.608 38.653 38.603 38.64 38.635 38.633 38.548 38.668 38.638 38.845 38.915 38.98 38.993 39.098 39.11 39.108 39.138 39.215 39.198 39.26 39.3 39.3 39.298 39.343 39.338 39.29 39.34 39.31 39.285 39.215 39.238 39.26 39.273 39.258 39.223 39.23 39.18 39.173
