ncols 443
nrows 31
xllcorner    425012
yllcorner    487394
cellsize     2
NODATA_value -9999
-9999 -9999 -9999 -9999 -9999 -9999 -9999 -9999 -9999 -9999 -9999 -9999 -9999 -9999 -9999 -9999 -9999 -9999 -9999 -9999 -9999 -9999 -9999 -9999 -9999 -9999 -9999 -9999 -9999 -9999 -9999 -9999 -9999 -9999 -9999 -9999 -9999 -9999 -9999 -9999 -9999 -9999 -9999 -9999 -9999 -9999 -9999 -9999 -9999 -9999 -9999 -9999 -9999 -9999 -9999 -9999 -9999 -9999 -9999 -9999 -9999 -9999 -9999 -9999 -9999 -9999 -9999 -9999 -9999 -9999 -9999 -9999 -9999 59.248 59.206 59.238 59.238 59.211 59.191 59.176 59.103 59.083 59.021 58.956 58.931 59.006 59.086 59.073 58.931 58.803 58.831 58.901 58.953 59.023 59.048 59.191 59.366 59.378 59.278 59.231 59.136 59.048 58.861 58.748 58.753 58.658 58.448 58.308 58.248 58.236 58.218 58.233 58.173 58.116 58.028 58.016 57.963 57.961 57.888 57.828 57.756 57.703 57.693 57.656 57.648 57.658 57.676 57.751 57.851 57.936 58.026 58.176 58.316 58.468 58.578 58.776 58.923 59.136 59.318 59.531 59.781 59.986 60.248 60.456 60.648 60.896 61.093 61.308 61.483 61.651 61.846 62.013 62.118 62.156 62.168 62.266 62.588 62.841 62.843 62.861 62.893 62.931 63.093 63.113 63.158 63.073 63.061 63.008 62.968 62.968 62.963 62.938 62.893 62.846 62.801 62.773 62.781 62.736 62.693 62.663 62.598 62.526 62.521 62.508 62.403 62.343 62.266 62.141 62.098 62.018 61.958 61.821 61.758 61.591 61.468 61.393 61.328 61.186 61.108 61.023 60.898 60.848 60.783 60.666 60.601 60.538 60.441 60.361 60.353 60.326 60.233 60.193 60.103 59.993 59.933 59.836 59.753 59.686 59.611 59.526 59.488 59.431 59.363 59.316 59.213 59.171 59.133 59.036 59.063 59.011 58.921 58.911 58.888 58.768 58.786 58.776 58.718 58.688 58.646 58.693 58.566 58.553 58.453 58.413 58.358 58.266 58.186 58.203 58.121 58.113 58.083 58.088 58.086 57.981 57.971 57.918 57.898 57.843 57.786 57.766 57.733 57.668 57.558 57.601 57.573 57.546 57.513 57.453 57.481 57.533 57.536 57.531 57.473 57.651 57.606 57.546 57.518 57.518 57.486 57.481 57.481 57.443 57.456 57.461 57.358 57.326 57.358 57.336 57.208 57.206 57.116 57.071 56.921 56.938 56.803 56.771 56.653 56.566 56.508 56.336 56.331 56.216 56.101 56.088 55.908 55.823 55.728 55.578 55.478 55.356 55.266 55.116 54.961 54.833 54.633 54.641 54.573 54.496 54.278 53.706 53.331 53.198 53.121 53.061 53.016 52.993 52.966 52.943 52.951 52.961 52.921 52.956 53.026 53.058 53.086 53.096 53.091 53.186 53.246 53.356 53.418 53.506 53.568 53.613 53.703 53.79 53.86 53.953 54.04 54.125 54.18 54.225 54.31 54.423 54.513 54.575 54.61 54.623 54.645 54.668 54.703 54.703 54.695 54.733 54.76 54.773 54.795 54.81 54.803 54.84 54.818 54.8 54.745 54.665 54.588 54.508 54.448 54.305 54.153 53.953 53.758 53.558 53.4 53.295 52.858 52.455 52.325 52.19 52.085 51.965 51.84 51.71 51.625 51.5 51.37 51.28 51.165 51.075 51 50.935 50.89 50.825 50.775 50.748 50.693 50.638 50.598 50.538 50.54 50.538 50.585 50.615 50.623 50.65 50.66 50.673 50.693 50.69 50.69 50.685 50.63 50.565 50.463 50.39 50.328 50.275 50.235 50.2 50.123 50.068 50.02 49.973 49.938 49.935 49.918 49.923 49.955 50.013 50.048 50.058 50.055 50.065 50.06
-9999 -9999 -9999 -9999 -9999 -9999 -9999 -9999 -9999 -9999 -9999 -9999 -9999 -9999 -9999 -9999 -9999 -9999 -9999 -9999 -9999 -9999 -9999 -9999 -9999 -9999 -9999 -9999 -9999 -9999 -9999 -9999 -9999 -9999 -9999 -9999 -9999 -9999 -9999 -9999 -9999 -9999 -9999 -9999 -9999 -9999 -9999 -9999 -9999 -9999 -9999 -9999 -9999 -9999 -9999 -9999 -9999 -9999 -9999 -9999 -9999 -9999 -9999 -9999 -9999 -9999 -9999 -9999 -9999 -9999 -9999 -9999 -9999 -9999 59.316 59.363 59.318 59.353 59.326 59.288 59.266 59.203 59.138 59.068 59.051 59.106 59.163 59.166 59.063 58.976 58.883 58.973 59.066 59.138 59.211 59.331 59.418 59.298 59.221 59.196 59.056 58.848 58.666 58.491 58.473 58.368 58.286 58.263 58.228 58.213 58.223 58.223 58.173 58.073 58.028 57.988 57.928 57.876 57.853 57.813 57.751 57.666 57.646 57.646 57.638 57.588 57.598 57.676 57.743 57.881 57.958 58.116 58.248 58.376 58.523 58.696 58.863 59.013 59.241 59.443 59.673 59.908 60.148 60.361 60.541 60.771 60.948 61.178 61.383 61.561 61.743 61.901 62.033 62.078 62.098 62.156 62.391 62.666 62.726 62.781 62.766 62.843 63.118 63.078 63.081 63.068 63.043 62.986 62.981 62.976 62.933 62.921 62.896 62.828 62.821 62.836 62.798 62.743 62.736 62.688 62.623 62.601 62.556 62.501 62.466 62.366 62.266 62.211 62.148 62.056 61.951 61.873 61.768 61.618 61.543 61.436 61.293 61.236 61.123 60.996 60.943 60.863 60.756 60.713 60.626 60.488 60.431 60.406 60.328 60.296 60.276 60.218 60.076 60.041 59.966 59.856 59.798 59.688 59.591 59.556 59.501 59.451 59.398 59.298 59.248 59.183 59.088 59.096 59.056 58.948 58.956 58.916 58.833 58.818 58.806 58.751 58.793 58.808 58.701 58.681 58.663 58.648 58.476 58.413 58.351 58.253 58.218 58.223 58.153 58.146 58.098 58.128 58.101 58.003 58.001 57.951 57.941 57.861 57.836 57.813 57.761 57.686 57.611 57.626 57.613 57.613 57.553 57.476 57.548 57.573 57.593 57.593 57.498 57.636 57.608 57.558 57.551 57.533 57.511 57.508 57.518 57.486 57.506 57.508 57.423 57.366 57.418 57.416 57.336 57.266 57.176 57.121 57.001 57.006 56.903 56.836 56.741 56.661 56.596 56.416 56.418 56.296 56.186 56.193 56.026 55.883 55.778 55.673 55.603 55.433 55.378 55.188 55.053 54.938 54.758 54.696 54.683 54.603 54.436 53.871 53.438 53.321 53.233 53.158 53.108 53.111 53.088 53.056 53.053 53.043 52.998 53.033 53.098 53.126 53.151 53.151 53.146 53.206 53.268 53.373 53.453 53.523 53.571 53.638 53.723 53.798 53.893 53.963 54.038 54.138 54.195 54.248 54.313 54.403 54.488 54.52 54.593 54.643 54.638 54.65 54.685 54.69 54.705 54.725 54.743 54.758 54.783 54.798 54.803 54.798 54.788 54.728 54.695 54.615 54.525 54.418 54.305 54.173 54.01 53.813 53.65 53.47 53.318 53.19 52.765 52.445 52.33 52.215 52.11 52.003 51.885 51.76 51.663 51.593 51.443 51.393 51.293 51.188 51.15 51.08 51.04 50.995 50.988 50.953 50.935 50.853 50.798 50.78 50.753 50.745 50.795 50.83 50.865 50.878 50.898 50.9 50.945 50.94 50.913 50.91 50.848 50.763 50.68 50.563 50.505 50.445 50.398 50.335 50.255 50.18 50.13 50.078 50.025 50.013 50.033 50.003 50.035 50.08 50.088 50.115 50.108 50.078 50.088
-9999 -9999 -9999 -9999 -9999 -9999 -9999 -9999 -9999 -9999 -9999 -9999 -9999 -9999 -9999 -9999 -9999 -9999 -9999 -9999 -9999 -9999 -9999 -9999 -9999 -9999 -9999 -9999 -9999 -9999 -9999 -9999 -9999 -9999 -9999 -9999 -9999 -9999 -9999 -9999 -9999 -9999 -9999 -9999 -9999 -9999 -9999 -9999 -9999 -9999 -9999 -9999 -9999 -9999 -9999 -9999 -9999 -9999 -9999 -9999 -9999 -9999 -9999 -9999 -9999 -9999 -9999 -9999 -9999 -9999 -9999 -9999 -9999 -9999 59.437 59.481 59.443 59.461 59.408 59.408 59.381 59.341 59.278 59.233 59.236 59.183 59.253 59.293 59.266 59.196 59.066 59.198 59.291 59.353 59.361 59.401 59.336 59.243 59.208 58.976 58.831 58.608 58.431 58.351 58.303 58.268 58.261 58.251 58.206 58.206 58.186 58.186 58.138 58.063 58.018 57.976 57.886 57.886 57.836 57.788 57.726 57.651 57.613 57.546 57.533 57.558 57.578 57.606 57.676 57.788 57.916 58.041 58.163 58.313 58.436 58.593 58.753 58.966 59.181 59.351 59.566 59.823 60.051 60.273 60.468 60.676 60.843 61.058 61.271 61.428 61.601 61.781 61.913 61.983 62.021 62.061 62.241 62.496 62.598 62.593 62.618 62.663 62.943 63.078 63.036 63.046 62.978 62.986 62.971 62.948 62.941 62.891 62.856 62.848 62.873 62.843 62.786 62.798 62.728 62.678 62.686 62.668 62.561 62.538 62.466 62.336 62.306 62.256 62.173 62.078 62.003 61.891 61.793 61.708 61.571 61.448 61.346 61.208 61.098 61.036 60.956 60.871 60.786 60.718 60.586 60.501 60.466 60.396 60.326 60.318 60.241 60.163 60.111 60.066 59.963 59.911 59.786 59.676 59.593 59.538 59.528 59.446 59.341 59.351 59.266 59.158 59.173 59.103 59.021 58.998 58.968 58.878 58.858 58.858 58.811 58.813 58.846 58.803 58.741 58.666 58.676 58.683 58.553 58.478 58.386 58.281 58.283 58.251 58.181 58.178 58.136 58.163 58.116 58.033 58.006 57.966 57.978 57.903 57.843 57.816 57.783 57.731 57.691 57.693 57.648 57.623 57.566 57.528 57.568 57.601 57.588 57.581 57.538 57.673 57.623 57.583 57.563 57.541 57.538 57.553 57.538 57.508 57.538 57.558 57.476 57.433 57.511 57.491 57.391 57.331 57.243 57.206 57.053 57.108 56.978 56.898 56.811 56.736 56.653 56.508 56.498 56.376 56.241 56.236 56.083 55.993 55.886 55.751 55.643 55.511 55.433 55.278 55.123 55.016 54.808 54.748 54.771 54.673 54.493 53.996 53.558 53.401 53.333 53.256 53.216 53.206 53.173 53.138 53.143 53.118 53.113 53.118 53.158 53.221 53.243 53.236 53.238 53.271 53.356 53.438 53.518 53.558 53.626 53.686 53.755 53.835 53.938 54.02 54.12 54.193 54.248 54.263 54.323 54.408 54.513 54.543 54.57 54.615 54.63 54.64 54.67 54.69 54.69 54.738 54.728 54.753 54.755 54.785 54.74 54.733 54.698 54.618 54.555 54.508 54.373 54.275 54.153 54.02 53.868 53.693 53.51 53.355 53.22 53.113 52.73 52.44 52.323 52.205 52.14 52.048 51.938 51.823 51.75 51.68 51.575 51.505 51.413 51.348 51.283 51.273 51.26 51.225 51.193 51.15 51.11 51.068 51.04 51.028 50.998 50.965 51.048 51.083 51.105 51.163 51.173 51.183 51.203 51.183 51.168 51.148 51.09 51 50.903 50.788 50.7 50.625 50.555 50.485 50.403 50.323 50.248 50.188 50.15 50.11 50.113 50.098 50.135 50.15 50.168 50.165 50.165 50.14 50.13
-9999 -9999 -9999 -9999 -9999 -9999 -9999 -9999 -9999 -9999 -9999 -9999 -9999 -9999 -9999 -9999 -9999 -9999 -9999 -9999 -9999 -9999 -9999 -9999 -9999 -9999 -9999 -9999 -9999 -9999 -9999 -9999 -9999 -9999 -9999 -9999 -9999 -9999 -9999 -9999 -9999 -9999 -9999 -9999 -9999 -9999 -9999 -9999 -9999 -9999 -9999 -9999 -9999 -9999 -9999 -9999 -9999 -9999 -9999 -9999 -9999 -9999 -9999 -9999 -9999 -9999 -9999 -9999 -9999 -9999 -9999 -9999 -9999 -9999 -9999 59.604 59.563 59.543 59.508 59.526 59.488 59.461 59.416 59.403 59.356 59.313 59.346 59.411 59.473 59.368 59.366 59.446 59.561 59.498 59.401 59.343 59.271 59.206 59.098 58.818 58.573 58.401 58.296 58.293 58.303 58.261 58.193 58.218 58.216 58.191 58.158 58.131 58.078 58.073 58.016 57.941 57.893 57.851 57.763 57.716 57.706 57.616 57.563 57.553 57.508 57.511 57.511 57.538 57.611 57.733 57.813 57.958 58.091 58.236 58.381 58.536 58.691 58.923 59.093 59.303 59.508 59.743 59.931 60.158 60.331 60.536 60.718 60.921 61.136 61.326 61.508 61.651 61.841 61.918 61.936 61.946 62.081 62.358 62.471 62.491 62.511 62.473 62.786 63.056 62.993 63.038 62.958 62.948 62.913 62.908 62.883 62.841 62.858 62.878 62.856 62.828 62.823 62.761 62.751 62.726 62.696 62.638 62.606 62.528 62.451 62.393 62.333 62.228 62.181 62.113 61.978 61.893 61.843 61.718 61.586 61.486 61.318 61.203 61.136 61.051 60.936 60.878 60.801 60.691 60.598 60.561 60.441 60.358 60.368 60.268 60.158 60.146 60.091 60.053 59.986 59.888 59.801 59.736 59.628 59.621 59.536 59.408 59.378 59.321 59.276 59.233 59.196 59.078 59.093 59.068 58.966 58.946 58.923 58.866 58.896 58.898 58.826 58.786 58.791 58.731 58.683 58.658 58.613 58.518 58.428 58.303 58.323 58.318 58.248 58.248 58.173 58.181 58.148 58.106 58.061 58.038 58.026 57.956 57.931 57.881 57.843 57.776 57.753 57.728 57.658 57.653 57.651 57.641 57.618 57.608 57.573 57.561 57.556 57.656 57.656 57.613 57.611 57.573 57.561 57.558 57.566 57.526 57.543 57.571 57.516 57.488 57.563 57.508 57.421 57.403 57.293 57.233 57.118 57.176 57.023 56.978 56.873 56.818 56.736 56.581 56.588 56.446 56.333 56.308 56.156 56.056 55.931 55.821 55.711 55.573 55.516 55.373 55.186 55.071 54.898 54.828 54.853 54.728 54.623 54.136 53.681 53.503 53.416 53.353 53.333 53.308 53.266 53.216 53.218 53.198 53.176 53.216 53.261 53.298 53.316 53.293 53.298 53.338 53.431 53.503 53.578 53.658 53.721 53.768 53.855 53.94 54.018 54.11 54.17 54.22 54.293 54.303 54.35 54.46 54.513 54.558 54.588 54.63 54.6 54.623 54.633 54.653 54.698 54.713 54.718 54.71 54.713 54.72 54.665 54.618 54.555 54.51 54.408 54.31 54.223 54.105 54.008 53.873 53.703 53.513 53.373 53.21 53.118 53.073 52.783 52.46 52.338 52.21 52.148 52.088 52.003 51.92 51.853 51.78 51.695 51.645 51.583 51.538 51.475 51.458 51.465 51.448 51.41 51.423 51.348 51.345 51.288 51.253 51.253 51.278 51.32 51.34 51.39 51.438 51.453 51.485 51.485 51.475 51.455 51.413 51.345 51.255 51.14 51.003 50.923 50.833 50.75 50.655 50.568 50.455 50.395 50.308 50.255 50.235 50.22 50.205 50.213 50.24 50.243 50.24 50.233 50.185 50.168
-9999 -9999 -9999 -9999 -9999 -9999 -9999 -9999 -9999 -9999 -9999 -9999 -9999 -9999 -9999 -9999 -9999 -9999 -9999 -9999 -9999 -9999 -9999 -9999 -9999 -9999 -9999 -9999 -9999 -9999 -9999 -9999 -9999 -9999 -9999 -9999 -9999 -9999 -9999 -9999 -9999 -9999 -9999 -9999 -9999 -9999 -9999 -9999 -9999 -9999 -9999 -9999 -9999 -9999 -9999 -9999 -9999 -9999 -9999 -9999 -9999 -9999 -9999 -9999 -9999 -9999 -9999 -9999 -9999 -9999 -9999 -9999 -9999 -9999 -9999 -9999 59.714 59.646 59.633 59.616 59.598 59.588 59.561 59.508 59.456 59.433 59.496 59.561 59.653 59.573 59.588 59.613 59.548 59.476 59.373 59.281 59.268 59.118 58.848 58.561 58.411 58.346 58.276 58.281 58.251 58.176 58.166 58.191 58.171 58.148 58.116 58.113 58.098 58.053 58.018 57.961 57.856 57.821 57.776 57.688 57.658 57.611 57.583 57.541 57.493 57.453 57.448 57.491 57.538 57.641 57.756 57.876 58.016 58.166 58.336 58.521 58.686 58.863 59.023 59.211 59.406 59.596 59.828 60.013 60.203 60.408 60.606 60.761 60.963 61.183 61.358 61.533 61.676 61.793 61.826 61.858 61.921 62.171 62.336 62.361 62.373 62.306 62.631 63.048 62.946 62.971 62.931 62.908 62.886 62.843 62.831 62.833 62.856 62.846 62.823 62.841 62.788 62.748 62.773 62.728 62.696 62.641 62.603 62.501 62.511 62.443 62.308 62.233 62.188 62.071 61.991 61.948 61.838 61.721 61.611 61.468 61.348 61.268 61.161 61.043 60.966 60.866 60.738 60.696 60.648 60.563 60.471 60.438 60.321 60.208 60.158 60.111 60.061 60.066 59.976 59.873 59.803 59.713 59.681 59.566 59.478 59.426 59.366 59.331 59.343 59.278 59.181 59.181 59.146 59.053 59.031 58.978 58.938 58.958 58.953 58.866 58.796 58.756 58.768 58.763 58.736 58.646 58.616 58.563 58.456 58.391 58.388 58.341 58.298 58.271 58.243 58.226 58.176 58.141 58.091 58.048 58.056 57.983 57.971 57.958 57.903 57.833 57.821 57.818 57.768 57.771 57.766 57.703 57.631 57.568 57.433 57.378 57.431 57.513 57.578 57.606 57.603 57.588 57.601 57.581 57.588 57.571 57.571 57.601 57.556 57.528 57.586 57.548 57.498 57.456 57.363 57.323 57.193 57.221 57.081 57.041 56.941 56.896 56.788 56.641 56.661 56.493 56.393 56.391 56.228 56.111 56.018 55.908 55.791 55.633 55.578 55.426 55.246 55.171 54.966 54.883 54.898 54.818 54.738 54.341 53.838 53.581 53.548 53.481 53.438 53.413 53.371 53.343 53.316 53.283 53.271 53.273 53.341 53.376 53.388 53.361 53.386 53.406 53.511 53.578 53.676 53.723 53.806 53.873 53.963 54.038 54.115 54.185 54.258 54.305 54.358 54.395 54.42 54.483 54.538 54.573 54.603 54.633 54.63 54.655 54.663 54.65 54.673 54.643 54.668 54.658 54.66 54.61 54.553 54.523 54.443 54.355 54.245 54.128 54.018 53.933 53.805 53.675 53.523 53.343 53.215 53.028 52.95 52.943 52.675 52.41 52.333 52.22 52.173 52.123 52.05 52.003 51.955 51.883 51.808 51.78 51.733 51.688 51.67 51.678 51.69 51.68 51.65 51.665 51.64 51.608 51.58 51.548 51.55 51.545 51.583 51.64 51.673 51.74 51.773 51.75 51.773 51.785 51.76 51.703 51.635 51.53 51.403 51.275 51.148 51.048 50.943 50.845 50.735 50.618 50.548 50.455 50.403 50.353 50.323 50.3 50.335 50.308 50.308 50.313 50.303 50.275 50.24
-9999 -9999 -9999 -9999 -9999 -9999 -9999 -9999 -9999 -9999 -9999 -9999 -9999 -9999 -9999 -9999 -9999 -9999 -9999 -9999 -9999 -9999 -9999 -9999 -9999 -9999 -9999 -9999 -9999 -9999 -9999 -9999 -9999 -9999 -9999 -9999 -9999 -9999 -9999 -9999 -9999 -9999 -9999 -9999 -9999 -9999 -9999 -9999 -9999 -9999 -9999 -9999 -9999 -9999 -9999 -9999 -9999 -9999 -9999 -9999 -9999 -9999 -9999 -9999 -9999 -9999 -9999 -9999 -9999 -9999 -9999 -9999 -9999 -9999 -9999 -9999 -9999 59.818 59.778 59.748 59.693 59.698 59.693 59.663 59.626 59.598 59.583 59.623 59.701 59.686 59.633 59.578 59.481 59.423 59.343 59.133 58.996 58.751 58.506 58.391 58.366 58.333 58.263 58.256 58.203 58.171 58.146 58.173 58.133 58.121 58.068 58.106 58.081 58.073 58.001 57.933 57.856 57.793 57.741 57.678 57.656 57.571 57.543 57.481 57.451 57.406 57.396 57.398 57.468 57.553 57.671 57.823 57.976 58.116 58.213 58.443 58.621 58.781 58.946 59.118 59.306 59.501 59.706 59.883 60.083 60.291 60.478 60.638 60.843 61.038 61.226 61.356 61.513 61.678 61.681 61.741 61.811 61.986 62.176 62.243 62.201 62.213 62.391 62.813 62.911 62.918 62.918 62.863 62.831 62.828 62.848 62.838 62.803 62.811 62.798 62.793 62.776 62.756 62.746 62.706 62.701 62.633 62.591 62.573 62.538 62.426 62.358 62.276 62.181 62.086 62.008 61.906 61.833 61.748 61.601 61.463 61.406 61.276 61.143 61.066 60.978 60.858 60.793 60.726 60.616 60.561 60.513 60.411 60.268 60.211 60.146 60.071 60.028 59.973 59.911 59.856 59.801 59.773 59.661 59.531 59.481 59.413 59.371 59.376 59.316 59.213 59.216 59.233 59.146 59.116 59.056 59.016 59.008 59.053 58.951 58.866 58.801 58.778 58.786 58.798 58.788 58.701 58.673 58.598 58.498 58.483 58.476 58.418 58.381 58.351 58.278 58.301 58.218 58.213 58.156 58.131 58.103 58.026 58.006 58.006 57.966 57.906 57.901 57.893 57.846 57.846 57.846 57.743 57.553 57.341 57.163 57.063 57.108 57.223 57.383 57.558 57.666 57.628 57.596 57.596 57.621 57.566 57.618 57.648 57.583 57.556 57.641 57.601 57.526 57.476 57.451 57.396 57.236 57.283 57.151 57.103 57.001 56.948 56.866 56.723 56.728 56.563 56.458 56.436 56.273 56.193 56.091 55.941 55.846 55.726 55.671 55.511 55.336 55.223 55.048 54.971 54.971 54.898 54.818 54.536 53.996 53.761 53.658 53.608 53.546 53.536 53.491 53.438 53.436 53.396 53.363 53.373 53.443 53.463 53.456 53.448 53.473 53.516 53.613 53.693 53.768 53.856 53.928 53.988 54.058 54.155 54.215 54.248 54.335 54.38 54.443 54.45 54.478 54.558 54.563 54.56 54.61 54.665 54.645 54.655 54.64 54.635 54.643 54.628 54.593 54.558 54.535 54.48 54.418 54.328 54.253 54.148 54.053 53.958 53.833 53.735 53.6 53.478 53.335 53.188 53.06 52.923 52.833 52.805 52.563 52.368 52.298 52.228 52.218 52.165 52.095 52.058 52.025 51.988 51.928 51.91 51.878 51.883 51.88 51.89 51.915 51.915 51.9 51.908 51.875 51.83 51.855 51.8 51.82 51.823 51.835 51.9 51.943 52.003 52.053 52.045 52.085 52.083 52.053 51.983 51.918 51.8 51.653 51.54 51.413 51.263 51.128 51.02 50.92 50.8 50.703 50.608 50.543 50.5 50.44 50.428 50.425 50.438 50.413 50.403 50.395 50.348 50.308
-9999 -9999 -9999 -9999 -9999 -9999 -9999 -9999 -9999 -9999 -9999 -9999 -9999 -9999 -9999 -9999 -9999 -9999 -9999 -9999 -9999 -9999 -9999 -9999 -9999 -9999 -9999 -9999 -9999 -9999 -9999 -9999 -9999 -9999 -9999 -9999 -9999 -9999 -9999 -9999 -9999 -9999 -9999 -9999 -9999 -9999 -9999 -9999 -9999 -9999 -9999 -9999 -9999 -9999 -9999 -9999 -9999 -9999 -9999 -9999 -9999 -9999 -9999 -9999 -9999 -9999 -9999 -9999 -9999 -9999 -9999 -9999 -9999 -9999 -9999 -9999 -9999 -9999 59.948 59.888 59.866 59.811 59.801 59.746 59.718 59.753 59.741 59.651 59.691 59.743 59.638 59.611 59.526 59.418 59.238 58.983 58.688 58.498 58.386 58.391 58.356 58.313 58.261 58.228 58.183 58.173 58.133 58.131 58.108 58.091 58.118 58.108 58.038 58.008 57.951 57.891 57.806 57.773 57.726 57.653 57.621 57.573 57.508 57.473 57.423 57.353 57.321 57.321 57.381 57.486 57.608 57.751 57.921 58.053 58.198 58.378 58.533 58.701 58.871 59.028 59.211 59.386 59.566 59.758 59.931 60.153 60.333 60.498 60.696 60.896 61.038 61.188 61.328 61.493 61.558 61.606 61.653 61.808 61.983 62.133 62.113 62.081 62.171 62.513 62.796 62.863 62.866 62.831 62.798 62.818 62.796 62.791 62.798 62.793 62.741 62.803 62.766 62.721 62.758 62.711 62.646 62.626 62.618 62.601 62.521 62.458 62.358 62.256 62.178 62.123 62.001 61.918 61.843 61.698 61.566 61.516 61.411 61.286 61.203 61.096 60.938 60.891 60.808 60.701 60.658 60.603 60.483 60.361 60.266 60.196 60.123 60.073 59.973 59.906 59.886 59.841 59.801 59.731 59.628 59.556 59.446 59.386 59.381 59.336 59.258 59.243 59.226 59.178 59.158 59.146 59.083 59.078 59.051 59.003 58.948 58.908 58.896 58.913 58.846 58.883 58.863 58.753 58.731 58.653 58.556 58.518 58.518 58.486 58.451 58.416 58.353 58.326 58.271 58.261 58.218 58.193 58.153 58.108 58.078 58.043 57.978 57.933 57.938 57.916 57.901 57.871 57.846 57.663 57.363 57.081 56.873 56.858 56.871 56.966 57.168 57.381 57.591 57.651 57.643 57.626 57.633 57.603 57.651 57.671 57.618 57.603 57.668 57.623 57.586 57.556 57.488 57.451 57.306 57.348 57.216 57.156 57.088 57.026 56.906 56.791 56.786 56.631 56.541 56.531 56.368 56.276 56.166 56.028 55.911 55.776 55.701 55.536 55.393 55.293 55.121 55.031 55.056 54.983 54.866 54.601 54.121 53.838 53.771 53.723 53.661 53.616 53.606 53.568 53.551 53.501 53.478 53.496 53.521 53.566 53.566 53.543 53.588 53.648 53.708 53.836 53.913 53.986 54.041 54.101 54.173 54.245 54.31 54.378 54.443 54.495 54.553 54.548 54.543 54.583 54.61 54.633 54.638 54.625 54.623 54.638 54.63 54.598 54.58 54.555 54.49 54.43 54.4 54.335 54.268 54.168 54.093 53.98 53.865 53.76 53.643 53.54 53.403 53.305 53.188 53.04 52.913 52.81 52.718 52.678 52.49 52.368 52.29 52.215 52.2 52.153 52.123 52.108 52.075 52.053 52.045 52.038 52.01 52.015 52.03 52.083 52.105 52.125 52.093 52.128 52.125 52.068 52.073 52.09 52.063 52.078 52.095 52.18 52.23 52.27 52.318 52.343 52.353 52.363 52.32 52.248 52.155 52.04 51.903 51.79 51.62 51.463 51.353 51.215 51.068 50.973 50.88 50.76 50.678 50.635 50.575 50.543 50.543 50.558 50.525 50.475 50.448 50.42 50.388
-9999 -9999 -9999 -9999 -9999 -9999 -9999 -9999 -9999 -9999 -9999 -9999 -9999 -9999 -9999 -9999 -9999 -9999 -9999 -9999 -9999 -9999 -9999 -9999 -9999 -9999 -9999 -9999 -9999 -9999 -9999 -9999 -9999 -9999 -9999 -9999 -9999 -9999 -9999 -9999 -9999 -9999 -9999 -9999 -9999 -9999 -9999 -9999 -9999 -9999 -9999 -9999 -9999 -9999 -9999 -9999 -9999 -9999 -9999 -9999 -9999 -9999 -9999 -9999 -9999 -9999 -9999 -9999 -9999 -9999 -9999 -9999 -9999 -9999 -9999 -9999 -9999 -9999 -9999 60.066 59.971 59.931 59.898 59.868 59.863 59.893 59.926 59.786 59.758 59.743 59.658 59.618 59.456 59.268 59.061 58.798 58.566 58.503 58.443 58.416 58.353 58.298 58.301 58.226 58.176 58.156 58.156 58.108 58.101 58.108 58.063 58.028 57.971 57.936 57.893 57.843 57.788 57.743 57.708 57.653 57.586 57.548 57.466 57.401 57.353 57.271 57.266 57.293 57.331 57.443 57.583 57.703 57.901 58.013 58.161 58.301 58.466 58.628 58.793 58.951 59.118 59.271 59.413 59.608 59.786 59.968 60.163 60.363 60.491 60.688 60.886 61.026 61.163 61.331 61.406 61.493 61.531 61.608 61.796 61.993 61.973 61.976 62.023 62.363 62.678 62.798 62.851 62.811 62.771 62.756 62.768 62.753 62.753 62.746 62.773 62.771 62.756 62.753 62.716 62.656 62.638 62.658 62.606 62.551 62.503 62.443 62.338 62.301 62.196 62.093 61.976 61.896 61.783 61.703 61.588 61.478 61.391 61.328 61.176 61.041 60.991 60.928 60.793 60.728 60.668 60.563 60.463 60.391 60.296 60.243 60.131 60.043 59.968 59.921 59.853 59.833 59.768 59.706 59.658 59.586 59.483 59.418 59.341 59.291 59.271 59.261 59.248 59.243 59.168 59.148 59.146 59.123 59.053 59.023 59.018 59.038 58.996 58.878 58.871 58.896 58.913 58.816 58.793 58.696 58.591 58.563 58.578 58.518 58.491 58.436 58.396 58.363 58.298 58.278 58.223 58.246 58.183 58.103 58.088 58.038 58.021 57.966 57.941 57.908 57.766 57.756 57.706 57.546 57.226 56.971 56.878 56.868 56.853 56.856 56.996 57.266 57.521 57.671 57.643 57.641 57.616 57.611 57.661 57.688 57.658 57.606 57.686 57.666 57.596 57.611 57.571 57.506 57.321 57.378 57.266 57.211 57.131 57.056 56.971 56.826 56.856 56.696 56.578 56.588 56.413 56.343 56.206 56.078 55.983 55.833 55.778 55.621 55.448 55.378 55.181 55.068 55.108 55.063 55.001 54.701 54.251 53.953 53.866 53.806 53.736 53.758 53.706 53.678 53.643 53.608 53.588 53.608 53.653 53.651 53.678 53.676 53.716 53.778 53.863 53.958 54.048 54.126 54.191 54.221 54.303 54.368 54.438 54.508 54.565 54.583 54.615 54.6 54.605 54.633 54.65 54.63 54.64 54.628 54.635 54.603 54.558 54.535 54.498 54.448 54.383 54.323 54.255 54.208 54.105 54 53.895 53.773 53.663 53.55 53.44 53.335 53.255 53.133 53.028 52.885 52.768 52.693 52.61 52.565 52.455 52.325 52.253 52.185 52.175 52.16 52.15 52.123 52.143 52.133 52.12 52.14 52.118 52.143 52.19 52.23 52.235 52.278 52.295 52.315 52.323 52.285 52.27 52.303 52.31 52.315 52.345 52.408 52.45 52.488 52.54 52.575 52.58 52.583 52.55 52.473 52.38 52.248 52.108 51.985 51.828 51.665 51.523 51.393 51.248 51.138 51.005 50.918 50.818 50.778 50.7 50.685 50.663 50.655 50.633 50.59 50.548 50.485 50.43
-9999 -9999 -9999 -9999 -9999 -9999 -9999 -9999 -9999 -9999 -9999 -9999 -9999 -9999 -9999 -9999 -9999 -9999 -9999 -9999 -9999 -9999 -9999 -9999 -9999 -9999 -9999 -9999 -9999 -9999 -9999 -9999 -9999 -9999 -9999 -9999 -9999 -9999 -9999 -9999 -9999 -9999 -9999 -9999 -9999 -9999 -9999 -9999 -9999 -9999 -9999 -9999 -9999 -9999 -9999 -9999 -9999 -9999 -9999 -9999 -9999 -9999 -9999 -9999 -9999 -9999 -9999 -9999 -9999 -9999 -9999 -9999 -9999 -9999 -9999 -9999 -9999 -9999 -9999 60.181 60.136 60.083 60.038 59.996 60.026 60.061 60.121 59.943 59.801 59.713 59.633 59.531 59.406 59.081 58.773 58.688 58.598 58.536 58.468 58.408 58.341 58.283 58.253 58.206 58.191 58.156 58.161 58.113 58.081 58.046 58.011 57.953 57.928 57.928 57.878 57.856 57.796 57.756 57.703 57.636 57.556 57.496 57.421 57.331 57.273 57.243 57.256 57.253 57.316 57.431 57.558 57.683 57.821 57.953 58.111 58.248 58.393 58.528 58.656 58.833 58.993 59.151 59.313 59.466 59.641 59.813 60.023 60.226 60.338 60.526 60.663 60.841 61.016 61.138 61.251 61.346 61.388 61.436 61.606 61.791 61.836 61.851 61.853 62.143 62.543 62.701 62.813 62.783 62.716 62.723 62.743 62.711 62.706 62.728 62.731 62.746 62.763 62.698 62.653 62.651 62.643 62.641 62.583 62.558 62.506 62.428 62.371 62.291 62.183 62.131 61.978 61.851 61.786 61.666 61.551 61.481 61.436 61.286 61.133 61.073 61.001 60.906 60.831 60.748 60.626 60.521 60.463 60.378 60.331 60.241 60.116 60.041 59.943 59.903 59.863 59.791 59.736 59.716 59.618 59.581 59.521 59.418 59.341 59.316 59.266 59.246 59.243 59.201 59.183 59.201 59.136 59.096 59.066 59.043 59.071 58.926 58.698 58.666 58.753 58.833 58.861 58.821 58.798 58.723 58.641 58.628 58.601 58.561 58.516 58.453 58.411 58.406 58.316 58.278 58.241 58.223 58.188 58.121 58.093 58.021 58.028 57.968 57.971 57.893 57.673 57.768 57.751 57.566 57.238 56.946 56.858 56.853 56.841 56.841 56.973 57.323 57.578 57.688 57.676 57.651 57.641 57.646 57.691 57.711 57.648 57.633 57.708 57.673 57.638 57.678 57.601 57.526 57.381 57.413 57.303 57.253 57.181 57.081 56.993 56.876 56.893 56.726 56.611 56.628 56.458 56.376 56.261 56.126 56.051 55.886 55.848 55.673 55.538 55.448 55.266 55.168 55.186 55.136 55.058 54.783 54.368 54.073 53.971 53.941 53.876 53.851 53.806 53.786 53.766 53.723 53.711 53.718 53.743 53.811 53.823 53.821 53.868 53.928 54.031 54.116 54.188 54.253 54.323 54.378 54.425 54.533 54.573 54.64 54.673 54.693 54.71 54.688 54.673 54.668 54.68 54.64 54.62 54.595 54.585 54.535 54.465 54.43 54.375 54.338 54.255 54.18 54.115 54.025 53.933 53.855 53.735 53.59 53.473 53.355 53.263 53.168 53.078 52.978 52.87 52.77 52.655 52.568 52.48 52.428 52.368 52.265 52.2 52.12 52.125 52.135 52.12 52.118 52.158 52.158 52.163 52.205 52.228 52.233 52.245 52.313 52.358 52.438 52.465 52.498 52.455 52.458 52.458 52.458 52.51 52.51 52.535 52.6 52.64 52.708 52.733 52.775 52.778 52.783 52.74 52.655 52.545 52.385 52.255 52.135 52.015 51.84 51.693 51.543 51.44 51.263 51.138 51.038 50.963 50.893 50.833 50.77 50.743 50.72 50.678 50.653 50.618 50.565 50.505
-9999 -9999 -9999 -9999 -9999 -9999 -9999 -9999 -9999 -9999 -9999 -9999 -9999 -9999 -9999 -9999 -9999 -9999 -9999 -9999 -9999 -9999 -9999 -9999 -9999 -9999 -9999 -9999 -9999 -9999 -9999 -9999 -9999 -9999 -9999 -9999 -9999 -9999 -9999 -9999 -9999 -9999 -9999 -9999 -9999 -9999 -9999 -9999 -9999 -9999 -9999 -9999 -9999 -9999 -9999 -9999 -9999 -9999 -9999 -9999 -9999 -9999 -9999 -9999 -9999 -9999 -9999 -9999 -9999 -9999 -9999 -9999 -9999 -9999 -9999 -9999 -9999 -9999 -9999 -9999 60.274 60.236 60.183 60.176 60.211 60.306 60.233 59.931 59.803 59.703 59.581 59.418 59.198 58.948 58.738 58.711 58.638 58.543 58.466 58.411 58.328 58.286 58.278 58.246 58.171 58.151 58.151 58.123 58.048 58.033 57.998 57.961 57.896 57.843 57.796 57.786 57.781 57.721 57.638 57.578 57.473 57.398 57.356 57.291 57.231 57.211 57.208 57.213 57.263 57.376 57.478 57.598 57.738 57.866 58.036 58.158 58.291 58.461 58.571 58.721 58.893 59.043 59.193 59.371 59.501 59.706 59.871 60.003 60.151 60.351 60.478 60.683 60.836 60.961 61.098 61.173 61.231 61.268 61.436 61.643 61.708 61.738 61.686 61.891 62.326 62.591 62.723 62.748 62.708 62.666 62.648 62.663 62.668 62.658 62.673 62.701 62.686 62.663 62.686 62.666 62.613 62.616 62.568 62.508 62.466 62.441 62.366 62.273 62.173 62.076 61.953 61.851 61.796 61.653 61.576 61.503 61.401 61.261 61.188 61.101 60.993 60.896 60.823 60.711 60.638 60.558 60.443 60.396 60.308 60.188 60.101 60.016 59.961 59.921 59.811 59.786 59.718 59.651 59.626 59.596 59.541 59.461 59.381 59.376 59.331 59.286 59.228 59.206 59.186 59.143 59.098 59.088 59.108 59.018 58.843 58.583 58.466 58.441 58.573 58.746 58.796 58.808 58.783 58.721 58.643 58.613 58.618 58.553 58.506 58.448 58.433 58.423 58.328 58.291 58.231 58.216 58.186 58.106 58.101 58.008 57.973 57.973 57.961 57.878 57.746 57.803 57.793 57.568 57.253 56.923 56.868 56.838 56.828 56.848 56.951 57.438 57.638 57.666 57.676 57.658 57.676 57.666 57.696 57.731 57.668 57.671 57.708 57.673 57.683 57.676 57.626 57.556 57.416 57.481 57.301 57.288 57.203 57.126 57.018 56.913 56.921 56.753 56.663 56.671 56.488 56.403 56.298 56.151 56.068 55.953 55.898 55.758 55.588 55.506 55.338 55.233 55.246 55.193 55.091 54.813 54.408 54.191 54.113 54.053 53.996 53.966 53.923 53.923 53.898 53.871 53.853 53.868 53.903 53.963 54.001 53.981 54.048 54.088 54.173 54.263 54.323 54.411 54.473 54.561 54.605 54.66 54.713 54.755 54.798 54.818 54.78 54.753 54.728 54.7 54.72 54.665 54.633 54.57 54.543 54.44 54.36 54.288 54.23 54.17 54.063 54.008 53.908 53.85 53.755 53.64 53.54 53.44 53.308 53.193 53.108 53.048 52.95 52.835 52.748 52.638 52.52 52.438 52.388 52.338 52.273 52.183 52.125 52.09 52.098 52.1 52.08 52.098 52.153 52.175 52.193 52.228 52.235 52.285 52.34 52.388 52.45 52.488 52.538 52.545 52.54 52.56 52.585 52.575 52.623 52.65 52.688 52.72 52.773 52.848 52.875 52.9 52.898 52.865 52.813 52.748 52.618 52.51 52.385 52.26 52.115 51.983 51.833 51.705 51.565 51.42 51.295 51.17 51.068 50.975 50.893 50.855 50.815 50.758 50.72 50.705 50.643 50.618 50.568
-9999 -9999 -9999 -9999 -9999 -9999 -9999 -9999 -9999 -9999 -9999 -9999 -9999 -9999 -9999 -9999 -9999 -9999 -9999 -9999 -9999 -9999 -9999 -9999 -9999 -9999 -9999 -9999 -9999 -9999 -9999 -9999 -9999 -9999 -9999 -9999 -9999 -9999 -9999 -9999 -9999 -9999 -9999 -9999 -9999 -9999 -9999 -9999 -9999 -9999 -9999 -9999 -9999 -9999 -9999 -9999 -9999 -9999 -9999 -9999 -9999 -9999 -9999 -9999 -9999 -9999 -9999 -9999 -9999 -9999 -9999 -9999 -9999 -9999 -9999 -9999 -9999 -9999 -9999 -9999 -9999 60.387 60.383 60.406 60.438 60.421 60.193 59.863 59.791 59.721 59.543 59.308 59.033 58.896 58.803 58.798 58.711 58.586 58.511 58.431 58.351 58.303 58.276 58.276 58.228 58.166 58.136 58.083 58.036 57.981 57.973 57.933 57.861 57.881 57.818 57.753 57.726 57.696 57.606 57.516 57.418 57.333 57.283 57.211 57.196 57.171 57.148 57.168 57.223 57.351 57.436 57.561 57.668 57.811 57.963 58.096 58.223 58.338 58.463 58.606 58.778 58.943 59.076 59.236 59.391 59.548 59.718 59.833 59.998 60.176 60.316 60.508 60.648 60.776 60.911 61.013 61.078 61.111 61.251 61.438 61.591 61.601 61.591 61.718 62.156 62.466 62.618 62.711 62.653 62.603 62.603 62.626 62.646 62.641 62.651 62.631 62.648 62.661 62.668 62.653 62.658 62.631 62.548 62.506 62.493 62.408 62.331 62.303 62.186 62.028 61.968 61.886 61.748 61.656 61.581 61.456 61.351 61.303 61.188 61.083 61.028 60.888 60.768 60.701 60.626 60.531 60.468 60.383 60.283 60.198 60.108 60.073 59.981 59.866 59.788 59.746 59.693 59.673 59.646 59.616 59.573 59.523 59.481 59.456 59.386 59.358 59.251 59.158 59.123 59.121 59.126 59.071 58.993 58.823 58.636 58.443 58.418 58.436 58.523 58.658 58.738 58.783 58.766 58.676 58.606 58.616 58.588 58.521 58.493 58.436 58.401 58.403 58.331 58.288 58.216 58.198 58.151 58.078 58.053 57.993 57.953 57.923 57.938 57.856 57.708 57.761 57.721 57.511 57.216 57.006 56.896 56.891 56.858 56.903 57.141 57.521 57.643 57.678 57.651 57.668 57.721 57.668 57.716 57.726 57.686 57.703 57.741 57.698 57.678 57.668 57.628 57.586 57.421 57.508 57.351 57.323 57.236 57.201 57.081 56.961 56.951 56.806 56.703 56.721 56.543 56.451 56.336 56.171 56.108 55.998 55.941 55.788 55.628 55.553 55.363 55.268 55.321 55.278 55.161 54.948 54.523 54.291 54.258 54.181 54.146 54.091 54.051 54.016 54.033 53.996 54.006 54.011 54.081 54.126 54.143 54.133 54.178 54.258 54.348 54.426 54.503 54.578 54.648 54.693 54.783 54.853 54.87 54.9 54.918 54.918 54.895 54.868 54.788 54.76 54.748 54.685 54.593 54.523 54.425 54.315 54.208 54.115 54.05 53.975 53.9 53.81 53.718 53.625 53.535 53.445 53.363 53.26 53.143 53.055 52.973 52.89 52.818 52.725 52.643 52.508 52.43 52.323 52.293 52.243 52.185 52.08 52.058 52.01 52.028 52.063 52.05 52.075 52.123 52.15 52.193 52.248 52.255 52.313 52.353 52.405 52.45 52.52 52.573 52.578 52.608 52.613 52.618 52.658 52.68 52.743 52.778 52.82 52.853 52.9 52.94 52.955 52.938 52.888 52.838 52.755 52.645 52.543 52.428 52.33 52.193 52.055 51.935 51.785 51.64 51.49 51.36 51.233 51.123 51.05 50.93 50.855 50.843 50.788 50.723 50.67 50.663 50.605 50.565
-9999 -9999 -9999 -9999 -9999 -9999 -9999 -9999 -9999 -9999 -9999 -9999 -9999 -9999 -9999 -9999 -9999 -9999 -9999 -9999 -9999 -9999 -9999 -9999 -9999 -9999 -9999 -9999 -9999 -9999 -9999 -9999 -9999 -9999 -9999 -9999 -9999 -9999 -9999 -9999 -9999 -9999 -9999 -9999 -9999 -9999 -9999 -9999 -9999 -9999 -9999 -9999 -9999 -9999 -9999 -9999 -9999 -9999 -9999 -9999 -9999 -9999 -9999 -9999 -9999 -9999 -9999 -9999 -9999 -9999 -9999 -9999 -9999 -9999 -9999 -9999 -9999 -9999 -9999 -9999 -9999 -9999 60.551 60.588 60.506 60.178 59.963 59.868 59.756 59.601 59.413 59.191 59.033 58.966 58.846 58.818 58.683 58.613 58.533 58.451 58.428 58.343 58.258 58.228 58.211 58.146 58.101 58.023 58.003 57.958 57.938 57.923 57.876 57.856 57.813 57.748 57.671 57.641 57.536 57.443 57.378 57.313 57.251 57.226 57.146 57.126 57.133 57.133 57.203 57.283 57.373 57.481 57.588 57.723 57.896 58.021 58.116 58.238 58.383 58.506 58.663 58.811 58.906 59.098 59.263 59.403 59.551 59.703 59.841 59.993 60.136 60.291 60.456 60.591 60.733 60.831 60.908 60.943 61.038 61.223 61.418 61.438 61.466 61.478 61.963 62.256 62.498 62.668 62.626 62.571 62.566 62.576 62.623 62.616 62.581 62.563 62.658 62.646 62.656 62.653 62.616 62.581 62.533 62.501 62.461 62.413 62.358 62.246 62.148 62.081 61.973 61.863 61.791 61.668 61.541 61.448 61.398 61.288 61.188 61.136 61.023 60.876 60.808 60.738 60.643 60.571 60.456 60.351 60.258 60.201 60.146 60.068 59.938 59.918 59.821 59.781 59.753 59.736 59.696 59.651 59.611 59.611 59.546 59.503 59.423 59.313 59.306 59.256 59.088 58.998 58.996 58.958 58.933 58.888 58.661 58.441 58.346 58.383 58.451 58.631 58.723 58.763 58.743 58.651 58.586 58.598 58.578 58.501 58.476 58.416 58.381 58.353 58.288 58.268 58.176 58.158 58.111 58.053 58.038 57.951 57.918 57.886 57.886 57.836 57.688 57.706 57.653 57.493 57.261 57.153 57.181 57.168 57.151 57.198 57.331 57.526 57.648 57.673 57.646 57.681 57.713 57.676 57.741 57.746 57.721 57.681 57.763 57.726 57.696 57.716 57.653 57.568 57.441 57.511 57.378 57.368 57.266 57.231 57.126 56.988 56.978 56.856 56.766 56.761 56.568 56.468 56.366 56.231 56.156 56.018 55.963 55.823 55.688 55.603 55.426 55.323 55.363 55.331 55.233 55.048 54.598 54.386 54.323 54.256 54.223 54.176 54.148 54.143 54.156 54.131 54.131 54.156 54.233 54.263 54.268 54.276 54.323 54.411 54.508 54.608 54.706 54.768 54.821 54.868 54.935 54.993 55.023 55.013 55.035 55.025 55.005 54.94 54.86 54.795 54.75 54.645 54.555 54.448 54.333 54.22 54.093 54.023 53.903 53.788 53.715 53.63 53.553 53.453 53.363 53.293 53.203 53.08 52.96 52.908 52.833 52.758 52.68 52.595 52.528 52.408 52.313 52.24 52.22 52.195 52.133 52.013 51.965 51.923 51.935 51.953 51.97 52.033 52.08 52.105 52.133 52.183 52.225 52.278 52.328 52.383 52.39 52.453 52.5 52.538 52.563 52.585 52.595 52.64 52.653 52.71 52.775 52.855 52.883 52.89 52.93 52.93 52.893 52.858 52.788 52.718 52.62 52.538 52.43 52.325 52.218 52.095 51.935 51.805 51.658 51.523 51.368 51.198 51.11 51.008 50.895 50.81 50.77 50.733 50.688 50.658 50.608 50.588 50.528
-9999 -9999 -9999 -9999 -9999 -9999 -9999 -9999 -9999 -9999 -9999 -9999 -9999 -9999 -9999 -9999 -9999 -9999 -9999 -9999 -9999 -9999 -9999 -9999 -9999 -9999 -9999 -9999 -9999 -9999 -9999 -9999 -9999 -9999 -9999 -9999 -9999 -9999 -9999 -9999 -9999 -9999 -9999 -9999 -9999 -9999 -9999 -9999 -9999 -9999 -9999 -9999 -9999 -9999 -9999 -9999 -9999 -9999 -9999 -9999 -9999 -9999 -9999 -9999 -9999 -9999 -9999 -9999 -9999 -9999 -9999 -9999 -9999 -9999 -9999 -9999 -9999 -9999 -9999 -9999 -9999 -9999 -9999 60.426 60.373 60.093 59.976 59.916 59.773 59.526 59.316 59.161 59.088 59.013 58.961 58.873 58.718 58.633 58.586 58.536 58.453 58.373 58.301 58.248 58.178 58.133 58.088 58.061 58.006 57.991 57.931 57.908 57.871 57.838 57.781 57.703 57.618 57.543 57.473 57.416 57.353 57.271 57.233 57.183 57.128 57.108 57.078 57.106 57.121 57.171 57.278 57.401 57.523 57.658 57.781 57.908 58.006 58.131 58.271 58.398 58.543 58.646 58.763 58.876 59.043 59.213 59.366 59.508 59.663 59.763 59.918 60.088 60.271 60.406 60.546 60.648 60.721 60.771 60.828 61.026 61.253 61.343 61.353 61.306 61.716 62.021 62.368 62.573 62.601 62.551 62.558 62.558 62.561 62.533 62.538 62.566 62.588 62.608 62.658 62.648 62.596 62.561 62.541 62.458 62.446 62.401 62.308 62.223 62.158 62.048 61.956 61.883 61.741 61.603 61.551 61.481 61.376 61.268 61.216 61.093 60.961 60.881 60.803 60.723 60.673 60.568 60.466 60.381 60.318 60.258 60.193 60.076 59.993 59.953 59.881 59.828 59.808 59.761 59.703 59.708 59.681 59.653 59.618 59.548 59.476 59.406 59.336 59.161 58.973 58.963 58.978 58.991 58.998 58.976 58.771 58.521 58.433 58.528 58.503 58.578 58.676 58.693 58.703 58.598 58.563 58.563 58.548 58.458 58.448 58.391 58.363 58.348 58.266 58.221 58.181 58.138 58.086 58.006 57.996 57.943 57.871 57.841 57.871 57.813 57.651 57.658 57.643 57.581 57.491 57.366 57.348 57.363 57.366 57.438 57.548 57.638 57.661 57.656 57.668 57.681 57.726 57.698 57.751 57.766 57.716 57.688 57.773 57.728 57.713 57.723 57.653 57.588 57.438 57.506 57.393 57.346 57.283 57.266 57.126 57.023 57.051 56.878 56.796 56.733 56.591 56.526 56.408 56.288 56.191 56.063 56.018 55.873 55.728 55.648 55.458 55.403 55.443 55.388 55.288 55.078 54.686 54.486 54.433 54.361 54.313 54.293 54.266 54.251 54.253 54.238 54.246 54.281 54.331 54.391 54.428 54.431 54.518 54.608 54.686 54.776 54.863 54.931 54.998 55.046 55.09 55.13 55.138 55.15 55.15 55.115 55.093 55.01 54.94 54.83 54.745 54.623 54.48 54.348 54.213 54.085 53.97 53.87 53.735 53.658 53.56 53.485 53.403 53.303 53.205 53.128 53.048 52.93 52.835 52.765 52.693 52.63 52.56 52.498 52.413 52.303 52.243 52.145 52.085 52.083 52.035 51.945 51.865 51.83 51.85 51.893 51.908 51.95 52.008 52.035 52.115 52.14 52.145 52.193 52.248 52.305 52.353 52.415 52.445 52.48 52.508 52.535 52.55 52.568 52.613 52.658 52.71 52.788 52.813 52.815 52.815 52.815 52.79 52.745 52.7 52.64 52.545 52.478 52.38 52.26 52.16 52.05 51.888 51.748 51.623 51.503 51.305 51.15 51.023 50.885 50.788 50.718 50.665 50.633 50.585 50.515 50.488 50.468 50.425
-9999 -9999 -9999 -9999 -9999 -9999 -9999 -9999 -9999 -9999 -9999 -9999 -9999 -9999 -9999 -9999 -9999 -9999 -9999 -9999 -9999 -9999 -9999 -9999 -9999 -9999 -9999 -9999 -9999 -9999 -9999 -9999 -9999 -9999 -9999 -9999 -9999 -9999 -9999 -9999 -9999 -9999 -9999 -9999 -9999 -9999 -9999 -9999 -9999 -9999 -9999 -9999 -9999 -9999 -9999 -9999 -9999 -9999 -9999 -9999 -9999 -9999 -9999 -9999 -9999 -9999 -9999 -9999 -9999 -9999 -9999 -9999 -9999 -9999 -9999 -9999 -9999 -9999 -9999 -9999 -9999 -9999 -9999 -9999 60.171 60.068 59.976 59.833 59.708 59.491 59.296 59.238 59.138 59.056 58.986 58.888 58.791 58.706 58.648 58.566 58.481 58.376 58.326 58.276 58.176 58.141 58.113 58.063 58.031 57.971 57.946 57.878 57.823 57.808 57.721 57.618 57.541 57.483 57.436 57.368 57.301 57.226 57.176 57.163 57.103 57.068 57.038 57.038 57.078 57.133 57.236 57.323 57.443 57.586 57.658 57.791 57.901 58.028 58.146 58.261 58.361 58.508 58.618 58.748 58.878 59.026 59.173 59.321 59.483 59.583 59.703 59.891 60.063 60.191 60.336 60.451 60.533 60.596 60.673 60.876 61.138 61.198 61.166 61.158 61.458 61.803 62.148 62.431 62.566 62.496 62.511 62.486 62.493 62.538 62.571 62.563 62.568 62.581 62.573 62.581 62.621 62.543 62.491 62.463 62.406 62.333 62.276 62.231 62.158 62.068 62.003 61.858 61.693 61.603 61.538 61.441 61.381 61.273 61.143 61.058 60.988 60.883 60.816 60.763 60.663 60.556 60.463 60.398 60.366 60.273 60.168 60.086 60.036 59.981 59.938 59.913 59.838 59.781 59.721 59.668 59.671 59.713 59.641 59.618 59.498 59.276 59.223 59.138 59.083 59.108 59.053 59.043 59.028 58.966 58.883 58.718 58.656 58.653 58.598 58.583 58.648 58.653 58.628 58.596 58.558 58.566 58.543 58.471 58.431 58.383 58.351 58.338 58.243 58.213 58.141 58.106 58.046 58.003 58.003 57.908 57.841 57.831 57.826 57.841 57.676 57.596 57.621 57.608 57.636 57.608 57.506 57.456 57.531 57.648 57.671 57.671 57.661 57.641 57.661 57.701 57.711 57.713 57.763 57.778 57.716 57.701 57.781 57.751 57.723 57.738 57.656 57.583 57.491 57.538 57.403 57.383 57.301 57.273 57.141 57.056 57.056 56.923 56.811 56.783 56.656 56.576 56.436 56.341 56.231 56.111 56.068 55.911 55.776 55.676 55.511 55.476 55.508 55.423 55.376 55.131 54.768 54.586 54.526 54.448 54.436 54.406 54.391 54.403 54.401 54.376 54.376 54.418 54.463 54.516 54.576 54.628 54.686 54.776 54.838 54.926 55.023 55.101 55.161 55.201 55.233 55.273 55.28 55.295 55.31 55.235 55.193 55.078 54.99 54.85 54.728 54.58 54.393 54.245 54.08 53.955 53.835 53.708 53.613 53.528 53.435 53.358 53.26 53.165 53.068 52.975 52.878 52.818 52.725 52.65 52.583 52.513 52.43 52.4 52.323 52.243 52.145 52.048 51.993 51.973 51.928 51.84 51.798 51.75 51.78 51.783 51.818 51.883 51.938 51.985 52.015 52.058 52.08 52.11 52.163 52.21 52.265 52.295 52.363 52.373 52.418 52.44 52.438 52.453 52.51 52.528 52.585 52.623 52.653 52.688 52.683 52.693 52.63 52.61 52.555 52.498 52.43 52.323 52.223 52.123 52.045 51.933 51.788 51.643 51.495 51.388 51.175 51.023 50.893 50.768 50.653 50.583 50.515 50.473 50.418 50.375 50.33 50.308 50.283
-9999 -9999 -9999 -9999 -9999 -9999 -9999 -9999 -9999 -9999 -9999 -9999 -9999 -9999 -9999 -9999 -9999 -9999 -9999 -9999 -9999 -9999 -9999 -9999 -9999 -9999 -9999 -9999 -9999 -9999 -9999 -9999 -9999 -9999 -9999 -9999 -9999 -9999 -9999 -9999 -9999 -9999 -9999 -9999 -9999 -9999 -9999 -9999 -9999 -9999 -9999 -9999 -9999 -9999 -9999 -9999 -9999 -9999 -9999 -9999 -9999 -9999 -9999 -9999 -9999 -9999 -9999 -9999 -9999 -9999 -9999 -9999 -9999 -9999 -9999 -9999 -9999 -9999 -9999 -9999 -9999 -9999 -9999 -9999 60.147 60.123 60.031 59.823 59.608 59.511 59.403 59.308 59.211 59.118 59.003 58.911 58.843 58.756 58.686 58.571 58.486 58.386 58.316 58.276 58.193 58.161 58.116 58.093 58.036 58.006 57.921 57.871 57.806 57.743 57.668 57.563 57.481 57.438 57.393 57.313 57.271 57.221 57.193 57.153 57.071 57.018 56.998 57.003 57.041 57.098 57.148 57.226 57.306 57.453 57.563 57.696 57.808 57.913 58.021 58.126 58.266 58.386 58.501 58.603 58.748 58.863 58.991 59.121 59.246 59.371 59.493 59.656 59.806 59.976 60.121 60.228 60.323 60.398 60.458 60.676 60.911 61.041 60.983 61.041 61.243 61.598 61.961 62.298 62.496 62.451 62.428 62.418 62.476 62.493 62.501 62.523 62.521 62.506 62.531 62.556 62.571 62.533 62.491 62.461 62.358 62.306 62.243 62.193 62.126 62.081 61.951 61.846 61.736 61.596 61.518 61.446 61.341 61.203 61.088 61.038 60.933 60.898 60.826 60.698 60.618 60.566 60.493 60.458 60.371 60.278 60.193 60.148 60.101 60.046 59.976 59.916 59.856 59.828 59.768 59.673 59.633 59.568 59.448 59.346 59.341 59.301 59.291 59.211 59.183 59.128 59.076 59.023 59.006 58.941 58.898 58.868 58.848 58.793 58.703 58.658 58.638 58.643 58.648 58.588 58.533 58.561 58.523 58.451 58.418 58.381 58.368 58.333 58.231 58.196 58.123 58.103 58.056 57.996 57.973 57.911 57.856 57.816 57.813 57.816 57.706 57.621 57.643 57.606 57.653 57.688 57.596 57.548 57.603 57.686 57.668 57.691 57.678 57.686 57.688 57.708 57.721 57.696 57.751 57.771 57.703 57.701 57.778 57.756 57.746 57.746 57.676 57.606 57.493 57.518 57.403 57.373 57.281 57.263 57.163 57.068 57.083 56.913 56.826 56.818 56.668 56.628 56.446 56.348 56.241 56.153 56.086 55.936 55.813 55.698 55.583 55.551 55.576 55.506 55.436 55.176 54.878 54.723 54.636 54.581 54.521 54.528 54.501 54.521 54.508 54.498 54.483 54.523 54.598 54.646 54.706 54.753 54.836 54.921 55.011 55.066 55.156 55.238 55.296 55.348 55.38 55.415 55.403 55.395 55.413 55.323 55.238 55.103 54.975 54.82 54.66 54.505 54.335 54.145 53.98 53.828 53.698 53.605 53.503 53.388 53.283 53.19 53.105 53.025 52.928 52.845 52.725 52.653 52.603 52.53 52.453 52.433 52.355 52.288 52.195 52.133 52.055 51.965 51.908 51.893 51.863 51.765 51.703 51.665 51.678 51.718 51.733 51.78 51.83 51.885 51.928 51.965 51.99 52.003 52.048 52.12 52.148 52.19 52.218 52.26 52.288 52.285 52.313 52.363 52.373 52.403 52.43 52.458 52.463 52.488 52.503 52.48 52.44 52.375 52.36 52.32 52.235 52.15 52.063 51.973 51.865 51.77 51.653 51.508 51.308 51.17 50.998 50.828 50.698 50.563 50.47 50.385 50.32 50.263 50.223 50.193 50.138 50.12 50.105
-9999 -9999 -9999 -9999 -9999 -9999 -9999 -9999 -9999 -9999 -9999 -9999 -9999 -9999 -9999 -9999 -9999 -9999 -9999 -9999 -9999 -9999 -9999 -9999 -9999 -9999 -9999 -9999 -9999 -9999 -9999 -9999 -9999 -9999 -9999 -9999 -9999 -9999 -9999 -9999 -9999 -9999 -9999 -9999 -9999 -9999 -9999 -9999 -9999 -9999 -9999 -9999 -9999 -9999 -9999 -9999 -9999 -9999 -9999 -9999 -9999 -9999 -9999 -9999 -9999 -9999 -9999 -9999 -9999 -9999 -9999 -9999 -9999 -9999 -9999 -9999 -9999 -9999 -9999 -9999 -9999 -9999 -9999 -9999 -9999 60.084 60.078 59.826 59.578 59.506 59.456 59.361 59.251 59.151 59.048 58.966 58.896 58.803 58.751 58.646 58.541 58.438 58.391 58.291 58.243 58.191 58.136 58.098 58.066 57.983 57.893 57.776 57.753 57.691 57.613 57.543 57.476 57.426 57.366 57.298 57.256 57.201 57.171 57.103 57.028 56.983 56.993 56.988 56.973 57.028 57.061 57.108 57.226 57.356 57.478 57.586 57.683 57.786 57.871 57.993 58.128 58.266 58.351 58.438 58.548 58.661 58.796 58.921 59.041 59.161 59.313 59.453 59.568 59.763 59.908 60.023 60.093 60.181 60.253 60.356 60.558 60.863 60.988 60.993 61.023 61.418 61.788 62.131 62.403 62.436 62.396 62.401 62.413 62.433 62.461 62.491 62.453 62.481 62.503 62.503 62.518 62.531 62.483 62.423 62.341 62.293 62.221 62.181 62.088 62.006 61.918 61.843 61.718 61.598 61.516 61.426 61.293 61.213 61.098 61.031 60.968 60.881 60.793 60.708 60.638 60.593 60.568 60.436 60.378 60.293 60.243 60.186 60.146 60.076 59.941 59.898 59.866 59.798 59.716 59.571 59.451 59.418 59.398 59.366 59.388 59.371 59.276 59.183 59.171 59.113 59.041 58.946 58.948 58.913 58.878 58.868 58.833 58.828 58.763 58.628 58.511 58.603 58.643 58.601 58.518 58.548 58.516 58.448 58.446 58.388 58.366 58.326 58.228 58.191 58.128 58.103 58.046 58.013 57.963 57.901 57.851 57.808 57.801 57.803 57.753 57.616 57.651 57.608 57.651 57.733 57.641 57.566 57.626 57.683 57.666 57.661 57.676 57.701 57.678 57.703 57.741 57.693 57.733 57.778 57.708 57.693 57.771 57.743 57.653 57.731 57.681 57.606 57.486 57.516 57.398 57.376 57.278 57.268 57.176 57.061 57.078 56.911 56.871 56.846 56.666 56.616 56.468 56.403 56.301 56.176 56.131 55.963 55.841 55.736 55.616 55.588 55.613 55.561 55.456 55.253 54.986 54.808 54.726 54.673 54.641 54.606 54.598 54.576 54.568 54.581 54.581 54.618 54.708 54.786 54.833 54.881 54.963 55.066 55.136 55.218 55.316 55.388 55.423 55.466 55.49 55.538 55.515 55.485 55.453 55.38 55.268 55.133 54.965 54.78 54.605 54.415 54.233 54.04 53.868 53.72 53.588 53.473 53.368 53.255 53.17 53.073 52.973 52.893 52.79 52.705 52.623 52.553 52.498 52.435 52.373 52.338 52.278 52.215 52.115 52.033 51.968 51.878 51.845 51.815 51.768 51.643 51.588 51.578 51.605 51.628 51.64 51.703 51.78 51.783 51.843 51.89 51.878 51.895 51.938 51.99 52.048 52.078 52.083 52.148 52.15 52.153 52.155 52.14 52.193 52.208 52.22 52.223 52.25 52.278 52.238 52.23 52.19 52.138 52.115 52.093 52.02 51.92 51.878 51.76 51.683 51.59 51.47 51.315 51.165 51.003 50.793 50.66 50.52 50.39 50.295 50.22 50.165 50.083 50.02 49.983 49.943 49.92 49.893
-9999 -9999 -9999 -9999 -9999 -9999 -9999 -9999 -9999 -9999 -9999 -9999 -9999 -9999 -9999 -9999 -9999 -9999 -9999 -9999 -9999 -9999 -9999 -9999 -9999 -9999 -9999 -9999 -9999 -9999 -9999 -9999 -9999 -9999 -9999 -9999 -9999 -9999 -9999 -9999 -9999 -9999 -9999 -9999 -9999 -9999 -9999 -9999 -9999 -9999 -9999 -9999 -9999 -9999 -9999 -9999 -9999 -9999 -9999 -9999 -9999 -9999 -9999 -9999 -9999 -9999 -9999 -9999 -9999 -9999 -9999 -9999 -9999 -9999 -9999 -9999 -9999 -9999 -9999 -9999 -9999 -9999 -9999 -9999 -9999 -9999 59.923 59.783 59.701 59.588 59.513 59.401 59.283 59.226 59.136 59.023 58.941 58.836 58.778 58.723 58.558 58.516 58.413 58.328 58.258 58.221 58.151 58.091 58.041 57.913 57.858 57.778 57.738 57.668 57.601 57.536 57.471 57.408 57.331 57.286 57.233 57.176 57.103 57.083 57.036 56.968 56.973 56.913 56.933 56.958 56.966 57.051 57.161 57.223 57.356 57.423 57.543 57.641 57.733 57.873 57.973 58.078 58.206 58.248 58.361 58.473 58.596 58.713 58.843 58.946 59.088 59.236 59.386 59.516 59.681 59.808 59.908 59.966 60.031 60.126 60.278 60.588 60.836 60.903 60.823 61.241 61.666 61.926 62.251 62.393 62.358 62.333 62.351 62.398 62.403 62.423 62.441 62.451 62.431 62.478 62.483 62.458 62.431 62.398 62.341 62.281 62.218 62.138 62.056 61.973 61.928 61.818 61.716 61.621 61.481 61.371 61.288 61.188 61.103 61.046 60.953 60.878 60.778 60.733 60.703 60.641 60.571 60.488 60.436 60.366 60.306 60.191 60.141 60.096 59.933 59.851 59.781 59.701 59.546 59.453 59.458 59.428 59.416 59.406 59.371 59.351 59.293 59.166 59.066 59.046 59.003 58.928 58.871 58.888 58.863 58.853 58.813 58.833 58.773 58.608 58.413 58.546 58.663 58.576 58.491 58.526 58.523 58.456 58.456 58.386 58.358 58.301 58.211 58.206 58.126 58.108 58.033 57.991 57.966 57.888 57.823 57.806 57.846 57.818 57.781 57.618 57.663 57.616 57.641 57.691 57.651 57.596 57.641 57.741 57.698 57.688 57.693 57.673 57.693 57.728 57.746 57.698 57.731 57.773 57.711 57.688 57.748 57.723 57.683 57.678 57.666 57.588 57.468 57.518 57.393 57.408 57.283 57.266 57.148 57.061 57.063 56.913 56.876 56.843 56.703 56.646 56.493 56.423 56.321 56.216 56.176 55.988 55.898 55.806 55.636 55.633 55.661 55.578 55.411 55.261 55.003 54.876 54.836 54.751 54.698 54.686 54.668 54.678 54.696 54.681 54.713 54.763 54.831 54.916 54.973 54.988 55.106 55.223 55.281 55.368 55.441 55.508 55.518 55.578 55.618 55.638 55.615 55.553 55.498 55.403 55.283 55.108 54.935 54.685 54.463 54.295 54.115 53.953 53.798 53.613 53.483 53.368 53.26 53.158 53.035 52.958 52.85 52.773 52.69 52.568 52.51 52.448 52.385 52.318 52.258 52.243 52.198 52.135 52.05 51.968 51.863 51.803 51.768 51.743 51.67 51.585 51.523 51.495 51.51 51.538 51.565 51.623 51.663 51.693 51.725 51.763 51.783 51.793 51.848 51.878 51.913 51.945 51.973 51.988 51.985 52.003 51.99 51.975 51.953 51.963 52.018 52.048 52.04 52.018 52 51.988 51.96 51.908 51.863 51.855 51.805 51.72 51.635 51.568 51.485 51.345 51.26 51.085 50.948 50.77 50.615 50.43 50.333 50.205 50.09 50 49.955 49.873 49.813 49.78 49.748 49.728 49.675
-9999 -9999 -9999 -9999 -9999 -9999 -9999 -9999 -9999 -9999 -9999 -9999 -9999 -9999 -9999 -9999 -9999 -9999 -9999 -9999 -9999 -9999 -9999 -9999 -9999 -9999 -9999 -9999 -9999 -9999 -9999 -9999 -9999 -9999 -9999 -9999 -9999 -9999 -9999 -9999 -9999 -9999 -9999 -9999 -9999 -9999 -9999 -9999 -9999 -9999 -9999 -9999 -9999 -9999 -9999 -9999 -9999 -9999 -9999 -9999 -9999 -9999 -9999 -9999 -9999 -9999 -9999 -9999 -9999 -9999 -9999 -9999 -9999 -9999 -9999 -9999 -9999 -9999 -9999 -9999 -9999 -9999 -9999 -9999 -9999 -9999 59.867 59.793 59.753 59.641 59.551 59.391 59.348 59.268 59.221 59.111 58.966 58.883 58.853 58.758 58.638 58.551 58.456 58.363 58.298 58.248 58.191 58.098 57.998 57.883 57.851 57.768 57.718 57.646 57.596 57.513 57.448 57.408 57.323 57.278 57.206 57.128 57.091 57.086 57.011 56.953 56.916 56.858 56.863 56.861 56.871 56.931 57.018 57.096 57.231 57.293 57.426 57.533 57.626 57.713 57.806 57.903 58.008 58.086 58.188 58.358 58.436 58.541 58.648 58.778 58.901 59.038 59.191 59.333 59.498 59.591 59.706 59.786 59.851 59.948 60.013 60.308 60.661 60.758 60.771 61.058 61.443 61.691 62.081 62.306 62.316 62.303 62.303 62.301 62.316 62.373 62.381 62.381 62.391 62.418 62.416 62.418 62.423 62.358 62.308 62.278 62.191 62.081 62.016 61.938 61.851 61.796 61.688 61.571 61.448 61.346 61.268 61.181 61.106 61.048 60.968 60.871 60.823 60.773 60.713 60.638 60.588 60.506 60.441 60.376 60.298 60.226 60.116 60.011 59.833 59.731 59.663 59.601 59.551 59.501 59.491 59.498 59.443 59.388 59.361 59.323 59.241 59.121 59.048 59.043 59.008 58.956 58.833 58.866 58.863 58.846 58.838 58.831 58.791 58.661 58.483 58.513 58.631 58.563 58.501 58.501 58.518 58.453 58.428 58.381 58.368 58.296 58.233 58.216 58.126 58.078 58.028 57.986 57.951 57.916 57.843 57.788 57.798 57.826 57.803 57.673 57.658 57.643 57.648 57.703 57.696 57.613 57.653 57.723 57.711 57.703 57.711 57.696 57.691 57.718 57.756 57.696 57.761 57.738 57.698 57.661 57.723 57.746 57.673 57.668 57.621 57.528 57.446 57.461 57.366 57.396 57.268 57.281 57.138 57.103 57.086 56.913 56.903 56.856 56.713 56.658 56.498 56.411 56.318 56.228 56.173 56.006 55.923 55.828 55.678 55.691 55.698 55.621 55.493 55.293 55.043 54.951 54.926 54.843 54.786 54.761 54.771 54.781 54.793 54.778 54.808 54.856 54.966 55.018 55.103 55.158 55.228 55.321 55.393 55.448 55.518 55.591 55.638 55.646 55.67 55.67 55.625 55.575 55.493 55.39 55.24 55.058 54.84 54.603 54.395 54.22 54.008 53.79 53.655 53.493 53.37 53.26 53.13 53.035 52.933 52.84 52.763 52.693 52.575 52.488 52.423 52.358 52.288 52.243 52.183 52.143 52.1 52.058 51.97 51.855 51.795 51.725 51.695 51.663 51.573 51.528 51.425 51.388 51.428 51.468 51.49 51.528 51.608 51.635 51.655 51.678 51.685 51.695 51.71 51.76 51.785 51.803 51.823 51.83 51.855 51.853 51.825 51.773 51.748 51.753 51.808 51.813 51.8 51.78 51.743 51.728 51.713 51.675 51.645 51.628 51.593 51.488 51.415 51.355 51.223 51.145 51.025 50.883 50.743 50.57 50.415 50.223 50.11 50.01 49.923 49.815 49.768 49.71 49.615 49.568 49.543 49.518 49.49
-9999 -9999 -9999 -9999 -9999 -9999 -9999 -9999 -9999 -9999 -9999 -9999 -9999 -9999 -9999 -9999 -9999 -9999 -9999 -9999 -9999 -9999 -9999 -9999 -9999 -9999 -9999 -9999 -9999 -9999 -9999 -9999 -9999 -9999 -9999 -9999 -9999 -9999 -9999 -9999 -9999 -9999 -9999 -9999 -9999 -9999 -9999 -9999 -9999 -9999 -9999 -9999 -9999 -9999 -9999 -9999 -9999 -9999 -9999 -9999 -9999 -9999 -9999 -9999 -9999 -9999 -9999 -9999 -9999 -9999 -9999 -9999 -9999 -9999 -9999 -9999 -9999 -9999 -9999 -9999 -9999 -9999 -9999 -9999 -9999 -9999 -9999 59.858 59.808 59.676 59.523 59.466 59.393 59.303 59.226 59.143 59.033 58.988 58.886 58.783 58.678 58.581 58.496 58.413 58.353 58.268 58.166 58.096 57.968 57.908 57.838 57.778 57.696 57.628 57.568 57.496 57.443 57.398 57.331 57.258 57.226 57.138 57.116 57.053 56.986 56.926 56.863 56.803 56.793 56.828 56.836 56.876 56.926 56.996 57.101 57.213 57.306 57.406 57.481 57.561 57.651 57.746 57.846 57.936 58.058 58.158 58.233 58.343 58.428 58.578 58.683 58.828 58.988 59.128 59.261 59.371 59.478 59.556 59.653 59.756 59.863 60.103 60.546 60.651 60.673 61.008 61.276 61.513 61.856 62.178 62.266 62.248 62.216 62.236 62.261 62.303 62.338 62.381 62.333 62.366 62.373 62.388 62.368 62.348 62.273 62.203 62.121 62.051 61.983 61.903 61.833 61.758 61.626 61.533 61.408 61.348 61.291 61.221 61.118 61.041 60.996 60.926 60.868 60.838 60.736 60.676 60.618 60.506 60.401 60.298 60.266 60.158 59.946 59.798 59.778 59.728 59.653 59.626 59.576 59.511 59.466 59.448 59.383 59.363 59.251 59.253 59.201 59.113 59.023 59.008 58.986 58.956 58.836 58.866 58.891 58.836 58.853 58.846 58.796 58.743 58.596 58.518 58.631 58.581 58.503 58.516 58.511 58.446 58.448 58.378 58.376 58.308 58.228 58.183 58.126 58.103 58.028 57.981 57.953 57.878 57.816 57.771 57.803 57.811 57.833 57.696 57.656 57.666 57.656 57.751 57.703 57.663 57.668 57.751 57.718 57.726 57.733 57.703 57.696 57.726 57.751 57.688 57.753 57.716 57.693 57.653 57.716 57.671 57.653 57.656 57.616 57.528 57.411 57.446 57.348 57.363 57.266 57.273 57.136 57.083 57.073 56.901 56.918 56.881 56.691 56.668 56.501 56.438 56.328 56.248 56.196 56.036 55.973 55.858 55.711 55.768 55.761 55.691 55.578 55.266 55.091 55.018 54.971 54.923 54.881 54.861 54.851 54.878 54.891 54.903 54.931 54.961 55.066 55.138 55.193 55.271 55.351 55.423 55.486 55.533 55.603 55.641 55.681 55.688 55.688 55.668 55.62 55.55 55.458 55.29 55.138 54.963 54.728 54.505 54.283 54.088 53.868 53.683 53.533 53.425 53.26 53.14 53.013 52.908 52.81 52.725 52.658 52.575 52.49 52.413 52.345 52.265 52.18 52.148 52.09 52.07 52 51.945 51.878 51.8 51.713 51.635 51.598 51.56 51.498 51.438 51.36 51.333 51.343 51.358 51.418 51.47 51.505 51.535 51.558 51.57 51.565 51.608 51.62 51.623 51.665 51.66 51.69 51.703 51.685 51.66 51.638 51.605 51.575 51.54 51.563 51.573 51.56 51.54 51.505 51.498 51.495 51.45 51.415 51.393 51.323 51.248 51.19 51.118 51.013 50.938 50.82 50.673 50.55 50.37 50.24 50.063 49.928 49.823 49.708 49.613 49.558 49.49 49.425 49.385 49.323 49.31 49.295
-9999 -9999 -9999 -9999 -9999 -9999 -9999 -9999 -9999 -9999 -9999 -9999 -9999 -9999 -9999 -9999 -9999 -9999 -9999 -9999 -9999 -9999 -9999 -9999 -9999 -9999 -9999 -9999 -9999 -9999 -9999 -9999 -9999 -9999 -9999 -9999 -9999 -9999 -9999 -9999 -9999 -9999 -9999 -9999 -9999 -9999 -9999 -9999 -9999 -9999 -9999 -9999 -9999 -9999 -9999 -9999 -9999 -9999 -9999 -9999 -9999 -9999 -9999 -9999 -9999 -9999 -9999 -9999 -9999 -9999 -9999 -9999 -9999 -9999 -9999 -9999 -9999 -9999 -9999 -9999 -9999 -9999 -9999 -9999 -9999 -9999 -9999 -9999 59.828 59.696 59.561 59.518 59.483 59.356 59.256 59.186 59.088 59.036 58.908 58.866 58.743 58.653 58.558 58.468 58.363 58.258 58.183 58.066 57.983 57.908 57.813 57.771 57.721 57.621 57.556 57.481 57.436 57.396 57.331 57.266 57.236 57.176 57.113 57.058 56.961 56.886 56.826 56.778 56.753 56.773 56.773 56.813 56.823 56.871 56.986 57.086 57.143 57.203 57.266 57.388 57.473 57.561 57.691 57.803 57.908 57.983 58.071 58.146 58.241 58.361 58.461 58.606 58.768 58.878 59.006 59.191 59.278 59.396 59.478 59.558 59.681 59.908 60.341 60.508 60.578 60.628 60.988 61.353 61.638 62.041 62.188 62.193 62.186 62.196 62.193 62.236 62.273 62.293 62.288 62.336 62.306 62.316 62.328 62.296 62.216 62.176 62.108 62.006 61.938 61.851 61.791 61.701 61.618 61.516 61.438 61.383 61.296 61.221 61.171 61.103 61.023 60.926 60.883 60.811 60.741 60.706 60.593 60.436 60.268 60.173 60.066 59.981 59.916 59.836 59.803 59.763 59.668 59.628 59.551 59.463 59.406 59.338 59.333 59.313 59.256 59.213 59.188 59.126 59.038 58.976 59.001 58.931 58.856 58.866 58.891 58.831 58.858 58.848 58.793 58.773 58.643 58.506 58.631 58.588 58.528 58.516 58.483 58.441 58.441 58.388 58.376 58.296 58.201 58.198 58.098 58.086 58.011 57.983 57.933 57.886 57.833 57.808 57.821 57.823 57.843 57.728 57.668 57.668 57.653 57.721 57.726 57.676 57.711 57.763 57.728 57.728 57.743 57.696 57.688 57.716 57.746 57.721 57.718 57.708 57.671 57.638 57.723 57.668 57.631 57.633 57.571 57.498 57.401 57.411 57.328 57.336 57.241 57.211 57.093 57.076 57.076 56.888 56.933 56.891 56.733 56.693 56.521 56.486 56.353 56.286 56.196 56.031 55.983 55.863 55.753 55.818 55.761 55.628 55.426 55.248 55.153 55.111 55.038 54.966 54.956 54.943 54.968 54.981 55.018 55.003 55.036 55.076 55.166 55.228 55.278 55.343 55.433 55.486 55.543 55.598 55.628 55.666 55.683 55.663 55.633 55.6 55.533 55.448 55.343 55.183 55.035 54.848 54.613 54.415 54.155 53.955 53.753 53.62 53.448 53.313 53.168 53.015 52.91 52.81 52.695 52.615 52.555 52.473 52.405 52.313 52.213 52.163 52.1 52.063 51.983 51.965 51.93 51.885 51.795 51.708 51.66 51.563 51.505 51.473 51.463 51.383 51.293 51.248 51.285 51.293 51.33 51.373 51.423 51.468 51.485 51.51 51.475 51.49 51.508 51.543 51.548 51.548 51.553 51.558 51.553 51.508 51.48 51.435 51.418 51.378 51.36 51.355 51.323 51.328 51.328 51.295 51.283 51.263 51.225 51.185 51.113 51.048 50.975 50.875 50.783 50.723 50.6 50.465 50.34 50.19 50.053 49.88 49.738 49.658 49.515 49.445 49.355 49.3 49.23 49.188 49.128 49.108 49.105
-9999 -9999 -9999 -9999 -9999 -9999 -9999 -9999 -9999 -9999 -9999 -9999 -9999 -9999 -9999 -9999 -9999 -9999 -9999 -9999 -9999 -9999 -9999 -9999 -9999 -9999 -9999 -9999 -9999 -9999 -9999 -9999 -9999 -9999 -9999 -9999 -9999 -9999 -9999 -9999 -9999 -9999 -9999 -9999 -9999 -9999 -9999 -9999 -9999 -9999 -9999 -9999 -9999 -9999 -9999 -9999 -9999 -9999 -9999 -9999 -9999 -9999 -9999 -9999 -9999 -9999 -9999 -9999 -9999 -9999 -9999 -9999 -9999 -9999 -9999 -9999 -9999 -9999 -9999 -9999 -9999 -9999 -9999 -9999 -9999 -9999 -9999 -9999 59.801 59.701 59.606 59.551 59.501 59.431 59.326 59.216 59.138 59.078 58.988 58.851 58.801 58.693 58.578 58.481 58.361 58.243 58.176 58.051 58.008 57.896 57.821 57.746 57.688 57.636 57.566 57.481 57.423 57.368 57.351 57.303 57.248 57.176 57.086 57.021 56.928 56.888 56.831 56.763 56.723 56.713 56.673 56.723 56.748 56.801 56.876 56.951 57.016 57.056 57.131 57.241 57.343 57.411 57.511 57.608 57.748 57.821 57.896 57.963 58.051 58.151 58.261 58.376 58.518 58.646 58.758 58.966 59.096 59.193 59.326 59.378 59.471 59.686 60.058 60.408 60.506 60.491 60.808 61.236 61.458 61.853 62.073 62.148 62.106 62.103 62.146 62.181 62.183 62.233 62.221 62.231 62.241 62.278 62.261 62.243 62.163 62.091 62.043 61.996 61.926 61.798 61.736 61.666 61.586 61.528 61.451 61.418 61.313 61.243 61.183 61.098 60.948 60.843 60.791 60.753 60.658 60.566 60.428 60.241 60.136 60.083 60.046 59.976 59.901 59.831 59.801 59.743 59.681 59.578 59.478 59.398 59.376 59.338 59.331 59.276 59.291 59.163 59.161 59.113 59.048 58.963 58.986 58.931 58.891 58.811 58.871 58.838 58.831 58.818 58.818 58.861 58.706 58.486 58.563 58.566 58.493 58.503 58.473 58.438 58.418 58.381 58.346 58.276 58.201 58.191 58.101 58.083 57.983 57.951 57.963 57.888 57.833 57.793 57.801 57.823 57.836 57.763 57.661 57.673 57.656 57.706 57.748 57.683 57.718 57.771 57.743 57.731 57.711 57.713 57.721 57.731 57.738 57.703 57.713 57.716 57.636 57.601 57.686 57.676 57.593 57.561 57.548 57.471 57.381 57.406 57.303 57.306 57.198 57.218 57.093 57.043 57.036 56.901 56.901 56.863 56.731 56.676 56.506 56.468 56.343 56.308 56.216 56.076 56.008 55.881 55.801 55.826 55.726 55.533 55.368 55.243 55.191 55.163 55.081 55.021 55.006 55.003 55.013 55.091 55.096 55.076 55.138 55.173 55.251 55.318 55.368 55.403 55.513 55.571 55.581 55.621 55.638 55.671 55.656 55.601 55.563 55.503 55.41 55.328 55.213 55.063 54.91 54.703 54.513 54.27 54.02 53.818 53.67 53.485 53.343 53.228 53.06 52.935 52.805 52.705 52.593 52.525 52.448 52.39 52.308 52.218 52.133 52.068 52 51.965 51.895 51.865 51.825 51.78 51.713 51.62 51.545 51.475 51.448 51.42 51.36 51.27 51.228 51.163 51.188 51.235 51.235 51.343 51.395 51.388 51.395 51.418 51.405 51.413 51.428 51.425 51.45 51.438 51.448 51.44 51.415 51.38 51.33 51.308 51.243 51.18 51.195 51.168 51.13 51.14 51.148 51.125 51.095 51.058 51.02 50.98 50.908 50.835 50.78 50.69 50.57 50.523 50.415 50.265 50.15 50.018 49.858 49.71 49.578 49.47 49.358 49.265 49.18 49.128 49.045 49.018 48.97 48.92 48.92
-9999 -9999 -9999 -9999 -9999 -9999 -9999 -9999 -9999 -9999 -9999 -9999 -9999 -9999 -9999 -9999 -9999 -9999 -9999 -9999 -9999 -9999 -9999 -9999 -9999 -9999 -9999 -9999 -9999 -9999 -9999 -9999 -9999 -9999 -9999 -9999 -9999 -9999 -9999 -9999 -9999 -9999 -9999 -9999 -9999 -9999 -9999 -9999 -9999 -9999 -9999 -9999 -9999 -9999 -9999 -9999 -9999 -9999 -9999 -9999 -9999 -9999 -9999 -9999 -9999 -9999 -9999 -9999 -9999 -9999 -9999 -9999 -9999 -9999 -9999 -9999 -9999 -9999 -9999 -9999 -9999 -9999 -9999 -9999 -9999 -9999 -9999 -9999 -9999 59.731 59.688 59.626 59.538 59.466 59.353 59.266 59.181 59.113 59.041 58.951 58.853 58.736 58.623 58.486 58.348 58.308 58.198 58.061 57.986 57.898 57.801 57.738 57.706 57.633 57.588 57.496 57.436 57.388 57.356 57.278 57.191 57.121 57.056 56.976 56.928 56.881 56.806 56.728 56.701 56.651 56.633 56.651 56.691 56.731 56.768 56.813 56.873 56.948 57.018 57.093 57.166 57.236 57.323 57.463 57.533 57.596 57.681 57.753 57.851 57.971 58.051 58.131 58.263 58.421 58.573 58.718 58.896 59.006 59.091 59.181 59.273 59.406 59.806 60.231 60.411 60.448 60.563 61.023 61.353 61.663 61.856 62.003 62.076 62.081 62.086 62.076 62.116 62.168 62.151 62.206 62.213 62.163 62.148 62.156 62.106 62.078 62.031 61.923 61.863 61.773 61.713 61.661 61.606 61.528 61.483 61.406 61.341 61.258 61.176 61.016 60.851 60.698 60.611 60.558 60.446 60.366 60.288 60.236 60.136 60.081 60.036 59.966 59.883 59.811 59.763 59.673 59.631 59.531 59.448 59.403 59.368 59.321 59.296 59.273 59.256 59.178 59.133 59.113 59.061 58.991 58.983 58.943 58.941 58.826 58.856 58.856 58.801 58.801 58.808 58.871 58.743 58.511 58.556 58.576 58.498 58.466 58.473 58.443 58.406 58.358 58.318 58.258 58.191 58.158 58.098 58.066 58.006 57.951 57.946 57.886 57.823 57.773 57.808 57.801 57.828 57.808 57.653 57.698 57.641 57.736 57.771 57.716 57.723 57.796 57.758 57.731 57.711 57.711 57.728 57.731 57.721 57.683 57.673 57.701 57.606 57.613 57.678 57.651 57.573 57.561 57.543 57.426 57.353 57.388 57.288 57.273 57.203 57.178 57.058 57.038 57.016 56.881 56.871 56.851 56.693 56.656 56.513 56.486 56.366 56.296 56.213 56.088 56.041 55.926 55.876 55.853 55.711 55.508 55.328 55.248 55.251 55.218 55.148 55.128 55.118 55.111 55.158 55.183 55.203 55.208 55.226 55.268 55.338 55.416 55.458 55.493 55.541 55.576 55.601 55.618 55.606 55.628 55.583 55.496 55.408 55.343 55.263 55.163 55.048 54.923 54.75 54.558 54.36 54.115 53.875 53.71 53.568 53.375 53.233 53.105 52.963 52.833 52.73 52.628 52.515 52.423 52.355 52.285 52.223 52.11 52.04 51.965 51.89 51.848 51.815 51.785 51.735 51.673 51.595 51.548 51.475 51.385 51.335 51.303 51.26 51.208 51.123 51.11 51.15 51.185 51.195 51.258 51.325 51.305 51.333 51.348 51.335 51.328 51.328 51.333 51.34 51.318 51.345 51.328 51.283 51.245 51.2 51.138 51.073 51.023 51.013 51 50.98 50.973 50.965 50.958 50.933 50.885 50.858 50.805 50.76 50.675 50.593 50.52 50.428 50.335 50.228 50.123 49.983 49.845 49.703 49.543 49.423 49.31 49.193 49.083 49.003 48.975 48.888 48.84 48.783 48.755 48.738
-9999 -9999 -9999 -9999 -9999 -9999 -9999 -9999 -9999 -9999 -9999 -9999 -9999 -9999 -9999 -9999 -9999 -9999 -9999 -9999 -9999 -9999 -9999 -9999 -9999 -9999 -9999 -9999 -9999 -9999 -9999 -9999 -9999 -9999 -9999 -9999 -9999 -9999 -9999 -9999 -9999 -9999 -9999 -9999 -9999 -9999 -9999 -9999 -9999 -9999 -9999 -9999 -9999 -9999 -9999 -9999 -9999 -9999 -9999 -9999 -9999 -9999 -9999 -9999 -9999 -9999 -9999 -9999 -9999 -9999 -9999 -9999 -9999 -9999 -9999 -9999 -9999 -9999 -9999 -9999 -9999 -9999 -9999 -9999 -9999 -9999 -9999 -9999 -9999 -9999 59.721 59.651 59.548 59.473 59.401 59.298 59.236 59.143 59.078 58.978 58.906 58.738 58.613 58.491 58.373 58.318 58.193 58.078 58.003 57.943 57.876 57.811 57.748 57.676 57.621 57.526 57.488 57.416 57.316 57.253 57.193 57.096 57.061 56.976 56.943 56.881 56.761 56.673 56.648 56.633 56.626 56.621 56.598 56.618 56.663 56.701 56.736 56.776 56.883 56.928 56.986 57.076 57.176 57.248 57.333 57.421 57.486 57.556 57.661 57.756 57.853 57.948 58.073 58.211 58.361 58.546 58.691 58.813 58.866 58.981 59.106 59.231 59.601 60.123 60.283 60.326 60.388 60.823 61.261 61.518 61.638 61.781 61.901 61.963 61.978 61.996 62.036 62.063 62.101 62.101 62.096 62.078 62.071 62.061 62.043 62.033 61.951 61.911 61.856 61.786 61.733 61.661 61.591 61.543 61.443 61.363 61.271 61.196 61.086 60.946 60.671 60.558 60.416 60.398 60.363 60.296 60.271 60.228 60.146 60.093 60.048 59.961 59.888 59.761 59.708 59.626 59.568 59.521 59.433 59.388 59.323 59.283 59.241 59.298 59.251 59.181 59.121 59.106 59.078 59.031 58.971 58.936 58.886 58.811 58.821 58.848 58.801 58.771 58.778 58.828 58.738 58.561 58.541 58.531 58.478 58.473 58.443 58.418 58.358 58.333 58.298 58.256 58.161 58.148 58.078 58.053 58.003 57.933 57.911 57.858 57.813 57.773 57.796 57.811 57.803 57.746 57.661 57.703 57.631 57.686 57.776 57.723 57.738 57.796 57.771 57.733 57.696 57.718 57.703 57.716 57.741 57.673 57.668 57.663 57.591 57.583 57.631 57.623 57.553 57.518 57.488 57.413 57.321 57.348 57.253 57.256 57.168 57.158 57.028 57.018 56.953 56.833 56.868 56.806 56.686 56.661 56.498 56.476 56.351 56.313 56.241 56.096 56.048 55.916 55.908 55.913 55.813 55.581 55.443 55.298 55.318 55.276 55.258 55.218 55.216 55.223 55.241 55.271 55.318 55.313 55.328 55.361 55.446 55.483 55.518 55.523 55.541 55.541 55.571 55.573 55.538 55.506 55.428 55.331 55.243 55.178 55.118 55.018 54.905 54.76 54.6 54.42 54.23 54.015 53.803 53.62 53.458 53.3 53.153 53.013 52.853 52.73 52.633 52.548 52.448 52.358 52.293 52.198 52.123 52.04 51.948 51.865 51.795 51.745 51.698 51.678 51.645 51.565 51.54 51.465 51.385 51.29 51.265 51.25 51.23 51.143 51.058 51.05 51.083 51.14 51.143 51.188 51.248 51.275 51.273 51.265 51.253 51.26 51.263 51.238 51.24 51.243 51.24 51.223 51.2 51.143 51.063 51.025 50.945 50.92 50.885 50.893 50.86 50.83 50.833 50.81 50.793 50.725 50.67 50.623 50.57 50.465 50.405 50.34 50.258 50.158 50.07 49.968 49.843 49.688 49.57 49.393 49.285 49.158 49.04 48.933 48.855 48.805 48.72 48.638 48.61 48.588 48.558
-9999 -9999 -9999 -9999 -9999 -9999 -9999 -9999 -9999 -9999 -9999 -9999 -9999 -9999 -9999 -9999 -9999 -9999 -9999 -9999 -9999 -9999 -9999 -9999 -9999 -9999 -9999 -9999 -9999 -9999 -9999 -9999 -9999 -9999 -9999 -9999 -9999 -9999 -9999 -9999 -9999 -9999 -9999 -9999 -9999 -9999 -9999 -9999 -9999 -9999 -9999 -9999 -9999 -9999 -9999 -9999 -9999 -9999 -9999 -9999 -9999 -9999 -9999 -9999 -9999 -9999 -9999 -9999 -9999 -9999 -9999 -9999 -9999 -9999 -9999 -9999 -9999 -9999 -9999 -9999 -9999 -9999 -9999 -9999 -9999 -9999 -9999 -9999 -9999 -9999 59.741 59.643 59.616 59.516 59.441 59.361 59.261 59.188 59.096 59.023 58.891 58.751 58.648 58.533 58.423 58.291 58.196 58.128 58.061 57.988 57.908 57.848 57.748 57.703 57.673 57.588 57.516 57.396 57.336 57.246 57.173 57.101 57.026 56.988 56.913 56.863 56.773 56.708 56.633 56.596 56.576 56.528 56.521 56.518 56.541 56.566 56.606 56.673 56.746 56.781 56.858 56.898 56.983 57.023 57.118 57.211 57.298 57.373 57.423 57.546 57.631 57.761 57.863 57.996 58.173 58.331 58.473 58.601 58.703 58.791 58.906 59.011 59.256 59.868 60.136 60.251 60.248 60.623 60.976 61.326 61.486 61.621 61.753 61.846 61.881 61.918 61.948 61.993 61.991 62.001 62.003 61.978 61.983 62.018 61.991 61.948 61.918 61.863 61.841 61.773 61.751 61.676 61.566 61.483 61.366 61.261 61.116 60.978 60.813 60.713 60.538 60.468 60.418 60.423 60.391 60.328 60.276 60.196 60.103 60.023 59.941 59.871 59.821 59.763 59.661 59.623 59.501 59.521 59.416 59.388 59.328 59.263 59.188 59.268 59.211 59.171 59.098 59.093 59.053 59.013 58.951 58.956 58.903 58.846 58.796 58.821 58.806 58.771 58.753 58.811 58.748 58.476 58.498 58.513 58.476 58.441 58.431 58.418 58.403 58.343 58.293 58.248 58.161 58.136 58.063 58.048 57.983 57.936 57.928 57.873 57.808 57.768 57.778 57.803 57.801 57.793 57.653 57.703 57.656 57.693 57.766 57.721 57.721 57.771 57.748 57.728 57.711 57.723 57.718 57.706 57.723 57.671 57.688 57.666 57.588 57.578 57.616 57.581 57.506 57.506 57.458 57.331 57.313 57.313 57.203 57.168 57.126 57.116 56.993 56.971 56.926 56.816 56.858 56.768 56.656 56.621 56.483 56.448 56.346 56.301 56.218 56.108 56.066 55.948 55.968 55.946 55.851 55.643 55.483 55.431 55.391 55.383 55.353 55.338 55.341 55.353 55.373 55.421 55.451 55.433 55.421 55.448 55.516 55.548 55.571 55.546 55.531 55.523 55.516 55.473 55.396 55.353 55.286 55.203 55.115 55.01 54.915 54.815 54.705 54.583 54.433 54.253 54.05 53.863 53.68 53.528 53.37 53.213 53.065 52.928 52.768 52.633 52.56 52.473 52.355 52.293 52.223 52.133 52.023 51.95 51.845 51.77 51.695 51.645 51.608 51.598 51.553 51.505 51.453 51.368 51.29 51.21 51.173 51.163 51.168 51.075 50.995 50.978 51.025 51.073 51.08 51.168 51.19 51.233 51.228 51.238 51.178 51.185 51.185 51.163 51.173 51.16 51.14 51.133 51.11 51.043 50.975 50.908 50.85 50.8 50.773 50.758 50.748 50.7 50.68 50.685 50.63 50.57 50.523 50.478 50.385 50.338 50.26 50.168 50.113 50.013 49.9 49.823 49.713 49.56 49.423 49.263 49.128 49.013 48.888 48.778 48.703 48.633 48.56 48.51 48.455 48.418 48.393
-9999 -9999 -9999 -9999 -9999 -9999 -9999 -9999 -9999 -9999 -9999 -9999 -9999 -9999 -9999 -9999 -9999 -9999 -9999 -9999 -9999 -9999 -9999 -9999 -9999 -9999 -9999 -9999 -9999 -9999 -9999 -9999 -9999 -9999 -9999 -9999 -9999 -9999 -9999 -9999 -9999 -9999 -9999 -9999 -9999 -9999 -9999 -9999 -9999 -9999 -9999 -9999 -9999 -9999 -9999 -9999 -9999 -9999 -9999 -9999 -9999 -9999 -9999 -9999 -9999 -9999 -9999 -9999 -9999 -9999 -9999 -9999 -9999 -9999 -9999 -9999 -9999 -9999 -9999 -9999 -9999 -9999 -9999 -9999 -9999 -9999 -9999 -9999 -9999 -9999 -9999 59.661 59.621 59.548 59.453 59.391 59.298 59.213 59.151 59.056 58.918 58.791 58.693 58.563 58.473 58.331 58.248 58.148 58.063 57.988 57.898 57.838 57.798 57.738 57.673 57.571 57.516 57.413 57.341 57.243 57.181 57.091 56.978 56.966 56.893 56.826 56.778 56.728 56.663 56.556 56.528 56.486 56.446 56.453 56.456 56.508 56.556 56.581 56.603 56.653 56.708 56.778 56.791 56.853 56.916 57.028 57.118 57.201 57.273 57.371 57.476 57.571 57.706 57.818 58.008 58.158 58.288 58.448 58.548 58.623 58.733 58.821 58.958 59.556 59.946 60.126 60.143 60.376 60.803 61.146 61.348 61.491 61.623 61.731 61.763 61.803 61.841 61.888 61.883 61.893 61.918 61.946 61.941 61.931 61.913 61.896 61.878 61.843 61.826 61.788 61.691 61.611 61.486 61.328 61.166 61.051 60.888 60.781 60.703 60.663 60.608 60.516 60.451 60.456 60.391 60.303 60.231 60.153 60.058 59.966 59.878 59.866 59.796 59.781 59.636 59.603 59.516 59.498 59.433 59.351 59.333 59.251 59.223 59.198 59.211 59.171 59.098 59.083 59.053 59.031 58.953 58.913 58.881 58.836 58.756 58.791 58.806 58.776 58.733 58.771 58.821 58.508 58.461 58.516 58.466 58.403 58.448 58.398 58.361 58.316 58.276 58.226 58.131 58.076 58.053 58.041 57.986 57.936 57.928 57.883 57.811 57.761 57.768 57.791 57.781 57.813 57.661 57.708 57.691 57.688 57.743 57.721 57.713 57.748 57.726 57.683 57.693 57.676 57.703 57.681 57.676 57.641 57.643 57.641 57.546 57.541 57.586 57.513 57.493 57.478 57.398 57.288 57.268 57.233 57.178 57.128 57.068 57.063 56.938 56.961 56.893 56.776 56.823 56.738 56.646 56.578 56.461 56.446 56.333 56.311 56.238 56.103 56.068 55.986 56.013 56.001 55.851 55.711 55.586 55.511 55.481 55.451 55.456 55.436 55.426 55.443 55.476 55.521 55.528 55.496 55.488 55.538 55.576 55.606 55.593 55.541 55.476 55.431 55.393 55.336 55.276 55.201 55.116 55.016 54.918 54.825 54.723 54.605 54.505 54.385 54.243 54.088 53.935 53.74 53.56 53.418 53.26 53.123 52.97 52.843 52.708 52.58 52.495 52.403 52.313 52.243 52.153 52.058 51.933 51.838 51.745 51.67 51.61 51.548 51.505 51.49 51.468 51.443 51.36 51.285 51.193 51.125 51.093 51.103 51.118 51.025 50.953 50.938 50.955 51.008 51.015 51.113 51.143 51.148 51.17 51.178 51.15 51.138 51.108 51.09 51.098 51.093 51.095 51.083 51.005 50.945 50.883 50.785 50.733 50.678 50.675 50.665 50.623 50.595 50.55 50.555 50.525 50.46 50.38 50.35 50.278 50.198 50.09 49.995 49.948 49.86 49.773 49.683 49.528 49.405 49.273 49.115 48.995 48.848 48.743 48.65 48.563 48.505 48.4 48.373 48.31 48.268 48.23
-9999 -9999 -9999 -9999 -9999 -9999 -9999 -9999 -9999 -9999 -9999 -9999 -9999 -9999 -9999 -9999 -9999 -9999 -9999 -9999 -9999 -9999 -9999 -9999 -9999 -9999 -9999 -9999 -9999 -9999 -9999 -9999 -9999 -9999 -9999 -9999 -9999 -9999 -9999 -9999 -9999 -9999 -9999 -9999 -9999 -9999 -9999 -9999 -9999 -9999 -9999 -9999 -9999 -9999 -9999 -9999 -9999 -9999 -9999 -9999 -9999 -9999 -9999 -9999 -9999 -9999 -9999 -9999 -9999 -9999 -9999 -9999 -9999 -9999 -9999 -9999 -9999 -9999 -9999 -9999 -9999 -9999 -9999 -9999 -9999 -9999 -9999 -9999 -9999 -9999 -9999 -9999 59.633 59.591 59.476 59.398 59.318 59.241 59.146 59.056 58.951 58.798 58.708 58.606 58.478 58.388 58.281 58.201 58.093 58.031 57.926 57.858 57.833 57.753 57.676 57.588 57.463 57.408 57.298 57.253 57.166 57.096 57.023 56.986 56.916 56.881 56.783 56.728 56.681 56.588 56.521 56.468 56.426 56.383 56.411 56.438 56.491 56.473 56.493 56.546 56.566 56.578 56.623 56.698 56.731 56.798 56.926 56.991 57.078 57.163 57.281 57.381 57.511 57.663 57.848 57.996 58.113 58.271 58.388 58.448 58.533 58.621 58.761 59.196 59.731 59.996 60.108 60.161 60.523 60.943 61.228 61.363 61.488 61.586 61.643 61.706 61.741 61.728 61.778 61.836 61.863 61.876 61.883 61.863 61.841 61.836 61.866 61.831 61.756 61.693 61.603 61.451 61.273 61.123 60.936 60.841 60.796 60.773 60.723 60.648 60.601 60.526 60.468 60.383 60.301 60.241 60.136 60.096 60.031 59.943 59.858 59.818 59.763 59.721 59.611 59.556 59.533 59.481 59.436 59.323 59.343 59.266 59.211 59.181 59.196 59.178 59.111 59.063 59.066 59.008 58.923 58.886 58.868 58.838 58.771 58.766 58.773 58.718 58.721 58.748 58.798 58.503 58.433 58.438 58.418 58.403 58.431 58.368 58.338 58.303 58.273 58.211 58.153 58.108 58.048 58.036 57.993 57.933 57.923 57.868 57.831 57.751 57.753 57.773 57.763 57.798 57.681 57.721 57.683 57.668 57.736 57.716 57.681 57.738 57.693 57.713 57.713 57.646 57.646 57.648 57.658 57.616 57.641 57.603 57.526 57.533 57.571 57.471 57.408 57.333 57.276 57.246 57.218 57.201 57.146 57.108 57.013 57.008 56.891 56.898 56.836 56.728 56.801 56.686 56.606 56.568 56.476 56.446 56.341 56.313 56.236 56.143 56.066 56.023 56.041 56.016 55.888 55.736 55.646 55.568 55.553 55.528 55.538 55.563 55.548 55.593 55.611 55.631 55.636 55.593 55.588 55.573 55.621 55.603 55.553 55.483 55.408 55.326 55.246 55.181 55.101 55.043 54.918 54.816 54.723 54.663 54.56 54.433 54.335 54.213 54.113 53.983 53.808 53.643 53.47 53.323 53.16 53.028 52.883 52.765 52.64 52.518 52.393 52.295 52.228 52.175 52.075 51.975 51.868 51.77 51.67 51.585 51.528 51.473 51.445 51.428 51.385 51.318 51.248 51.173 51.118 51.055 51.035 51.015 51.013 50.955 50.905 50.88 50.903 50.958 50.97 51.03 51.088 51.095 51.103 51.135 51.113 51.058 51.085 51.075 51.03 51.043 51.023 51 50.945 50.913 50.81 50.723 50.65 50.593 50.605 50.573 50.538 50.508 50.45 50.433 50.4 50.343 50.3 50.235 50.138 50.06 49.968 49.883 49.81 49.723 49.643 49.538 49.413 49.285 49.145 48.968 48.855 48.703 48.605 48.518 48.44 48.355 48.288 48.265 48.193 48.16 48.113
-9999 -9999 -9999 -9999 -9999 -9999 -9999 -9999 -9999 -9999 -9999 -9999 -9999 -9999 -9999 -9999 -9999 -9999 -9999 -9999 -9999 -9999 -9999 -9999 -9999 -9999 -9999 -9999 -9999 -9999 -9999 -9999 -9999 -9999 -9999 -9999 -9999 -9999 -9999 -9999 -9999 -9999 -9999 -9999 -9999 -9999 -9999 -9999 -9999 -9999 -9999 -9999 -9999 -9999 -9999 -9999 -9999 -9999 -9999 -9999 -9999 -9999 -9999 -9999 -9999 -9999 -9999 -9999 -9999 -9999 -9999 -9999 -9999 -9999 -9999 -9999 -9999 -9999 -9999 -9999 -9999 -9999 -9999 -9999 -9999 -9999 -9999 -9999 -9999 -9999 -9999 -9999 -9999 59.613 59.498 59.418 59.316 59.208 59.138 59.036 58.941 58.823 58.728 58.651 58.511 58.423 58.328 58.238 58.121 58.051 57.963 57.888 57.831 57.756 57.656 57.551 57.426 57.381 57.281 57.223 57.156 57.106 57.026 56.968 56.918 56.878 56.796 56.726 56.671 56.603 56.526 56.441 56.411 56.393 56.378 56.376 56.373 56.406 56.396 56.436 56.428 56.461 56.476 56.536 56.566 56.606 56.743 56.798 56.903 56.951 57.096 57.231 57.351 57.483 57.668 57.826 57.938 58.081 58.228 58.296 58.406 58.468 58.596 58.908 59.563 59.966 60.021 60.073 60.301 60.738 61.046 61.223 61.336 61.458 61.501 61.571 61.613 61.641 61.716 61.758 61.781 61.821 61.831 61.821 61.803 61.788 61.803 61.711 61.556 61.413 61.341 61.233 61.058 60.953 60.868 60.821 60.773 60.721 60.696 60.646 60.568 60.501 60.373 60.313 60.241 60.201 60.091 60.048 59.951 59.921 59.833 59.771 59.758 59.691 59.638 59.553 59.503 59.423 59.403 59.316 59.276 59.228 59.208 59.156 59.193 59.141 59.088 59.023 59.053 58.983 58.931 58.868 58.843 58.811 58.783 58.726 58.756 58.716 58.718 58.728 58.726 58.483 58.416 58.451 58.418 58.378 58.406 58.371 58.293 58.273 58.261 58.211 58.118 58.098 58.056 58.013 57.931 57.931 57.908 57.861 57.831 57.763 57.743 57.773 57.798 57.821 57.688 57.678 57.648 57.646 57.698 57.698 57.693 57.731 57.718 57.696 57.686 57.641 57.606 57.598 57.621 57.593 57.606 57.573 57.481 57.503 57.548 57.451 57.406 57.353 57.291 57.213 57.171 57.146 57.098 57.058 56.996 56.956 56.826 56.876 56.808 56.703 56.748 56.668 56.571 56.516 56.458 56.406 56.321 56.341 56.201 56.168 56.063 56.041 56.066 55.998 55.878 55.776 55.683 55.631 55.583 55.633 55.661 55.668 55.671 55.678 55.733 55.758 55.753 55.698 55.663 55.613 55.573 55.548 55.483 55.418 55.301 55.196 55.106 55.016 54.906 54.828 54.726 54.603 54.54 54.438 54.353 54.23 54.17 54.06 53.923 53.8 53.668 53.523 53.343 53.193 53.04 52.935 52.823 52.69 52.57 52.445 52.323 52.253 52.173 52.065 51.998 51.933 51.815 51.693 51.618 51.515 51.443 51.398 51.375 51.355 51.293 51.233 51.175 51.093 51.038 50.968 50.95 50.95 50.96 50.883 50.823 50.828 50.855 50.915 50.95 50.973 51.025 51.055 51.08 51.083 51.058 51.035 51.025 51.02 50.993 50.985 50.955 50.943 50.89 50.82 50.723 50.643 50.575 50.528 50.5 50.455 50.44 50.4 50.378 50.358 50.31 50.243 50.168 50.088 50.03 49.953 49.84 49.775 49.693 49.618 49.523 49.43 49.28 49.145 49.01 48.838 48.745 48.615 48.488 48.373 48.32 48.255 48.18 48.12 48.078 48.055 48.008
-9999 -9999 -9999 -9999 -9999 -9999 -9999 -9999 -9999 -9999 -9999 -9999 -9999 -9999 -9999 -9999 -9999 -9999 -9999 -9999 -9999 -9999 -9999 -9999 -9999 -9999 -9999 -9999 -9999 -9999 -9999 -9999 -9999 -9999 -9999 -9999 -9999 -9999 -9999 -9999 -9999 -9999 -9999 -9999 -9999 -9999 -9999 -9999 -9999 -9999 -9999 -9999 -9999 -9999 -9999 -9999 -9999 -9999 -9999 -9999 -9999 -9999 -9999 -9999 -9999 -9999 -9999 -9999 -9999 -9999 -9999 -9999 -9999 -9999 -9999 -9999 -9999 -9999 -9999 -9999 -9999 -9999 -9999 -9999 -9999 -9999 -9999 -9999 -9999 -9999 -9999 -9999 -9999 59.581 59.486 59.406 59.326 59.233 59.111 59.018 58.958 58.843 58.766 58.678 58.581 58.468 58.381 58.246 58.151 58.043 57.958 57.886 57.826 57.716 57.621 57.558 57.458 57.391 57.323 57.211 57.166 57.096 57.013 56.981 56.926 56.866 56.793 56.691 56.646 56.588 56.576 56.478 56.438 56.383 56.333 56.328 56.308 56.313 56.291 56.303 56.306 56.288 56.321 56.353 56.416 56.491 56.571 56.643 56.726 56.813 56.943 57.071 57.206 57.306 57.493 57.658 57.788 57.916 58.073 58.188 58.251 58.321 58.398 58.693 59.356 59.836 59.926 59.958 60.058 60.413 60.786 61.053 61.196 61.316 61.408 61.478 61.511 61.561 61.598 61.616 61.728 61.786 61.771 61.726 61.708 61.718 61.648 61.411 61.198 61.101 61.103 61.051 60.991 60.906 60.848 60.798 60.748 60.666 60.613 60.566 60.486 60.408 60.293 60.221 60.183 60.133 60.083 59.983 59.923 59.868 59.801 59.726 59.713 59.673 59.611 59.526 59.461 59.428 59.368 59.328 59.276 59.228 59.173 59.166 59.111 59.141 59.088 59.016 59.033 58.978 58.911 58.836 58.808 58.793 58.761 58.688 58.741 58.703 58.713 58.698 58.691 58.568 58.418 58.443 58.423 58.391 58.396 58.343 58.288 58.258 58.241 58.203 58.118 58.103 58.031 58.008 57.953 57.903 57.893 57.858 57.818 57.753 57.723 57.773 57.781 57.781 57.658 57.631 57.648 57.613 57.668 57.671 57.691 57.736 57.713 57.668 57.656 57.618 57.573 57.568 57.593 57.543 57.541 57.528 57.448 57.448 57.488 57.406 57.403 57.381 57.321 57.198 57.141 57.123 57.073 57.003 56.958 56.901 56.801 56.823 56.746 56.683 56.706 56.611 56.576 56.501 56.436 56.371 56.301 56.321 56.183 56.141 56.048 56.081 56.068 55.858 55.741 55.778 55.718 55.676 55.653 55.711 55.751 55.743 55.803 55.833 55.876 55.888 55.843 55.793 55.703 55.616 55.556 55.446 55.401 55.283 55.176 55.013 54.908 54.826 54.711 54.603 54.496 54.418 54.333 54.265 54.185 54.068 53.983 53.888 53.788 53.65 53.538 53.398 53.24 53.098 52.958 52.848 52.745 52.615 52.475 52.393 52.288 52.193 52.103 52.033 51.953 51.85 51.763 51.633 51.55 51.498 51.393 51.308 51.263 51.23 51.188 51.143 51.073 51.015 50.965 50.89 50.888 50.918 50.96 50.873 50.788 50.768 50.818 50.848 50.883 50.945 50.99 51.018 51.045 51.038 51.035 51.005 50.985 50.97 50.97 50.958 50.928 50.895 50.84 50.768 50.678 50.59 50.503 50.463 50.44 50.393 50.373 50.328 50.298 50.283 50.225 50.138 50.115 50.028 49.95 49.853 49.74 49.655 49.568 49.48 49.42 49.33 49.178 49.035 48.918 48.753 48.623 48.495 48.38 48.28 48.225 48.158 48.083 48.025 47.99 47.93 47.9
-9999 -9999 -9999 -9999 -9999 -9999 -9999 -9999 -9999 -9999 -9999 -9999 -9999 -9999 -9999 -9999 -9999 -9999 -9999 -9999 -9999 -9999 -9999 -9999 -9999 -9999 -9999 -9999 -9999 -9999 -9999 -9999 -9999 -9999 -9999 -9999 -9999 -9999 -9999 -9999 -9999 -9999 -9999 -9999 -9999 -9999 -9999 -9999 -9999 -9999 -9999 -9999 -9999 -9999 -9999 -9999 -9999 -9999 -9999 -9999 -9999 -9999 -9999 -9999 -9999 -9999 -9999 -9999 -9999 -9999 -9999 -9999 -9999 -9999 -9999 -9999 -9999 -9999 -9999 -9999 -9999 -9999 -9999 -9999 -9999 -9999 -9999 -9999 -9999 -9999 -9999 -9999 -9999 -9999 59.494 59.393 59.296 59.248 59.123 59.051 59.018 58.913 58.771 58.721 58.613 58.493 58.378 58.268 58.148 58.028 57.951 57.871 57.798 57.706 57.646 57.533 57.476 57.413 57.331 57.211 57.141 57.101 57.056 56.998 56.941 56.846 56.796 56.723 56.683 56.603 56.561 56.516 56.441 56.371 56.328 56.243 56.203 56.211 56.206 56.206 56.213 56.206 56.221 56.231 56.261 56.353 56.436 56.488 56.561 56.636 56.771 56.896 57.046 57.128 57.298 57.483 57.606 57.763 57.936 58.068 58.133 58.181 58.236 58.426 58.988 59.516 59.786 59.871 59.901 60.141 60.608 60.956 61.053 61.183 61.276 61.363 61.431 61.471 61.496 61.526 61.591 61.681 61.641 61.613 61.463 61.356 61.216 61.111 61.071 61.051 61.016 60.986 60.928 60.858 60.821 60.763 60.696 60.581 60.511 60.448 60.451 60.361 60.273 60.146 60.141 60.086 60.056 59.938 59.928 59.813 59.778 59.681 59.666 59.626 59.593 59.521 59.421 59.403 59.318 59.313 59.253 59.223 59.141 59.146 59.078 59.098 59.056 59.008 58.983 58.963 58.893 58.843 58.806 58.786 58.768 58.683 58.703 58.693 58.691 58.696 58.733 58.621 58.466 58.421 58.398 58.366 58.373 58.336 58.283 58.248 58.228 58.198 58.101 58.116 58.018 57.988 57.951 57.888 57.896 57.863 57.808 57.753 57.726 57.763 57.773 57.778 57.693 57.633 57.663 57.603 57.631 57.671 57.661 57.698 57.676 57.651 57.616 57.573 57.573 57.556 57.568 57.496 57.478 57.443 57.381 57.398 57.431 57.343 57.336 57.326 57.323 57.256 57.153 57.086 57.046 56.958 56.913 56.856 56.758 56.758 56.698 56.651 56.656 56.598 56.548 56.426 56.398 56.343 56.273 56.281 56.183 56.131 56.058 56.091 56.043 55.961 55.846 55.808 55.731 55.738 55.751 55.793 55.821 55.843 55.931 55.986 56.021 56.006 55.956 55.848 55.738 55.653 55.546 55.398 55.286 55.128 54.971 54.821 54.701 54.611 54.493 54.426 54.313 54.221 54.146 54.103 53.981 53.903 53.836 53.746 53.643 53.531 53.428 53.288 53.126 52.983 52.871 52.758 52.656 52.543 52.426 52.321 52.213 52.156 52.088 51.986 51.886 51.788 51.703 51.583 51.513 51.396 51.303 51.223 51.188 51.153 51.126 51.096 51.028 50.961 50.886 50.856 50.816 50.861 50.866 50.801 50.738 50.733 50.768 50.806 50.841 50.881 50.938 50.986 51.015 51.013 50.975 50.923 50.923 50.943 50.933 50.908 50.888 50.818 50.778 50.728 50.633 50.55 50.473 50.418 50.388 50.328 50.3 50.278 50.25 50.21 50.16 50.093 50.015 49.953 49.868 49.77 49.643 49.548 49.475 49.383 49.285 49.213 49.045 48.93 48.808 48.643 48.51 48.415 48.29 48.208 48.145 48.09 48.01 47.963 47.903 47.83 47.8
-9999 -9999 -9999 -9999 -9999 -9999 -9999 -9999 -9999 -9999 -9999 -9999 -9999 -9999 -9999 -9999 -9999 -9999 -9999 -9999 -9999 -9999 -9999 -9999 -9999 -9999 -9999 -9999 -9999 -9999 -9999 -9999 -9999 -9999 -9999 -9999 -9999 -9999 -9999 -9999 -9999 -9999 -9999 -9999 -9999 -9999 -9999 -9999 -9999 -9999 -9999 -9999 -9999 -9999 -9999 -9999 -9999 -9999 -9999 -9999 -9999 -9999 -9999 -9999 -9999 -9999 -9999 -9999 -9999 -9999 -9999 -9999 -9999 -9999 -9999 -9999 -9999 -9999 -9999 -9999 -9999 -9999 -9999 -9999 -9999 -9999 -9999 -9999 -9999 -9999 -9999 -9999 -9999 -9999 -9999 59.374 59.328 59.231 59.141 59.073 59.031 58.923 58.818 58.728 58.646 58.536 58.426 58.288 58.176 58.043 57.971 57.868 57.816 57.713 57.651 57.531 57.443 57.401 57.308 57.188 57.176 57.113 57.058 57.011 56.926 56.856 56.811 56.748 56.693 56.611 56.571 56.493 56.426 56.331 56.288 56.251 56.201 56.168 56.158 56.108 56.138 56.156 56.118 56.133 56.161 56.228 56.266 56.326 56.398 56.491 56.576 56.741 56.853 56.973 57.123 57.286 57.461 57.636 57.796 57.906 57.978 58.078 58.118 58.216 58.651 59.278 59.736 59.786 59.818 59.943 60.286 60.781 60.963 61.046 61.176 61.268 61.366 61.426 61.451 61.473 61.463 61.408 61.326 61.226 61.121 61.088 61.048 61.031 61.016 60.983 60.946 60.921 60.871 60.778 60.743 60.656 60.603 60.531 60.471 60.358 60.361 60.303 60.251 60.108 60.088 60.008 59.991 59.891 59.838 59.783 59.698 59.703 59.603 59.586 59.511 59.491 59.411 59.373 59.306 59.288 59.261 59.211 59.126 59.081 59.066 59.038 59.031 58.978 58.931 58.953 58.878 58.823 58.761 58.773 58.718 58.658 58.641 58.681 58.666 58.656 58.736 58.696 58.351 58.438 58.378 58.328 58.353 58.321 58.286 58.231 58.198 58.198 58.086 58.046 57.978 57.971 57.941 57.858 57.883 57.866 57.821 57.756 57.728 57.761 57.748 57.743 57.661 57.626 57.658 57.581 57.618 57.626 57.623 57.681 57.628 57.611 57.588 57.521 57.516 57.503 57.511 57.463 57.461 57.406 57.326 57.358 57.416 57.386 57.236 57.316 57.388 57.306 57.141 57.066 57.041 56.958 56.916 56.843 56.748 56.753 56.663 56.593 56.598 56.516 56.496 56.386 56.363 56.306 56.256 56.248 56.186 56.116 56.078 56.093 56.068 56.016 55.886 55.801 55.761 55.763 55.821 55.898 55.921 55.983 56.041 56.106 56.138 56.131 56.053 55.918 55.751 55.641 55.506 55.326 55.151 54.983 54.793 54.653 54.516 54.401 54.313 54.213 54.116 54.051 53.976 53.901 53.828 53.741 53.676 53.578 53.493 53.411 53.311 53.193 53.038 52.928 52.803 52.693 52.578 52.496 52.373 52.238 52.176 52.103 52.026 51.926 51.841 51.733 51.636 51.511 51.421 51.316 51.211 51.156 51.113 51.078 51.061 51.018 50.953 50.898 50.871 50.803 50.793 50.823 50.858 50.798 50.703 50.686 50.736 50.786 50.808 50.853 50.916 50.946 50.975 50.99 50.955 50.94 50.92 50.905 50.898 50.855 50.828 50.758 50.735 50.65 50.595 50.523 50.45 50.373 50.33 50.313 50.27 50.238 50.205 50.168 50.123 50.018 49.95 49.88 49.798 49.703 49.57 49.463 49.368 49.298 49.193 49.075 48.943 48.83 48.688 48.538 48.423 48.33 48.203 48.133 48.07 48.005 47.94 47.858 47.818 47.773 47.745
-9999 -9999 -9999 -9999 -9999 -9999 -9999 -9999 -9999 -9999 -9999 -9999 -9999 -9999 -9999 -9999 -9999 -9999 -9999 -9999 -9999 -9999 -9999 -9999 -9999 -9999 -9999 -9999 -9999 -9999 -9999 -9999 -9999 -9999 -9999 -9999 -9999 -9999 -9999 -9999 -9999 -9999 -9999 -9999 -9999 -9999 -9999 -9999 -9999 -9999 -9999 -9999 -9999 -9999 -9999 -9999 -9999 -9999 -9999 -9999 -9999 -9999 -9999 -9999 -9999 -9999 -9999 -9999 -9999 -9999 -9999 -9999 -9999 -9999 -9999 -9999 -9999 -9999 -9999 -9999 -9999 -9999 -9999 -9999 -9999 -9999 -9999 -9999 -9999 -9999 -9999 -9999 -9999 -9999 -9999 -9999 59.271 59.213 59.143 59.118 59.056 58.956 58.841 58.763 58.678 58.563 58.441 58.281 58.158 58.018 57.951 57.891 57.801 57.711 57.633 57.551 57.463 57.398 57.293 57.208 57.171 57.103 57.058 56.938 56.928 56.886 56.823 56.771 56.706 56.651 56.576 56.488 56.398 56.326 56.268 56.231 56.188 56.108 56.093 56.063 56.051 56.061 56.063 56.068 56.051 56.098 56.148 56.226 56.306 56.356 56.433 56.573 56.703 56.833 56.966 57.151 57.338 57.486 57.638 57.746 57.821 57.906 57.988 58.061 58.316 58.986 59.483 59.661 59.658 59.701 60.021 60.553 60.796 60.916 61.081 61.213 61.303 61.311 61.333 61.226 61.158 61.043 60.978 60.958 60.971 60.986 61.003 60.956 60.966 60.938 60.863 60.773 60.763 60.691 60.603 60.568 60.518 60.468 60.396 60.301 60.221 60.241 60.178 60.083 60.033 59.993 59.933 59.893 59.791 59.788 59.663 59.658 59.608 59.533 59.496 59.483 59.413 59.346 59.313 59.238 59.241 59.163 59.116 59.093 59.036 58.996 59.006 58.981 58.911 58.906 58.858 58.821 58.736 58.723 58.701 58.656 58.611 58.633 58.621 58.646 58.731 58.563 58.333 58.368 58.376 58.331 58.316 58.296 58.241 58.218 58.176 58.161 58.063 58.026 57.973 57.946 57.916 57.843 57.858 57.853 57.793 57.743 57.703 57.741 57.733 57.718 57.681 57.596 57.648 57.571 57.606 57.641 57.633 57.666 57.596 57.576 57.521 57.471 57.466 57.453 57.471 57.401 57.388 57.361 57.273 57.321 57.351 57.348 57.193 57.186 57.323 57.253 57.078 56.981 56.988 56.943 56.886 56.841 56.741 56.716 56.643 56.576 56.533 56.463 56.416 56.343 56.336 56.261 56.246 56.223 56.143 56.071 56.103 56.091 56.068 56.011 55.846 55.798 55.776 55.813 55.893 55.971 56.018 56.078 56.146 56.211 56.241 56.241 56.146 55.991 55.761 55.568 55.433 55.243 55.051 54.808 54.648 54.471 54.336 54.216 54.146 54.018 53.926 53.858 53.791 53.716 53.673 53.578 53.526 53.421 53.358 53.268 53.166 53.066 52.933 52.833 52.741 52.633 52.516 52.433 52.293 52.208 52.123 52.048 51.988 51.896 51.823 51.701 51.573 51.458 51.333 51.221 51.163 51.086 51.016 51.001 50.996 50.951 50.896 50.836 50.813 50.761 50.716 50.793 50.841 50.748 50.678 50.666 50.713 50.773 50.798 50.858 50.911 50.911 50.92 50.92 50.923 50.92 50.905 50.895 50.873 50.818 50.783 50.735 50.693 50.638 50.575 50.515 50.435 50.35 50.323 50.265 50.223 50.185 50.155 50.108 50.058 49.97 49.918 49.805 49.735 49.605 49.475 49.385 49.273 49.193 49.093 48.998 48.858 48.725 48.615 48.435 48.34 48.253 48.145 48.045 47.993 47.938 47.883 47.805 47.75 47.7 47.678
