ncols 441
nrows 32
xllcorner    425018
yllcorner    488836
cellsize     2
NODATA_value -9999
47.493 47.438 47.408 47.408 47.355 47.308 47.293 47.328 47.275 47.238 47.225 47.24 47.23 47.173 47.17 47.123 47.045 47.048 47.068 47.105 47.185 47.238 47.045 46.54 46.685 47.483 47.805 47.888 47.955 48.018 48.153 48.168 48.183 48.258 48.288 48.38 48.46 48.505 48.635 48.808 48.825 48.925 49.105 49.095 49.013 48.988 48.97 48.945 49.04 49.175 49.19 49.193 49.208 49.235 49.273 49.37 49.403 49.428 49.465 49.51 49.535 49.588 49.653 49.74 49.8 49.85 49.893 49.955 50.008 50.058 50.13 50.22 50.283 50.345 50.418 50.495 50.55 50.63 50.653 50.743 50.803 50.853 50.928 50.95 51.018 51.068 51.115 51.18 51.233 51.245 51.273 51.325 51.363 51.443 51.498 51.578 51.588 51.638 51.693 51.755 51.775 51.793 51.833 51.893 51.895 51.898 51.958 51.995 52.015 52.053 52.04 52.09 52.125 52.17 52.175 52.22 52.273 52.35 52.398 52.473 52.54 52.548 52.573 52.668 52.713 52.75 52.798 52.843 52.873 52.89 52.913 52.978 52.99 53.02 52.998 53.028 53.038 53.035 53.04 53.063 53.025 53.01 52.958 52.955 52.958 53 53.038 53.063 53.12 53.168 53.245 53.31 53.383 53.42 53.443 53.445 53.413 53.373 53.313 53.18 53.063 52.963 52.905 52.78 52.708 52.565 52.43 52.26 52.11 51.933 51.718 51.523 51.353 51.145 50.945 50.77 50.633 50.518 50.353 50.243 50.063 49.855 49.688 49.43 49.203 48.948 48.693 48.398 48.175 47.938 47.653 47.43 47.255 47.058 46.928 46.783 46.653 46.533 46.363 46.26 46.063 45.853 45.625 45.395 45.225 45.043 44.9 44.778 44.67 44.575 44.468 44.383 44.3 44.225 44.09 43.998 43.845 43.703 43.578 43.423 43.35 43.26 43.238 43.19 43.19 43.308 43.338 43.38 43.418 43.463 43.488 43.55 43.668 43.875 44.133 44.37 44.578 44.768 44.923 45.075 45.17 45.248 45.338 45.458 45.66 45.72 45.645 45.638 45.698 45.67 45.748 45.893 46.128 46.278 46.408 46.475 46.55 46.68 46.8 46.823 46.738 46.79 46.798 46.82 46.803 46.79 46.843 46.858 46.903 46.945 47.01 47.048 47.045 47.073 47.15 47.208 47.27 47.25 47.228 47.268 47.158 47.185 47.265 47.248 47.265 47.22 47.175 47.165 47.145 47.133 47.123 47.065 47.033 47.003 46.995 46.915 46.928 46.883 46.815 46.773 46.798 46.758 46.725 46.703 46.693 46.643 46.603 46.538 46.48 46.363 46.155 45.993 45.863 45.838 45.698 45.68 45.565 45.553 45.488 45.438 45.425 45.435 45.423 45.4 45.323 45.19 45.125 45.24 45.478 45.415 45.283 45.24 45.235 45.3 45.275 45.283 45.24 45.213 45.215 45.2 45.143 45.13 45.068 45.06 45.1 45.133 45.098 45.023 44.855 44.738 44.758 44.705 44.648 44.648 44.645 44.638 44.638 44.633 44.618 44.63 44.595 44.595 44.518 44.51 44.5 44.483 44.483 44.49 44.465 44.42 44.368 44.328 44.285 44.22 44.205 44.148 44.128 44.093 44.058 43.998 43.938 43.903 43.845 43.835 43.855 43.84 43.793 43.81 43.818 43.835 43.868 44 44.058 43.98 43.888 43.848 43.888 43.91 43.93 43.88 43.843 43.86 43.915 43.958 43.915 43.918 43.983 43.968 44.103 44.23 44.378 44.438 44.47 44.54 44.515 44.46 44.495 44.483 44.463 44.51 44.49 44.475 44.485 44.49 44.47 44.435 44.43 44.44 44.498 44.65 44.775 44.948 45.093 45.163 45.193 45.175 45.143 45.138 45.143 45.125 45.095
47.475 47.415 47.38 47.335 47.328 47.315 47.285 47.315 47.235 47.225 47.233 47.218 47.2 47.105 47.048 47.033 47 47.028 46.945 46.898 47.12 47.16 47.09 46.573 46.26 47.09 47.633 47.82 47.833 47.883 48.013 48.048 48.115 48.155 48.205 48.29 48.433 48.51 48.703 48.9 48.838 48.885 49.003 48.978 48.93 48.923 48.928 48.92 48.988 49.073 49.138 49.135 49.175 49.2 49.233 49.328 49.35 49.393 49.445 49.46 49.493 49.535 49.59 49.685 49.728 49.768 49.82 49.858 49.875 49.978 50.045 50.133 50.173 50.243 50.303 50.41 50.47 50.515 50.563 50.653 50.703 50.715 50.805 50.83 50.868 50.935 50.958 51.063 51.113 51.128 51.163 51.21 51.238 51.31 51.388 51.443 51.438 51.49 51.565 51.643 51.67 51.7 51.723 51.748 51.768 51.818 51.86 51.903 51.925 51.96 51.97 51.988 52.025 52.08 52.118 52.14 52.223 52.265 52.35 52.435 52.495 52.518 52.563 52.628 52.67 52.735 52.818 52.813 52.873 52.898 52.938 52.963 53.005 52.988 53.028 53.058 53.06 53.05 53.083 53.098 53.073 53.058 53.045 53.078 53.055 53.068 53.115 53.113 53.2 53.24 53.313 53.368 53.458 53.495 53.53 53.49 53.468 53.428 53.395 53.245 53.148 53.048 52.973 52.828 52.743 52.62 52.485 52.32 52.16 51.965 51.79 51.593 51.388 51.233 51.01 50.875 50.715 50.575 50.43 50.295 50.125 49.923 49.755 49.5 49.31 49.025 48.783 48.5 48.238 47.988 47.698 47.453 47.22 47.008 46.838 46.718 46.615 46.505 46.34 46.213 46.048 45.83 45.593 45.355 45.158 45.005 44.848 44.693 44.553 44.46 44.383 44.263 44.175 44.088 43.98 43.858 43.758 43.588 43.488 43.36 43.275 43.248 43.2 43.198 43.193 43.23 43.285 43.34 43.4 43.423 43.458 43.568 43.728 43.938 44.19 44.408 44.613 44.793 44.96 45.073 45.17 45.258 45.323 45.428 45.53 45.698 45.888 45.923 45.813 45.748 45.905 45.923 45.988 46.188 46.413 46.548 46.663 46.723 46.783 46.78 46.74 46.745 46.8 46.78 46.77 46.77 46.815 46.835 46.888 46.86 46.88 46.925 46.978 47.003 47.023 47.065 47.11 47.135 47.135 47.17 47.173 47.18 47.225 47.318 47.278 47.215 47.248 47.243 47.138 47.08 47.105 47.08 47.005 47.023 46.988 46.91 46.933 46.875 46.863 46.825 46.768 46.763 46.75 46.68 46.668 46.635 46.59 46.593 46.58 46.595 46.53 46.498 46.4 46.478 46.313 46.225 46.043 45.868 45.78 45.713 45.625 45.498 45.488 45.523 45.428 45.305 45.173 45.445 45.673 45.598 45.475 45.433 45.373 45.413 45.41 45.425 45.36 45.35 45.318 45.298 45.268 45.248 45.213 45.175 45.193 45.198 45.21 45.16 45.048 44.913 44.803 44.79 44.773 44.728 44.69 44.698 44.72 44.698 44.705 44.705 44.663 44.645 44.62 44.57 44.508 44.528 44.52 44.505 44.483 44.458 44.385 44.335 44.305 44.253 44.218 44.203 44.178 44.1 44.093 44.065 43.973 43.948 43.91 43.89 43.89 43.885 43.875 43.888 43.868 43.89 43.92 44.023 44.118 44.118 44.035 43.988 43.93 43.968 43.99 43.975 43.945 43.978 43.953 43.99 44.033 44.078 44.198 44.145 44.155 44.298 44.408 44.465 44.498 44.52 44.53 44.513 44.513 44.5 44.505 44.515 44.513 44.475 44.5 44.485 44.495 44.475 44.46 44.463 44.523 44.608 44.73 44.983 45.105 45.185 45.24 45.185 45.143 45.163 45.17 45.148 45.13
47.413 47.393 47.34 47.33 47.333 47.36 47.278 47.29 47.235 47.218 47.273 47.248 47.16 47.078 46.988 46.905 47.1 47.083 46.805 46.69 47.03 47.173 47.115 46.78 46.15 46.65 47.348 47.675 47.745 47.76 47.788 47.87 47.993 48.058 48.095 48.198 48.38 48.55 48.69 48.793 48.828 48.93 48.955 48.928 48.88 48.893 48.883 48.87 48.948 49.055 49.1 49.12 49.175 49.235 49.263 49.283 49.34 49.36 49.383 49.428 49.458 49.465 49.535 49.585 49.633 49.683 49.745 49.805 49.843 49.9 49.955 50.02 50.115 50.173 50.24 50.333 50.358 50.408 50.433 50.518 50.603 50.575 50.695 50.728 50.743 50.805 50.863 50.908 50.975 50.998 51.025 51.105 51.15 51.2 51.243 51.328 51.308 51.408 51.45 51.488 51.533 51.573 51.62 51.64 51.693 51.738 51.76 51.81 51.83 51.828 51.86 51.903 51.968 52.013 52.03 52.103 52.168 52.185 52.285 52.373 52.448 52.513 52.56 52.618 52.668 52.735 52.798 52.828 52.895 52.908 52.938 53.015 53.013 53.013 53.06 53.105 53.123 53.11 53.158 53.18 53.155 53.148 53.17 53.163 53.13 53.178 53.203 53.205 53.243 53.323 53.383 53.43 53.518 53.56 53.595 53.6 53.558 53.553 53.48 53.338 53.205 53.138 53.02 52.86 52.77 52.65 52.485 52.293 52.158 51.99 51.853 51.663 51.453 51.285 51.108 50.933 50.805 50.645 50.473 50.335 50.175 49.995 49.818 49.578 49.373 49.11 48.845 48.59 48.345 48.055 47.775 47.5 47.203 46.95 46.79 46.643 46.528 46.415 46.253 46.12 45.95 45.778 45.573 45.318 45.1 44.908 44.74 44.575 44.438 44.353 44.248 44.12 44.018 43.928 43.845 43.75 43.64 43.513 43.388 43.27 43.205 43.23 43.215 43.183 43.215 43.263 43.27 43.305 43.395 43.423 43.485 43.595 43.745 43.978 44.23 44.46 44.643 44.798 44.945 45.075 45.153 45.233 45.3 45.34 45.448 45.543 45.77 45.97 46.08 45.973 45.993 46.063 46.028 46.095 46.255 46.455 46.68 46.773 46.755 46.72 46.743 46.733 46.728 46.733 46.74 46.748 46.765 46.815 46.838 46.805 46.865 46.888 46.933 46.958 46.973 47.02 47.033 47.055 47.065 47.108 47.085 47.118 47.145 47.175 47.195 47.2 47.173 47.2 47.22 47.18 47.17 47.123 47.06 47.105 47.03 46.948 46.943 46.865 46.86 46.793 46.745 46.745 46.668 46.705 46.65 46.605 46.563 46.595 46.52 46.52 46.508 46.468 46.428 46.468 46.503 46.448 46.428 46.393 46.295 46.315 46.188 46.138 45.838 45.673 45.613 45.545 45.513 45.738 45.81 45.718 45.633 45.623 45.538 45.525 45.493 45.48 45.448 45.413 45.36 45.368 45.355 45.33 45.31 45.273 45.263 45.273 45.265 45.213 45.178 45.06 44.973 44.938 44.908 44.855 44.803 44.805 44.813 44.788 44.78 44.783 44.743 44.713 44.668 44.623 44.58 44.585 44.553 44.498 44.513 44.5 44.448 44.403 44.37 44.328 44.23 44.223 44.185 44.14 44.093 44.085 44.05 44.023 43.95 43.95 43.94 43.97 43.985 43.975 43.97 43.96 43.975 44.058 44.153 44.208 44.19 44.103 44.06 44.063 44.045 44.118 44.13 44.063 44.058 44.09 44.16 44.28 44.315 44.308 44.32 44.415 44.513 44.53 44.56 44.548 44.525 44.533 44.55 44.533 44.525 44.54 44.52 44.518 44.503 44.515 44.478 44.513 44.478 44.49 44.498 44.568 44.708 44.955 45.145 45.23 45.218 45.183 45.173 45.205 45.205 45.203 45.168
47.345 47.36 47.363 47.365 47.358 47.353 47.293 47.25 47.24 47.243 47.238 47.233 47.188 47.16 47.033 46.89 47.14 47.203 46.83 46.508 46.905 47.143 47.085 46.888 46.378 46.365 47.155 47.51 47.7 47.683 47.72 47.723 47.83 47.925 48.053 48.21 48.393 48.515 48.565 48.723 48.85 48.98 48.983 48.935 48.84 48.873 48.89 48.905 48.905 48.985 49.05 49.083 49.15 49.223 49.235 49.248 49.313 49.325 49.36 49.37 49.393 49.44 49.495 49.528 49.57 49.63 49.685 49.725 49.763 49.805 49.885 49.933 50.025 50.093 50.158 50.225 50.285 50.335 50.34 50.415 50.475 50.52 50.59 50.585 50.633 50.713 50.74 50.795 50.833 50.868 50.938 50.968 51.03 51.078 51.133 51.18 51.208 51.29 51.318 51.363 51.443 51.48 51.485 51.535 51.585 51.598 51.67 51.735 51.72 51.758 51.835 51.868 51.898 51.94 52.005 52.08 52.13 52.198 52.278 52.395 52.415 52.483 52.53 52.593 52.675 52.74 52.79 52.853 52.88 52.928 52.968 53.043 53.035 53.075 53.103 53.14 53.138 53.163 53.228 53.25 53.233 53.225 53.233 53.243 53.203 53.215 53.29 53.273 53.338 53.403 53.425 53.5 53.535 53.593 53.633 53.648 53.64 53.598 53.565 53.44 53.31 53.19 53.053 52.89 52.79 52.663 52.49 52.35 52.218 52.053 51.893 51.7 51.498 51.363 51.19 51.03 50.865 50.698 50.543 50.403 50.253 50.075 49.89 49.655 49.43 49.193 48.95 48.658 48.38 48.14 47.835 47.548 47.208 46.935 46.74 46.588 46.418 46.255 46.095 45.975 45.843 45.66 45.458 45.215 45.018 44.808 44.638 44.433 44.3 44.175 44.095 44.01 43.928 43.84 43.748 43.625 43.565 43.473 43.36 43.263 43.195 43.25 43.185 43.21 43.225 43.273 43.328 43.37 43.413 43.408 43.48 43.578 43.748 44.008 44.27 44.48 44.63 44.758 44.863 45.02 45.123 45.19 45.295 45.35 45.45 45.52 45.6 45.84 46.05 46.175 46.223 46.163 46.18 46.225 46.258 46.425 46.625 46.725 46.655 46.668 46.718 46.735 46.703 46.688 46.7 46.763 46.763 46.81 46.785 46.798 46.845 46.868 46.853 46.905 46.948 46.973 47.008 47.015 46.995 47.033 47.04 47.045 47.073 47.083 47.095 47.105 47.068 47.07 47.065 47.083 47.073 47.098 47.088 47.11 47.105 47.028 47.01 46.958 46.928 46.883 46.83 46.783 46.705 46.683 46.598 46.59 46.56 46.545 46.558 46.508 46.518 46.46 46.41 46.45 46.43 46.405 46.4 46.405 46.358 46.373 46.393 46.325 46.123 46.033 45.958 45.895 45.918 46.155 46.098 45.963 45.815 45.73 45.705 45.68 45.595 45.55 45.54 45.478 45.445 45.488 45.458 45.413 45.423 45.405 45.343 45.305 45.288 45.278 45.223 45.165 45.12 45.078 45.025 44.968 44.93 44.888 44.88 44.853 44.843 44.898 44.825 44.773 44.76 44.725 44.7 44.65 44.6 44.57 44.54 44.545 44.508 44.448 44.448 44.393 44.35 44.248 44.213 44.183 44.12 44.14 44.13 44.103 44.035 44.04 44.023 44.013 44.025 43.99 44.013 44.018 44.05 44.073 44.138 44.228 44.278 44.263 44.2 44.163 44.16 44.235 44.243 44.21 44.195 44.24 44.363 44.368 44.36 44.388 44.423 44.51 44.588 44.588 44.578 44.555 44.52 44.555 44.553 44.563 44.55 44.535 44.528 44.54 44.51 44.5 44.503 44.498 44.48 44.478 44.52 44.488 44.595 44.805 45.1 45.22 45.235 45.213 45.18 45.173 45.233 45.24 45.208
47.338 47.305 47.345 47.408 47.355 47.325 47.328 47.253 47.23 47.205 47.208 47.218 47.228 47.125 47.093 47.008 47.08 47.135 46.693 46.623 46.953 47.105 47.06 46.99 46.763 46.293 46.78 47.263 47.58 47.575 47.58 47.643 47.74 47.88 48.035 48.223 48.328 48.308 48.36 48.655 48.835 48.988 49.02 48.92 48.85 48.86 48.868 48.913 48.908 48.93 49.013 49.083 49.12 49.178 49.188 49.23 49.285 49.313 49.318 49.335 49.37 49.388 49.425 49.455 49.5 49.543 49.58 49.623 49.68 49.745 49.803 49.858 49.958 50.003 50.028 50.108 50.185 50.218 50.248 50.32 50.35 50.41 50.445 50.48 50.565 50.615 50.66 50.708 50.77 50.785 50.835 50.868 50.883 50.94 51.038 51.075 51.09 51.145 51.203 51.253 51.298 51.383 51.425 51.473 51.533 51.513 51.563 51.648 51.655 51.693 51.733 51.79 51.853 51.895 51.975 52.053 52.09 52.13 52.243 52.363 52.4 52.478 52.545 52.59 52.7 52.755 52.823 52.87 52.908 52.965 53.03 53.055 53.118 53.128 53.13 53.185 53.215 53.243 53.27 53.295 53.31 53.285 53.305 53.285 53.325 53.34 53.38 53.368 53.415 53.44 53.495 53.553 53.583 53.665 53.693 53.718 53.713 53.648 53.618 53.5 53.388 53.23 53.108 52.938 52.788 52.67 52.518 52.41 52.273 52.135 51.953 51.75 51.58 51.473 51.275 51.09 50.938 50.8 50.633 50.485 50.283 50.15 49.973 49.78 49.533 49.308 49.045 48.765 48.498 48.233 47.913 47.618 47.298 47 46.703 46.493 46.293 46.138 45.958 45.823 45.688 45.515 45.3 45.138 44.89 44.705 44.503 44.338 44.168 44.043 43.953 43.858 43.795 43.73 43.648 43.548 43.5 43.425 43.343 43.268 43.235 43.258 43.23 43.245 43.235 43.29 43.363 43.415 43.465 43.448 43.48 43.555 43.755 44.03 44.273 44.45 44.58 44.698 44.808 44.925 45.053 45.153 45.29 45.365 45.383 45.493 45.61 45.725 45.895 46.083 46.208 46.17 46.215 46.288 46.343 46.373 46.518 46.585 46.58 46.65 46.688 46.74 46.713 46.7 46.73 46.753 46.793 46.815 46.818 46.813 46.813 46.843 46.86 46.88 46.9 46.9 46.95 46.97 46.94 46.945 46.993 47.008 47.035 47.043 47.035 47.058 47.018 47.013 47.015 46.99 46.99 46.955 46.958 46.968 46.973 46.965 46.993 46.98 46.993 46.985 46.943 46.895 46.873 46.793 46.77 46.658 46.603 46.578 46.515 46.468 46.433 46.418 46.403 46.448 46.428 46.423 46.378 46.39 46.373 46.395 46.378 46.363 46.325 46.33 46.265 46.208 46.24 46.403 46.353 46.298 46.218 46.095 46.088 45.99 45.908 45.835 45.725 45.65 45.625 45.585 45.565 45.505 45.495 45.475 45.453 45.425 45.4 45.37 45.303 45.273 45.193 45.168 45.108 45.06 44.998 44.99 44.973 44.948 44.915 44.908 44.88 44.818 44.825 44.788 44.78 44.728 44.678 44.635 44.623 44.593 44.548 44.53 44.488 44.458 44.418 44.353 44.268 44.238 44.203 44.175 44.178 44.173 44.145 44.1 44.088 44.073 44.095 44.083 44.1 44.1 44.13 44.153 44.165 44.235 44.308 44.353 44.33 44.31 44.303 44.318 44.348 44.31 44.363 44.43 44.515 44.47 44.393 44.478 44.48 44.528 44.573 44.543 44.558 44.538 44.563 44.548 44.548 44.558 44.57 44.53 44.505 44.543 44.53 44.488 44.483 44.488 44.478 44.495 44.528 44.513 44.468 44.618 44.925 45.225 45.268 45.235 45.208 45.23 45.245 45.27 45.275
47.298 47.363 47.408 47.348 47.315 47.333 47.288 47.213 47.153 47.175 47.178 47.165 47.163 47.17 47.133 47.165 47.14 46.815 46.485 46.945 47.133 47.158 47.135 47.103 46.97 46.478 46.36 46.973 47.375 47.475 47.533 47.595 47.703 47.82 48.003 48.175 48.223 48.245 48.343 48.655 48.903 48.995 49.005 48.91 48.898 48.898 48.873 48.89 48.923 48.918 48.985 49.073 49.113 49.153 49.173 49.215 49.273 49.28 49.31 49.313 49.358 49.333 49.37 49.383 49.433 49.488 49.528 49.568 49.59 49.658 49.703 49.758 49.858 49.933 49.94 50.015 50.088 50.135 50.163 50.228 50.27 50.31 50.313 50.358 50.468 50.475 50.555 50.625 50.688 50.723 50.753 50.785 50.808 50.868 50.935 50.978 51.018 51.02 51.108 51.153 51.195 51.298 51.328 51.345 51.415 51.44 51.498 51.543 51.583 51.608 51.688 51.74 51.8 51.845 51.923 52 52.058 52.123 52.228 52.33 52.398 52.453 52.538 52.6 52.693 52.763 52.83 52.873 52.93 53 53.055 53.1 53.173 53.188 53.2 53.25 53.293 53.293 53.348 53.353 53.375 53.35 53.393 53.383 53.408 53.42 53.473 53.438 53.473 53.51 53.575 53.62 53.64 53.725 53.765 53.793 53.733 53.718 53.683 53.568 53.433 53.265 53.118 52.965 52.825 52.72 52.573 52.453 52.305 52.168 52.01 51.828 51.673 51.533 51.363 51.178 51.035 50.875 50.715 50.6 50.433 50.258 50.063 49.87 49.635 49.41 49.135 48.863 48.585 48.303 48.003 47.673 47.37 47.018 46.743 46.49 46.243 46.05 45.823 45.68 45.523 45.365 45.18 44.998 44.778 44.565 44.358 44.2 44.04 43.888 43.813 43.743 43.658 43.625 43.565 43.493 43.453 43.418 43.345 43.27 43.258 43.245 43.253 43.29 43.293 43.325 43.418 43.448 43.485 43.478 43.503 43.625 43.768 44.008 44.268 44.425 44.563 44.668 44.775 44.903 44.995 45.135 45.273 45.368 45.413 45.453 45.588 45.703 45.785 45.935 46.045 46.178 46.218 46.283 46.355 46.34 46.408 46.46 46.523 46.588 46.655 46.72 46.793 46.765 46.77 46.778 46.82 46.825 46.82 46.798 46.778 46.795 46.875 46.848 46.878 46.87 46.9 46.935 46.958 46.953 46.958 46.98 46.978 46.968 46.99 46.983 46.985 46.975 46.968 46.968 46.94 46.895 46.923 46.935 46.92 46.923 46.92 46.898 46.893 46.87 46.87 46.868 46.833 46.803 46.805 46.788 46.718 46.72 46.655 46.563 46.528 46.48 46.445 46.385 46.358 46.373 46.385 46.373 46.35 46.335 46.365 46.378 46.368 46.368 46.36 46.368 46.315 46.325 46.308 46.27 46.285 46.335 46.28 46.333 46.278 46.223 46.148 46.115 45.938 45.865 45.805 45.743 45.685 45.618 45.563 45.525 45.478 45.483 45.448 45.403 45.338 45.238 45.225 45.163 45.103 45.08 45.045 45.01 45.013 44.965 44.953 44.93 44.93 44.87 44.855 44.805 44.743 44.683 44.658 44.625 44.618 44.585 44.593 44.52 44.47 44.45 44.38 44.313 44.263 44.258 44.225 44.193 44.188 44.188 44.16 44.128 44.138 44.153 44.165 44.178 44.22 44.228 44.248 44.288 44.348 44.455 44.458 44.463 44.403 44.403 44.38 44.433 44.518 44.578 44.605 44.588 44.493 44.46 44.565 44.565 44.605 44.56 44.55 44.548 44.545 44.54 44.56 44.558 44.533 44.528 44.53 44.508 44.538 44.51 44.51 44.485 44.503 44.518 44.508 44.505 44.503 44.513 44.675 45.015 45.308 45.305 45.25 45.27 45.298 45.313 45.308
47.308 47.325 47.338 47.33 47.363 47.323 47.23 47.115 47.075 47.158 47.233 47.193 47.175 47.19 47.205 47.253 47.233 46.615 46.593 47.043 47.15 47.17 47.193 47.153 47.105 46.815 46.135 46.7 47.338 47.435 47.485 47.535 47.635 47.743 47.898 48.06 48.13 48.26 48.425 48.65 48.875 48.998 49.033 49 48.97 48.915 48.9 48.923 48.96 48.96 48.993 49.035 49.108 49.143 49.168 49.18 49.248 49.26 49.278 49.29 49.303 49.313 49.318 49.333 49.38 49.395 49.458 49.495 49.53 49.57 49.64 49.675 49.753 49.83 49.843 49.93 49.993 50.035 50.078 50.098 50.155 50.163 50.21 50.285 50.363 50.368 50.45 50.505 50.53 50.595 50.643 50.653 50.703 50.768 50.828 50.873 50.948 50.948 51.023 51.078 51.12 51.18 51.223 51.298 51.315 51.38 51.428 51.48 51.535 51.578 51.618 51.69 51.758 51.823 51.9 51.96 52.055 52.145 52.248 52.335 52.415 52.493 52.58 52.64 52.71 52.798 52.86 52.92 52.98 53.03 53.11 53.168 53.198 53.22 53.268 53.3 53.325 53.285 53.375 53.383 53.393 53.415 53.428 53.455 53.488 53.495 53.528 53.53 53.558 53.608 53.62 53.62 53.685 53.768 53.788 53.79 53.78 53.755 53.698 53.615 53.475 53.32 53.14 53 52.84 52.75 52.648 52.498 52.338 52.215 52.048 51.885 51.723 51.565 51.405 51.248 51.11 50.993 50.843 50.675 50.505 50.318 50.135 49.943 49.72 49.503 49.223 48.953 48.675 48.405 48.11 47.77 47.423 47.08 46.753 46.463 46.213 45.968 45.755 45.545 45.395 45.23 45.005 44.828 44.65 44.45 44.28 44.103 43.913 43.798 43.74 43.67 43.608 43.545 43.558 43.468 43.433 43.398 43.35 43.3 43.275 43.303 43.338 43.335 43.308 43.338 43.403 43.453 43.533 43.55 43.538 43.645 43.773 44.013 44.223 44.4 44.513 44.628 44.72 44.85 44.95 45.058 45.148 45.268 45.363 45.44 45.535 45.61 45.748 45.84 45.89 46.015 46.205 46.26 46.273 46.268 46.35 46.433 46.498 46.538 46.588 46.668 46.783 46.823 46.835 46.855 46.84 46.815 46.818 46.825 46.818 46.818 46.838 46.83 46.84 46.845 46.865 46.87 46.873 46.88 46.923 46.928 46.918 46.945 46.94 46.968 46.96 46.94 46.895 46.923 46.92 46.91 46.898 46.91 46.925 46.898 46.895 46.883 46.863 46.853 46.813 46.815 46.748 46.745 46.725 46.67 46.665 46.655 46.64 46.638 46.583 46.543 46.54 46.5 46.425 46.383 46.39 46.415 46.37 46.36 46.375 46.348 46.313 46.315 46.36 46.37 46.335 46.328 46.325 46.315 46.26 46.298 46.275 46.273 46.263 46.25 46.273 46.215 46.15 46.133 46.248 46.173 46.173 46.06 46.02 45.778 45.673 45.623 45.625 45.598 45.535 45.443 45.395 45.298 45.193 45.153 45.105 45.075 45.073 45.033 45.018 45.003 44.98 44.953 44.925 44.888 44.818 44.798 44.768 44.695 44.648 44.628 44.648 44.625 44.583 44.548 44.485 44.415 44.383 44.358 44.3 44.268 44.24 44.26 44.245 44.213 44.23 44.218 44.243 44.268 44.285 44.315 44.31 44.33 44.39 44.475 44.51 44.54 44.51 44.473 44.53 44.615 44.63 44.613 44.613 44.643 44.658 44.6 44.583 44.615 44.608 44.563 44.555 44.578 44.553 44.545 44.568 44.548 44.553 44.528 44.533 44.548 44.535 44.515 44.518 44.515 44.493 44.495 44.51 44.525 44.525 44.498 44.558 44.725 45.118 45.36 45.338 45.31 45.323 45.338 45.315
47.395 47.348 47.285 47.273 47.34 47.248 47.203 47.153 47.133 47.103 47.143 47.23 47.193 47.135 47.19 47.243 47.088 46.528 46.853 47.098 47.138 47.148 47.16 47.138 47.105 46.985 46.303 46.445 47.358 47.465 47.443 47.44 47.565 47.598 47.728 47.873 47.998 48.2 48.485 48.64 48.78 48.935 49.058 49.07 49.07 49.005 48.97 48.958 48.958 48.988 49.003 49.015 49.075 49.14 49.145 49.183 49.225 49.223 49.22 49.218 49.243 49.27 49.23 49.285 49.31 49.325 49.388 49.43 49.46 49.493 49.538 49.558 49.658 49.718 49.763 49.828 49.898 49.93 49.965 49.955 50.038 50.043 50.118 50.158 50.228 50.273 50.343 50.41 50.44 50.49 50.543 50.583 50.65 50.695 50.73 50.805 50.875 50.9 50.958 51 51.065 51.118 51.168 51.198 51.26 51.3 51.328 51.415 51.468 51.53 51.575 51.643 51.718 51.79 51.878 51.973 52.055 52.14 52.243 52.333 52.435 52.493 52.545 52.618 52.705 52.823 52.88 52.953 52.983 53.005 53.103 53.183 53.24 53.293 53.313 53.333 53.378 53.383 53.37 53.405 53.428 53.468 53.49 53.528 53.57 53.58 53.568 53.62 53.643 53.658 53.683 53.7 53.735 53.81 53.84 53.845 53.833 53.8 53.76 53.663 53.52 53.378 53.2 53.053 52.91 52.81 52.693 52.54 52.363 52.27 52.115 51.955 51.773 51.65 51.468 51.31 51.153 51.018 50.883 50.743 50.553 50.403 50.223 50.02 49.818 49.595 49.308 49.015 48.78 48.505 48.23 47.873 47.533 47.188 46.843 46.528 46.228 45.975 45.733 45.47 45.323 45.115 44.91 44.713 44.535 44.36 44.185 44.005 43.863 43.725 43.665 43.605 43.558 43.528 43.515 43.498 43.465 43.42 43.38 43.32 43.29 43.305 43.353 43.305 43.333 43.36 43.44 43.48 43.573 43.58 43.588 43.658 43.77 43.953 44.173 44.368 44.463 44.565 44.653 44.763 44.878 44.975 45.038 45.125 45.248 45.383 45.463 45.545 45.643 45.723 45.783 45.873 45.945 46.145 46.203 46.21 46.29 46.415 46.493 46.51 46.59 46.658 46.713 46.818 46.828 46.858 46.853 46.845 46.85 46.855 46.828 46.825 46.828 46.835 46.84 46.81 46.825 46.848 46.838 46.848 46.88 46.878 46.885 46.895 46.913 46.908 46.915 46.91 46.918 46.925 46.91 46.918 46.905 46.92 46.895 46.895 46.89 46.863 46.863 46.855 46.833 46.803 46.78 46.74 46.728 46.67 46.635 46.605 46.575 46.55 46.555 46.493 46.498 46.483 46.443 46.41 46.433 46.463 46.43 46.435 46.39 46.365 46.338 46.34 46.358 46.37 46.315 46.333 46.295 46.298 46.268 46.28 46.318 46.308 46.248 46.29 46.27 46.253 46.248 46.238 46.235 46.213 46.213 46.223 46.068 45.983 45.915 45.893 45.955 45.988 45.903 45.775 45.69 45.518 45.38 45.338 45.258 45.2 45.16 45.1 45.085 45.075 45.058 45.02 44.985 44.958 44.918 44.863 44.853 44.81 44.768 44.728 44.713 44.695 44.63 44.605 44.615 44.548 44.513 44.425 44.383 44.348 44.298 44.3 44.323 44.295 44.295 44.29 44.293 44.315 44.325 44.385 44.383 44.403 44.428 44.48 44.58 44.653 44.605 44.643 44.718 44.728 44.678 44.64 44.623 44.64 44.645 44.6 44.585 44.613 44.595 44.59 44.615 44.575 44.573 44.575 44.553 44.555 44.55 44.563 44.548 44.538 44.53 44.538 44.538 44.535 44.513 44.528 44.558 44.555 44.508 44.483 44.533 44.563 44.83 45.28 45.385 45.3 45.338 45.358 45.373
47.453 47.393 47.333 47.335 47.293 47.238 47.188 47.168 47.133 47.118 47.118 47.178 47.165 47.163 47.188 47.098 46.678 46.618 47.13 47.148 47.125 47.108 47.105 47.115 47.085 46.983 46.493 46.313 46.873 47.325 47.35 47.37 47.398 47.348 47.475 47.598 47.753 48.098 48.525 48.725 48.81 48.9 49.053 49.143 49.173 49.165 49.053 49.015 49 49.003 49.038 49.028 49.06 49.118 49.138 49.16 49.22 49.233 49.208 49.218 49.215 49.23 49.218 49.228 49.243 49.293 49.308 49.345 49.378 49.388 49.455 49.46 49.565 49.618 49.633 49.733 49.783 49.793 49.843 49.87 49.91 49.955 50.018 50.058 50.09 50.173 50.245 50.29 50.388 50.418 50.478 50.53 50.555 50.638 50.673 50.748 50.773 50.828 50.908 50.943 51.01 51.033 51.088 51.125 51.173 51.238 51.278 51.343 51.378 51.485 51.51 51.605 51.68 51.725 51.885 51.953 52.038 52.153 52.255 52.33 52.395 52.5 52.553 52.668 52.735 52.848 52.895 52.95 53.003 53.055 53.138 53.175 53.273 53.27 53.305 53.333 53.375 53.405 53.425 53.478 53.503 53.538 53.543 53.555 53.578 53.645 53.685 53.7 53.695 53.7 53.758 53.778 53.795 53.815 53.825 53.833 53.823 53.83 53.795 53.708 53.528 53.398 53.233 53.125 52.953 52.873 52.765 52.613 52.433 52.32 52.165 51.985 51.823 51.675 51.518 51.368 51.23 51.08 50.945 50.788 50.63 50.46 50.278 50.12 49.87 49.653 49.413 49.16 48.883 48.6 48.315 48.003 47.648 47.295 46.935 46.615 46.265 45.993 45.71 45.475 45.298 45.093 44.873 44.658 44.455 44.263 44.123 43.915 43.783 43.693 43.608 43.575 43.52 43.503 43.473 43.458 43.418 43.405 43.363 43.333 43.293 43.3 43.343 43.3 43.378 43.418 43.495 43.545 43.575 43.608 43.593 43.66 43.783 43.908 44.13 44.303 44.403 44.453 44.553 44.678 44.775 44.865 44.913 45.003 45.098 45.243 45.353 45.46 45.54 45.615 45.698 45.753 45.85 45.923 46.083 46.188 46.273 46.375 46.385 46.465 46.54 46.618 46.695 46.768 46.828 46.853 46.86 46.868 46.87 46.858 46.853 46.808 46.823 46.793 46.803 46.805 46.8 46.815 46.848 46.828 46.88 46.903 46.893 46.878 46.898 46.89 46.883 46.883 46.915 46.903 46.888 46.883 46.875 46.913 46.898 46.905 46.888 46.885 46.875 46.845 46.823 46.8 46.79 46.765 46.753 46.72 46.678 46.635 46.575 46.53 46.518 46.483 46.455 46.45 46.383 46.365 46.355 46.34 46.315 46.313 46.325 46.328 46.33 46.345 46.345 46.42 46.36 46.368 46.35 46.3 46.303 46.285 46.353 46.298 46.248 46.25 46.25 46.273 46.23 46.215 46.23 46.21 46.195 46.185 46.09 46.098 46.103 46.118 46.153 46.165 46.13 46.125 46.095 45.9 45.9 45.82 45.785 45.648 45.478 45.353 45.265 45.223 45.183 45.118 45.073 45.005 44.955 44.903 44.885 44.875 44.848 44.823 44.783 44.77 44.73 44.678 44.67 44.645 44.59 44.555 44.508 44.46 44.428 44.373 44.37 44.378 44.373 44.388 44.355 44.345 44.398 44.415 44.433 44.44 44.48 44.555 44.643 44.728 44.773 44.828 44.845 44.778 44.728 44.683 44.633 44.613 44.62 44.608 44.585 44.633 44.603 44.59 44.605 44.58 44.59 44.588 44.585 44.578 44.58 44.56 44.555 44.558 44.543 44.528 44.545 44.523 44.528 44.525 44.553 44.523 44.47 44.503 44.52 44.52 44.653 45.113 45.383 45.335 45.353 45.358 45.375
47.378 47.383 47.345 47.24 47.245 47.22 47.145 47.11 47.068 47.098 47.14 47.175 47.215 47.203 47.175 46.793 46.48 47.048 47.218 47.19 47.105 47.02 47.025 47.15 47.143 47.058 46.86 46.265 46.418 47.088 47.278 47.238 47.16 47.13 47.228 47.408 47.69 48.118 48.513 48.763 48.878 48.915 49.02 49.093 49.163 49.193 49.18 49.08 49.065 49.055 49.065 49.075 49.048 49.05 49.135 49.175 49.198 49.193 49.183 49.215 49.193 49.203 49.203 49.205 49.145 49.173 49.25 49.27 49.343 49.345 49.39 49.418 49.48 49.525 49.55 49.603 49.665 49.69 49.73 49.738 49.83 49.855 49.93 49.983 50.023 50.068 50.165 50.223 50.285 50.36 50.388 50.465 50.49 50.523 50.595 50.678 50.72 50.763 50.848 50.88 50.913 50.98 51.053 51.088 51.105 51.158 51.238 51.283 51.323 51.415 51.47 51.57 51.653 51.74 51.835 51.935 52.018 52.138 52.245 52.333 52.418 52.475 52.553 52.643 52.753 52.82 52.903 52.948 52.998 53.085 53.158 53.193 53.233 53.238 53.283 53.32 53.378 53.425 53.468 53.483 53.523 53.57 53.595 53.605 53.655 53.7 53.738 53.74 53.738 53.78 53.813 53.805 53.808 53.84 53.863 53.853 53.878 53.833 53.775 53.708 53.57 53.438 53.283 53.158 53.01 52.93 52.805 52.66 52.518 52.358 52.208 52.058 51.87 51.71 51.6 51.435 51.305 51.168 51.018 50.84 50.72 50.525 50.343 50.16 49.973 49.725 49.468 49.22 48.965 48.7 48.413 48.125 47.788 47.43 47.093 46.723 46.403 46.063 45.788 45.535 45.275 45.048 44.838 44.62 44.433 44.253 44.075 43.888 43.75 43.628 43.58 43.528 43.523 43.46 43.453 43.448 43.423 43.408 43.37 43.338 43.295 43.308 43.323 43.33 43.408 43.438 43.505 43.583 43.6 43.6 43.568 43.593 43.723 43.863 44.043 44.248 44.365 44.453 44.51 44.605 44.683 44.765 44.828 44.905 44.995 45.12 45.28 45.368 45.483 45.538 45.663 45.713 45.81 45.88 45.968 46.08 46.228 46.388 46.405 46.423 46.468 46.545 46.618 46.705 46.78 46.83 46.848 46.873 46.855 46.82 46.848 46.818 46.773 46.78 46.773 46.8 46.783 46.815 46.865 46.838 46.828 46.863 46.86 46.85 46.893 46.913 46.908 46.905 46.913 46.923 46.935 46.913 46.91 46.935 46.943 46.923 46.895 46.893 46.915 46.888 46.853 46.828 46.813 46.793 46.77 46.738 46.695 46.66 46.61 46.573 46.57 46.51 46.463 46.415 46.365 46.355 46.325 46.27 46.26 46.243 46.218 46.228 46.225 46.25 46.283 46.33 46.358 46.368 46.378 46.335 46.365 46.363 46.5 46.328 46.275 46.268 46.238 46.31 46.228 46.263 46.218 46.198 46.16 46.188 46.14 46.145 46.163 46.16 46.108 46.075 46.048 46.07 46.095 46.075 46.103 46.1 46.13 46.113 46.048 45.875 45.708 45.665 45.538 45.39 45.255 45.173 45.08 45.005 44.943 44.943 44.913 44.878 44.868 44.863 44.84 44.803 44.753 44.708 44.658 44.618 44.603 44.56 44.515 44.468 44.468 44.45 44.435 44.415 44.398 44.393 44.418 44.428 44.49 44.528 44.588 44.66 44.75 44.85 44.92 44.878 44.755 44.715 44.688 44.665 44.653 44.658 44.648 44.603 44.618 44.643 44.638 44.583 44.588 44.61 44.588 44.583 44.593 44.593 44.585 44.568 44.568 44.558 44.533 44.533 44.54 44.518 44.545 44.54 44.493 44.445 44.513 44.558 44.568 44.575 44.64 44.975 45.32 45.365 45.375 45.38 45.408
47.355 47.343 47.333 47.288 47.275 47.195 47.125 47.098 47.05 47.048 47.093 47.143 47.263 47.223 47.02 46.538 46.755 47.215 47.223 47.203 47.033 47.005 47.03 47.178 47.208 47.128 47.04 46.595 46.133 46.763 47.055 47.115 47.04 47.048 47.208 47.423 47.643 47.945 48.298 48.635 48.94 48.943 48.933 49.08 49.213 49.405 49.42 49.183 49.103 49.083 49.088 49.103 49.093 49.05 49.095 49.125 49.158 49.158 49.17 49.188 49.155 49.165 49.14 49.15 49.14 49.135 49.195 49.188 49.26 49.255 49.298 49.328 49.388 49.425 49.46 49.478 49.55 49.565 49.678 49.67 49.73 49.74 49.798 49.883 49.955 50.018 50.083 50.125 50.175 50.245 50.33 50.35 50.385 50.465 50.56 50.613 50.683 50.708 50.763 50.828 50.868 50.925 50.98 51.01 51.09 51.13 51.22 51.265 51.305 51.385 51.44 51.5 51.62 51.71 51.818 51.89 52.003 52.12 52.2 52.333 52.393 52.468 52.54 52.608 52.71 52.795 52.873 52.905 52.968 53.04 53.115 53.14 53.208 53.25 53.26 53.315 53.343 53.385 53.468 53.498 53.543 53.61 53.638 53.665 53.73 53.765 53.763 53.768 53.83 53.84 53.853 53.843 53.875 53.87 53.883 53.883 53.9 53.833 53.808 53.723 53.623 53.475 53.32 53.208 53.08 52.965 52.865 52.693 52.53 52.363 52.245 52.093 51.895 51.715 51.633 51.46 51.33 51.195 51.065 50.893 50.74 50.553 50.39 50.225 50.003 49.795 49.558 49.305 49.053 48.818 48.523 48.245 47.878 47.563 47.243 46.883 46.53 46.19 45.868 45.603 45.365 45.118 44.88 44.653 44.43 44.243 44.02 43.888 43.715 43.623 43.538 43.525 43.483 43.468 43.465 43.455 43.433 43.398 43.34 43.325 43.3 43.315 43.378 43.36 43.37 43.428 43.523 43.585 43.6 43.583 43.543 43.575 43.645 43.753 43.943 44.193 44.298 44.385 44.455 44.553 44.633 44.685 44.768 44.83 44.898 45.023 45.145 45.258 45.38 45.488 45.55 45.64 45.728 45.82 45.915 45.97 46.06 46.228 46.373 46.488 46.57 46.53 46.538 46.623 46.723 46.77 46.808 46.843 46.833 46.798 46.793 46.813 46.778 46.798 46.778 46.778 46.785 46.77 46.818 46.828 46.845 46.828 46.863 46.85 46.89 46.918 46.903 46.923 46.953 46.968 46.983 46.975 46.968 46.963 46.96 46.975 46.948 46.938 46.925 46.905 46.905 46.878 46.848 46.805 46.798 46.763 46.723 46.693 46.655 46.588 46.54 46.498 46.445 46.438 46.425 46.383 46.353 46.29 46.278 46.255 46.215 46.203 46.22 46.208 46.225 46.243 46.273 46.258 46.243 46.29 46.283 46.293 46.318 46.333 46.313 46.27 46.248 46.348 46.405 46.43 46.375 46.3 46.265 46.195 46.133 46.143 46.113 46.148 46.093 46.09 46.085 46.105 46.033 46.033 46.013 45.995 46.015 46.018 45.978 45.958 46.04 46.083 45.998 45.955 45.753 45.625 45.518 45.408 45.138 45.058 44.988 44.963 44.95 44.938 44.938 44.91 44.825 44.76 44.713 44.645 44.63 44.623 44.648 44.603 44.588 44.505 44.48 44.41 44.41 44.44 44.49 44.483 44.523 44.585 44.695 44.79 44.86 44.95 44.938 44.813 44.613 44.525 44.5 44.515 44.59 44.678 44.65 44.638 44.643 44.665 44.635 44.623 44.62 44.603 44.593 44.603 44.623 44.605 44.575 44.565 44.565 44.568 44.573 44.553 44.573 44.553 44.543 44.49 44.47 44.52 44.558 44.588 44.625 44.65 44.7 44.968 45.398 45.39 45.4 45.403 45.41
47.353 47.343 47.308 47.298 47.285 47.218 47.033 46.79 46.798 46.998 47.073 47.068 47.168 47.175 46.705 46.47 47.035 47.195 47.223 47.183 46.988 46.925 47.008 47.088 47.18 47.16 47.083 46.858 46.19 46.41 46.75 46.718 46.685 46.933 47.148 47.293 47.528 47.67 47.915 48.448 48.898 49.033 49.038 49.1 49.208 49.313 49.288 49.248 49.188 49.14 49.135 49.11 49.105 49.065 49.098 49.078 49.115 49.128 49.135 49.093 49.115 49.125 49.073 49.1 49.088 49.07 49.09 49.155 49.16 49.175 49.233 49.248 49.29 49.348 49.388 49.42 49.463 49.498 49.56 49.595 49.638 49.663 49.705 49.77 49.865 49.933 49.985 50.075 50.123 50.173 50.263 50.298 50.355 50.415 50.49 50.548 50.638 50.635 50.698 50.773 50.835 50.858 50.938 51.003 51.06 51.123 51.14 51.223 51.285 51.325 51.38 51.45 51.563 51.675 51.808 51.88 51.99 52.09 52.173 52.308 52.378 52.423 52.545 52.603 52.668 52.748 52.835 52.855 52.92 52.993 53.07 53.113 53.14 53.2 53.233 53.253 53.313 53.383 53.445 53.485 53.57 53.58 53.63 53.678 53.763 53.795 53.813 53.878 53.923 53.92 53.938 53.913 53.895 53.905 53.93 53.925 53.903 53.823 53.76 53.69 53.568 53.45 53.34 53.235 53.065 52.95 52.833 52.68 52.52 52.39 52.255 52.09 51.893 51.748 51.638 51.478 51.355 51.233 51.118 50.918 50.755 50.58 50.415 50.278 50.073 49.87 49.645 49.433 49.168 48.945 48.633 48.368 48.003 47.7 47.398 47.043 46.693 46.33 45.98 45.738 45.468 45.163 44.91 44.668 44.408 44.253 44.073 43.878 43.72 43.6 43.5 43.508 43.503 43.498 43.46 43.463 43.438 43.418 43.35 43.338 43.295 43.323 43.345 43.353 43.388 43.428 43.528 43.6 43.62 43.578 43.505 43.51 43.59 43.68 43.825 44.05 44.188 44.278 44.37 44.438 44.543 44.663 44.708 44.738 44.843 44.965 45.068 45.195 45.275 45.383 45.5 45.605 45.67 45.748 45.855 45.918 45.98 46.043 46.175 46.36 46.525 46.488 46.488 46.553 46.63 46.733 46.808 46.8 46.795 46.8 46.833 46.78 46.788 46.795 46.795 46.788 46.755 46.795 46.813 46.843 46.835 46.85 46.843 46.87 46.873 46.928 46.913 46.958 46.983 46.99 47.003 47.01 47.018 47.01 47.013 47.058 46.993 46.98 46.988 46.978 46.965 46.928 46.933 46.878 46.835 46.81 46.768 46.74 46.69 46.595 46.553 46.535 46.5 46.44 46.36 46.33 46.31 46.288 46.253 46.248 46.243 46.23 46.243 46.223 46.225 46.218 46.228 46.213 46.173 46.175 46.225 46.243 46.22 46.225 46.238 46.265 46.235 46.295 46.325 46.37 46.353 46.335 46.338 46.285 46.238 46.253 46.223 46.188 46.13 46.073 46.08 46.013 46.013 46.055 45.998 45.983 45.973 46 45.97 45.885 45.983 46.03 45.958 46.013 46.013 46.003 46.013 46.163 45.9 45.473 45.235 45.115 45.078 45.07 45.028 45.013 44.943 44.86 44.84 44.76 44.74 44.695 44.673 44.675 44.655 44.598 44.523 44.49 44.47 44.48 44.523 44.55 44.585 44.66 44.818 44.97 44.973 45.018 44.86 44.718 44.518 44.428 44.418 44.425 44.48 44.623 44.685 44.658 44.633 44.655 44.655 44.625 44.635 44.6 44.633 44.608 44.62 44.595 44.578 44.59 44.588 44.573 44.573 44.578 44.583 44.573 44.505 44.458 44.503 44.533 44.565 44.598 44.635 44.66 44.718 44.953 45.368 45.388 45.393 45.388 45.393
47.39 47.32 47.193 47.215 47.265 47.283 47.003 46.795 46.935 46.965 47.073 47.085 47.12 46.888 46.445 46.785 47.125 47.208 47.165 47.09 47 46.913 46.975 47.013 47.15 47.193 47.048 46.92 46.455 46.21 46.465 46.483 46.62 46.853 46.988 47.173 47.365 47.485 47.745 48.273 48.63 48.885 49.075 49.095 49.153 49.235 49.245 49.323 49.29 49.21 49.183 49.145 49.118 49.088 49.063 49.02 49.045 49.115 49.123 49.093 49.07 49.038 49.028 49.033 49.033 49.015 49.035 49.08 49.078 49.118 49.143 49.173 49.175 49.22 49.248 49.343 49.355 49.425 49.448 49.483 49.545 49.585 49.62 49.695 49.78 49.843 49.885 49.973 50.073 50.113 50.18 50.268 50.298 50.353 50.443 50.485 50.57 50.618 50.618 50.703 50.78 50.84 50.893 50.948 50.99 51.038 51.1 51.158 51.22 51.298 51.355 51.433 51.54 51.638 51.705 51.848 51.943 52.025 52.148 52.265 52.308 52.36 52.475 52.568 52.63 52.728 52.788 52.838 52.875 52.93 53.008 53.033 53.09 53.153 53.183 53.225 53.275 53.35 53.408 53.458 53.523 53.62 53.655 53.69 53.713 53.778 53.87 53.93 53.953 53.943 53.965 53.938 53.945 53.918 53.918 53.895 53.885 53.82 53.725 53.618 53.52 53.445 53.315 53.205 53.048 52.918 52.82 52.68 52.508 52.365 52.255 52.078 51.918 51.778 51.653 51.545 51.388 51.263 51.133 50.965 50.793 50.608 50.485 50.313 50.125 49.93 49.703 49.525 49.253 49.025 48.778 48.498 48.2 47.833 47.523 47.18 46.83 46.475 46.163 45.845 45.553 45.283 45.01 44.74 44.498 44.288 44.065 43.9 43.685 43.605 43.495 43.483 43.49 43.498 43.485 43.488 43.455 43.465 43.408 43.358 43.333 43.338 43.4 43.37 43.383 43.418 43.515 43.603 43.605 43.553 43.508 43.473 43.538 43.573 43.72 43.88 44.05 44.15 44.258 44.345 44.485 44.598 44.633 44.703 44.783 44.863 44.958 45.05 45.155 45.283 45.365 45.503 45.58 45.683 45.74 45.848 45.923 45.98 46.038 46.118 46.283 46.435 46.49 46.49 46.528 46.603 46.683 46.715 46.733 46.755 46.765 46.763 46.788 46.78 46.79 46.758 46.775 46.8 46.815 46.835 46.828 46.843 46.853 46.868 46.89 46.938 46.955 46.975 46.968 46.975 47.023 47.05 47.02 47.045 47.055 47.06 47.073 47.06 47.043 47.033 47.008 46.98 46.993 46.95 46.895 46.815 46.815 46.75 46.72 46.678 46.61 46.57 46.515 46.463 46.37 46.34 46.315 46.303 46.278 46.218 46.225 46.208 46.21 46.18 46.213 46.203 46.203 46.218 46.2 46.173 46.235 46.238 46.205 46.193 46.19 46.198 46.173 46.228 46.235 46.25 46.268 46.255 46.255 46.26 46.203 46.228 46.245 46.215 46.215 46.178 46.14 46.128 46.12 46.128 46.015 45.953 45.938 45.945 45.913 45.905 45.95 45.913 45.878 45.915 45.94 45.94 45.97 46.015 46.065 46.043 45.76 45.52 45.318 45.235 45.19 45.105 45.058 45.003 44.915 44.873 44.843 44.805 44.76 44.72 44.69 44.65 44.585 44.565 44.505 44.533 44.563 44.6 44.7 44.795 44.903 45.043 45.058 44.95 44.828 44.623 44.513 44.468 44.418 44.41 44.415 44.515 44.645 44.623 44.638 44.658 44.625 44.635 44.635 44.603 44.655 44.633 44.588 44.633 44.62 44.585 44.583 44.613 44.563 44.598 44.6 44.563 44.49 44.495 44.525 44.555 44.588 44.618 44.67 44.705 44.8 45.023 45.35 45.335 45.323 45.375 45.37
47.188 47.303 47.22 47.19 47.285 47.305 47.178 47.068 47.028 46.958 47.023 47.08 46.913 46.553 46.578 46.838 47.143 47.218 47.065 46.988 46.998 46.945 46.928 46.99 47.078 47.108 47.04 46.973 46.748 46.063 46.173 46.368 46.635 46.678 46.808 47.02 47.298 47.363 47.605 47.998 48.365 48.625 48.823 48.793 49.048 49.25 49.315 49.388 49.4 49.31 49.21 49.143 49.123 49.105 49.088 49.058 48.98 49.04 49.095 49.043 49.015 48.985 48.963 48.948 48.973 48.965 48.963 48.988 48.99 49.005 49.06 49.08 49.085 49.148 49.168 49.208 49.255 49.333 49.365 49.385 49.448 49.518 49.558 49.63 49.693 49.77 49.833 49.92 50.013 50.063 50.135 50.173 50.223 50.248 50.328 50.438 50.543 50.573 50.618 50.675 50.713 50.793 50.85 50.915 50.95 50.998 51.043 51.115 51.183 51.243 51.313 51.405 51.53 51.613 51.743 51.81 51.895 51.975 52.068 52.195 52.265 52.335 52.413 52.498 52.553 52.668 52.705 52.745 52.828 52.865 52.913 52.965 53.018 53.048 53.095 53.16 53.248 53.29 53.34 53.398 53.48 53.588 53.653 53.703 53.74 53.818 53.858 53.948 53.963 53.95 53.963 53.95 53.945 53.925 53.898 53.86 53.838 53.765 53.683 53.6 53.488 53.395 53.278 53.138 52.988 52.88 52.795 52.623 52.478 52.338 52.228 52.11 51.973 51.818 51.703 51.565 51.438 51.318 51.2 51.025 50.858 50.685 50.55 50.36 50.19 49.988 49.788 49.603 49.385 49.135 48.885 48.615 48.335 47.995 47.625 47.33 47.013 46.683 46.323 45.965 45.635 45.385 45.088 44.843 44.585 44.32 44.063 43.87 43.713 43.573 43.493 43.48 43.493 43.5 43.51 43.523 43.495 43.473 43.418 43.405 43.37 43.315 43.37 43.37 43.38 43.415 43.483 43.613 43.61 43.57 43.525 43.483 43.525 43.59 43.655 43.785 43.918 44.04 44.17 44.27 44.373 44.488 44.603 44.683 44.718 44.77 44.863 44.95 45.07 45.193 45.268 45.34 45.435 45.558 45.645 45.723 45.803 45.9 45.98 46.023 46.068 46.25 46.445 46.498 46.488 46.515 46.553 46.633 46.668 46.69 46.715 46.743 46.763 46.783 46.808 46.795 46.773 46.798 46.823 46.84 46.845 46.865 46.88 46.905 46.908 46.965 47.003 47.018 47.015 47.033 47.063 47.088 47.08 47.088 47.06 47.078 47.09 47.1 47.088 47.088 47.055 47.065 47.005 46.995 46.955 46.9 46.848 46.805 46.763 46.743 46.673 46.615 46.598 46.51 46.453 46.398 46.33 46.318 46.288 46.225 46.24 46.215 46.208 46.183 46.153 46.168 46.17 46.183 46.19 46.188 46.198 46.205 46.233 46.225 46.22 46.188 46.195 46.183 46.185 46.19 46.2 46.18 46.183 46.178 46.133 46.15 46.15 46.17 46.135 46.165 46.165 46.148 46.158 46.173 46.153 46.08 46.038 45.958 45.92 45.883 45.9 45.868 45.875 45.908 45.87 45.873 45.895 45.863 45.948 45.998 45.985 45.763 45.695 45.625 45.555 45.338 45.205 45.115 45.035 44.993 44.96 44.958 44.868 44.815 44.775 44.75 44.65 44.618 44.62 44.635 44.648 44.765 44.91 44.975 45.03 45.093 45.053 44.925 44.76 44.59 44.515 44.475 44.428 44.41 44.4 44.413 44.51 44.55 44.603 44.668 44.648 44.638 44.623 44.605 44.648 44.65 44.645 44.675 44.633 44.585 44.6 44.61 44.56 44.583 44.555 44.473 44.503 44.513 44.54 44.573 44.603 44.635 44.69 44.825 45.035 45.23 45.373 45.385 45.365 45.36 45.358
47.173 47.098 47.075 47.115 47.218 47.168 47.188 47.135 46.995 47.065 47.053 47 46.635 46.568 47.03 47.048 47.128 47.113 47.013 46.933 47.023 46.953 46.848 46.92 46.968 46.953 47.035 47.045 46.933 46.21 46 46.33 46.563 46.613 46.698 46.91 47.21 47.32 47.518 47.778 48.1 48.438 48.668 48.678 48.948 49.218 49.335 49.393 49.368 49.318 49.285 49.193 49.128 49.138 49.063 49.068 48.998 48.94 48.973 49.005 48.973 48.943 48.923 48.86 48.903 48.893 48.873 48.893 48.925 48.895 48.96 49.015 49 49.08 49.088 49.115 49.19 49.245 49.278 49.3 49.383 49.41 49.478 49.538 49.638 49.678 49.77 49.86 49.94 49.993 50.038 50.11 50.168 50.21 50.29 50.318 50.43 50.51 50.57 50.63 50.665 50.718 50.803 50.848 50.898 50.953 51.013 51.098 51.143 51.185 51.273 51.375 51.468 51.588 51.723 51.79 51.86 51.93 52.04 52.13 52.208 52.268 52.378 52.41 52.465 52.57 52.633 52.643 52.698 52.793 52.843 52.858 52.905 52.958 53.025 53.033 53.158 53.203 53.245 53.34 53.428 53.508 53.643 53.693 53.74 53.808 53.858 53.905 53.935 53.963 53.975 53.955 53.953 53.89 53.87 53.873 53.79 53.72 53.63 53.545 53.43 53.313 53.188 53.05 52.93 52.8 52.73 52.578 52.455 52.338 52.228 52.098 51.963 51.813 51.75 51.598 51.503 51.388 51.268 51.105 50.903 50.72 50.613 50.43 50.26 50.088 49.893 49.683 49.478 49.238 48.995 48.75 48.47 48.165 47.838 47.51 47.165 46.8 46.48 46.113 45.765 45.47 45.195 44.898 44.588 44.305 44.113 43.905 43.735 43.618 43.545 43.543 43.535 43.53 43.56 43.548 43.545 43.518 43.47 43.4 43.37 43.353 43.373 43.408 43.443 43.475 43.533 43.638 43.595 43.558 43.525 43.495 43.528 43.583 43.668 43.715 43.82 43.965 44.078 44.22 44.33 44.43 44.55 44.613 44.648 44.733 44.795 44.893 44.938 45.063 45.138 45.245 45.31 45.398 45.51 45.595 45.655 45.735 45.858 45.915 45.97 46.083 46.145 46.38 46.473 46.488 46.53 46.563 46.555 46.608 46.645 46.69 46.703 46.755 46.775 46.785 46.768 46.8 46.845 46.863 46.86 46.903 46.943 46.938 46.975 47 47.03 47.01 47.035 47.065 47.073 47.118 47.128 47.103 47.123 47.133 47.138 47.115 47.138 47.123 47.073 47.065 47.053 47.015 46.983 46.933 46.928 46.855 46.825 46.78 46.725 46.668 46.648 46.595 46.54 46.505 46.42 46.375 46.345 46.295 46.283 46.213 46.208 46.193 46.163 46.173 46.185 46.165 46.185 46.173 46.183 46.19 46.2 46.205 46.178 46.17 46.178 46.22 46.203 46.208 46.18 46.16 46.163 46.15 46.138 46.133 46.13 46.108 46.1 46.083 46.083 46.083 46.115 46.153 46.145 46.128 46.163 46.12 46.138 46.03 45.955 45.878 45.893 45.853 45.83 45.815 45.868 45.808 45.85 45.883 45.87 45.915 45.975 45.97 45.955 45.86 45.558 45.365 45.218 45.115 45.073 45.07 45.005 44.948 44.898 44.838 44.78 44.745 44.745 44.723 44.773 44.85 44.978 44.988 45.073 45.145 45.105 44.918 44.703 44.63 44.595 44.52 44.498 44.448 44.435 44.415 44.43 44.535 44.643 44.71 44.655 44.638 44.62 44.628 44.66 44.66 44.658 44.643 44.59 44.59 44.6 44.613 44.615 44.543 44.523 44.548 44.565 44.55 44.558 44.588 44.62 44.65 44.71 44.905 45.17 45.278 45.385 45.405 45.405 45.373 45.378
47.085 46.985 46.945 47.085 47.198 47.168 47.26 47.065 46.888 46.965 46.745 46.498 46.568 47.008 47.205 47.143 47.06 47.048 47.008 46.98 46.983 46.973 46.908 46.888 46.948 47.05 47.06 47.045 46.995 46.508 45.988 46.265 46.455 46.515 46.6 46.723 47.03 47.275 47.505 47.638 47.89 48.233 48.508 48.768 48.995 49.183 49.328 49.378 49.378 49.35 49.33 49.27 49.165 49.16 49.083 49.048 48.978 48.903 48.88 48.945 48.873 48.868 48.84 48.803 48.785 48.798 48.798 48.808 48.848 48.843 48.873 48.913 48.9 48.955 48.968 49.02 49.065 49.125 49.183 49.22 49.258 49.308 49.363 49.45 49.533 49.585 49.718 49.783 49.85 49.928 49.993 50.035 50.098 50.15 50.235 50.3 50.383 50.46 50.503 50.545 50.62 50.663 50.73 50.78 50.8 50.893 50.945 51.035 51.09 51.123 51.22 51.3 51.418 51.493 51.593 51.683 51.77 51.873 51.95 52.045 52.148 52.195 52.28 52.313 52.36 52.468 52.538 52.578 52.613 52.65 52.715 52.733 52.813 52.87 52.91 52.953 53.028 53.078 53.158 53.268 53.35 53.51 53.673 53.725 53.818 53.825 53.838 53.87 53.905 53.935 53.94 53.938 53.945 53.86 53.825 53.78 53.713 53.66 53.555 53.458 53.358 53.233 53.113 53.018 52.865 52.733 52.63 52.53 52.41 52.298 52.198 52.09 51.975 51.81 51.743 51.645 51.548 51.393 51.273 51.133 50.968 50.78 50.663 50.468 50.323 50.183 49.983 49.768 49.558 49.338 49.103 48.878 48.593 48.3 47.96 47.665 47.303 46.963 46.613 46.275 45.93 45.635 45.28 44.953 44.638 44.37 44.11 43.91 43.763 43.623 43.57 43.57 43.593 43.585 43.605 43.638 43.613 43.55 43.515 43.45 43.385 43.353 43.388 43.435 43.37 43.445 43.55 43.61 43.58 43.58 43.57 43.538 43.57 43.61 43.648 43.683 43.745 43.868 43.973 44.098 44.26 44.34 44.445 44.498 44.548 44.628 44.743 44.833 44.938 44.985 45.068 45.148 45.195 45.315 45.4 45.5 45.568 45.653 45.733 45.813 45.868 45.928 45.988 46.108 46.31 46.423 46.485 46.52 46.498 46.483 46.548 46.6 46.628 46.68 46.713 46.768 46.773 46.763 46.805 46.838 46.868 46.913 46.938 46.96 47 47.008 47.06 47.053 47.073 47.075 47.105 47.158 47.15 47.163 47.165 47.178 47.178 47.195 47.198 47.175 47.143 47.125 47.113 47.05 47.018 46.98 46.94 46.89 46.848 46.83 46.788 46.705 46.665 46.643 46.595 46.558 46.495 46.423 46.42 46.35 46.3 46.285 46.265 46.25 46.223 46.195 46.165 46.193 46.178 46.158 46.158 46.185 46.17 46.198 46.165 46.153 46.175 46.153 46.175 46.175 46.203 46.2 46.185 46.158 46.183 46.14 46.115 46.108 46.095 46.05 46.078 46.11 46.103 46.14 46.133 46.143 46.163 46.185 46.14 46.055 45.975 45.94 45.965 45.945 45.96 45.888 45.873 45.828 45.788 45.83 45.848 45.87 45.89 45.935 45.938 46.018 45.993 45.905 45.773 45.363 45.238 45.188 45.128 45.083 45.025 44.97 44.925 44.89 44.883 44.88 44.885 44.96 45.043 45.085 45.105 45.158 45.105 44.888 44.73 44.668 44.61 44.54 44.503 44.49 44.488 44.448 44.455 44.475 44.515 44.625 44.708 44.66 44.608 44.65 44.638 44.643 44.63 44.635 44.603 44.59 44.618 44.62 44.635 44.548 44.56 44.605 44.623 44.625 44.588 44.605 44.635 44.665 44.753 44.99 45.288 45.433 45.373 45.398 45.415 45.383 45.375
46.93 46.858 46.918 47 47.223 47.04 47.055 46.95 46.87 46.888 46.64 46.388 46.645 47.09 47.113 46.93 47.005 46.97 47.025 47.005 47.005 47 46.915 46.845 46.94 47.003 47.093 47.048 46.973 46.793 46.065 46.205 46.508 46.5 46.595 46.678 46.863 47.133 47.37 47.525 47.76 48.018 48.308 48.568 48.853 49.108 49.298 49.335 49.37 49.378 49.365 49.363 49.283 49.175 49.108 49.028 48.993 48.9 48.82 48.828 48.825 48.825 48.758 48.735 48.688 48.715 48.733 48.733 48.748 48.758 48.778 48.825 48.808 48.873 48.885 48.918 48.978 49.048 49.08 49.128 49.15 49.243 49.32 49.41 49.463 49.535 49.613 49.718 49.74 49.84 49.91 49.973 50.033 50.088 50.153 50.22 50.315 50.343 50.43 50.495 50.543 50.61 50.663 50.703 50.735 50.835 50.903 50.943 51.025 51.09 51.15 51.245 51.365 51.438 51.543 51.623 51.683 51.748 51.838 51.935 52.028 52.085 52.14 52.203 52.253 52.333 52.428 52.455 52.453 52.533 52.6 52.68 52.733 52.763 52.818 52.863 52.915 52.99 53.103 53.195 53.293 53.448 53.61 53.775 53.87 53.825 53.795 53.813 53.84 53.893 53.908 53.873 53.845 53.803 53.758 53.728 53.638 53.558 53.433 53.368 53.27 53.135 53.04 52.933 52.81 52.673 52.605 52.475 52.378 52.258 52.175 52.065 51.938 51.833 51.753 51.67 51.535 51.438 51.283 51.165 51.013 50.87 50.713 50.535 50.393 50.248 50.065 49.828 49.65 49.443 49.22 48.975 48.683 48.385 48.058 47.758 47.433 47.103 46.743 46.36 46.028 45.715 45.373 45.025 44.703 44.408 44.13 43.923 43.77 43.66 43.618 43.623 43.605 43.635 43.673 43.653 43.658 43.62 43.563 43.498 43.45 43.39 43.37 43.418 43.38 43.395 43.528 43.575 43.59 43.568 43.56 43.568 43.585 43.623 43.623 43.653 43.685 43.773 43.85 43.983 44.13 44.233 44.31 44.388 44.458 44.545 44.66 44.805 44.915 44.963 45.06 45.08 45.125 45.233 45.313 45.423 45.478 45.568 45.655 45.68 45.74 45.843 45.893 45.995 46.098 46.245 46.35 46.43 46.448 46.43 46.445 46.483 46.558 46.598 46.653 46.698 46.753 46.738 46.778 46.815 46.838 46.88 46.915 46.945 46.97 46.988 47.025 47.07 47.1 47.095 47.135 47.173 47.208 47.23 47.223 47.24 47.24 47.24 47.22 47.228 47.178 47.168 47.153 47.103 47.06 47.043 46.993 46.96 46.9 46.883 46.855 46.77 46.75 46.713 46.62 46.588 46.533 46.508 46.455 46.383 46.348 46.325 46.288 46.275 46.233 46.23 46.225 46.218 46.215 46.215 46.193 46.183 46.175 46.173 46.16 46.14 46.178 46.138 46.153 46.17 46.188 46.203 46.175 46.143 46.125 46.118 46.098 46.11 46.093 46.08 46.075 46.11 46.118 46.125 46.143 46.14 46.123 46.098 46.025 45.973 45.92 45.858 45.84 45.833 45.813 45.895 45.943 45.9 45.835 45.805 45.815 45.785 45.838 45.88 45.885 45.883 45.955 45.963 45.98 45.71 45.688 45.6 45.29 45.17 45.128 45.13 45.07 45.008 44.995 45.02 45.065 45.135 45.18 45.223 45.145 45.113 45.075 44.94 44.83 44.74 44.668 44.633 44.605 44.573 44.535 44.49 44.483 44.54 44.483 44.538 44.613 44.7 44.668 44.658 44.688 44.655 44.665 44.65 44.613 44.648 44.653 44.613 44.6 44.58 44.638 44.655 44.665 44.685 44.678 44.623 44.65 44.685 44.808 45.093 45.405 45.413 45.44 45.41 45.403 45.408 45.365
46.813 46.835 46.873 46.913 47.165 47.163 47.173 46.985 47.003 46.913 46.565 46.475 46.68 47.003 46.978 46.943 46.928 46.953 47.023 47.04 47.02 46.985 46.945 46.913 46.898 46.94 47.043 47.035 46.985 46.908 46.228 46.035 46.255 46.468 46.6 46.608 46.68 46.863 47.188 47.398 47.59 47.775 48.02 48.34 48.615 48.89 49.095 49.23 49.295 49.37 49.4 49.37 49.278 49.22 49.125 49.04 48.965 48.878 48.808 48.763 48.723 48.743 48.695 48.658 48.655 48.623 48.678 48.698 48.698 48.673 48.69 48.745 48.733 48.785 48.818 48.838 48.875 48.925 49.02 49.083 49.093 49.155 49.218 49.318 49.393 49.453 49.538 49.598 49.675 49.745 49.805 49.9 49.95 50.018 50.098 50.178 50.245 50.285 50.35 50.445 50.495 50.533 50.58 50.62 50.695 50.768 50.808 50.903 50.96 51.02 51.098 51.18 51.275 51.388 51.473 51.543 51.59 51.655 51.76 51.818 51.903 51.948 52.028 52.115 52.138 52.203 52.298 52.353 52.335 52.443 52.498 52.578 52.623 52.683 52.725 52.773 52.848 52.918 53.025 53.128 53.228 53.335 53.545 53.888 53.963 53.953 53.865 53.775 53.808 53.84 53.843 53.81 53.773 53.745 53.69 53.63 53.565 53.47 53.35 53.258 53.195 53.055 52.95 52.838 52.708 52.605 52.525 52.415 52.303 52.203 52.118 52.03 51.94 51.808 51.743 51.655 51.538 51.44 51.343 51.203 51.035 50.923 50.765 50.608 50.46 50.28 50.115 49.895 49.7 49.503 49.273 49.043 48.748 48.5 48.175 47.853 47.553 47.233 46.878 46.525 46.175 45.82 45.455 45.095 44.76 44.458 44.195 43.97 43.775 43.735 43.633 43.638 43.67 43.683 43.723 43.7 43.713 43.688 43.648 43.543 43.453 43.418 43.383 43.41 43.41 43.403 43.503 43.543 43.588 43.568 43.568 43.535 43.558 43.593 43.638 43.625 43.638 43.693 43.743 43.855 44.013 44.093 44.178 44.278 44.383 44.468 44.613 44.785 44.863 44.93 45.01 45.068 45.12 45.183 45.24 45.305 45.405 45.468 45.565 45.615 45.663 45.703 45.813 45.88 45.925 46.023 46.198 46.285 46.418 46.433 46.378 46.373 46.44 46.505 46.59 46.64 46.675 46.713 46.73 46.798 46.84 46.865 46.895 46.928 46.95 46.998 47.013 47.055 47.113 47.13 47.143 47.18 47.22 47.24 47.255 47.283 47.305 47.26 47.263 47.268 47.22 47.2 47.188 47.153 47.138 47.125 47.08 47.058 46.998 46.983 46.93 46.855 46.778 46.748 46.705 46.65 46.595 46.535 46.52 46.463 46.413 46.348 46.305 46.313 46.308 46.263 46.26 46.223 46.245 46.225 46.24 46.235 46.203 46.205 46.215 46.19 46.18 46.173 46.173 46.215 46.203 46.208 46.193 46.168 46.135 46.128 46.13 46.128 46.09 46.098 46.093 46.098 46.1 46.103 46.133 46.153 46.103 46.088 46.038 45.953 45.83 45.73 45.675 45.65 45.643 45.713 45.81 45.975 45.923 45.918 45.97 45.863 45.803 45.825 45.833 45.835 45.868 45.89 45.915 45.908 45.98 46.018 45.95 45.535 45.323 45.37 45.34 45.238 45.228 45.18 45.188 45.253 45.415 45.4 45.205 45.118 45.093 44.998 44.928 44.798 44.76 44.723 44.693 44.623 44.575 44.51 44.475 44.595 44.545 44.505 44.513 44.618 44.635 44.655 44.658 44.655 44.66 44.665 44.643 44.6 44.64 44.573 44.638 44.685 44.705 44.705 44.715 44.735 44.753 44.71 44.668 44.703 44.895 45.303 45.415 45.438 45.483 45.485 45.428 45.385 45.355
46.808 46.818 46.79 46.8 46.89 47.163 47.293 47.085 46.875 46.598 46.423 46.713 46.805 46.955 46.965 46.998 46.945 46.953 46.995 47.03 47.005 46.94 46.928 46.953 46.9 46.878 46.963 47.065 47.033 47.008 46.665 46.015 46.135 46.485 46.608 46.56 46.605 46.713 46.988 47.243 47.405 47.55 47.735 48.03 48.393 48.64 48.825 49.01 49.175 49.273 49.368 49.43 49.353 49.27 49.205 49.035 48.923 48.843 48.795 48.693 48.66 48.663 48.625 48.605 48.625 48.618 48.605 48.61 48.613 48.625 48.643 48.648 48.66 48.688 48.74 48.735 48.828 48.86 48.908 48.95 48.975 49.078 49.145 49.213 49.295 49.35 49.44 49.518 49.588 49.668 49.768 49.835 49.895 49.933 50.003 50.078 50.145 50.203 50.27 50.348 50.373 50.465 50.488 50.58 50.618 50.693 50.713 50.805 50.883 50.95 50.995 51.088 51.165 51.27 51.36 51.445 51.513 51.555 51.598 51.668 51.775 51.82 51.905 51.935 52.023 52.113 52.163 52.218 52.255 52.345 52.423 52.48 52.543 52.58 52.618 52.71 52.785 52.838 52.938 53.035 53.155 53.243 53.455 53.93 54.123 54.003 53.873 53.69 53.7 53.728 53.73 53.713 53.668 53.635 53.618 53.57 53.493 53.373 53.245 53.17 53.098 52.968 52.858 52.753 52.638 52.55 52.46 52.355 52.248 52.128 52.048 51.968 51.893 51.8 51.72 51.648 51.535 51.44 51.303 51.203 51.07 50.923 50.783 50.635 50.475 50.32 50.175 49.923 49.763 49.545 49.335 49.1 48.81 48.555 48.263 47.97 47.643 47.345 46.988 46.625 46.285 45.93 45.553 45.188 44.845 44.513 44.245 44.02 43.82 43.763 43.71 43.688 43.72 43.725 43.72 43.745 43.75 43.725 43.693 43.615 43.518 43.413 43.415 43.398 43.405 43.423 43.453 43.553 43.613 43.61 43.56 43.528 43.535 43.588 43.595 43.598 43.598 43.655 43.735 43.818 43.945 44.028 44.108 44.18 44.3 44.41 44.595 44.75 44.83 44.913 44.958 45.028 45.108 45.185 45.268 45.283 45.31 45.385 45.438 45.525 45.563 45.603 45.695 45.77 45.843 45.915 46.043 46.12 46.263 46.373 46.41 46.348 46.355 46.388 46.47 46.54 46.6 46.675 46.693 46.758 46.81 46.855 46.918 46.955 46.98 47.015 47.025 47.058 47.103 47.135 47.178 47.213 47.225 47.228 47.24 47.27 47.25 47.258 47.303 47.27 47.24 47.238 47.228 47.208 47.183 47.173 47.143 47.123 47.068 47.038 46.98 46.935 46.893 46.825 46.753 46.68 46.643 46.578 46.525 46.5 46.455 46.403 46.358 46.348 46.34 46.303 46.285 46.278 46.263 46.258 46.228 46.228 46.21 46.203 46.243 46.213 46.228 46.25 46.228 46.218 46.208 46.21 46.218 46.195 46.185 46.185 46.163 46.148 46.15 46.133 46.108 46.115 46.108 46.095 46.113 46.14 46.105 46.105 46.025 45.94 45.81 45.73 45.67 45.57 45.538 45.505 45.608 45.775 45.84 45.858 45.943 45.99 45.988 45.953 45.878 45.803 45.823 45.865 45.855 45.878 45.918 45.905 45.963 45.788 45.723 45.743 45.68 45.58 45.418 45.313 45.345 45.485 45.595 45.53 45.355 45.188 45.175 45.123 45.03 44.925 44.845 44.808 44.77 44.698 44.63 44.573 44.565 44.615 44.595 44.518 44.485 44.54 44.62 44.673 44.663 44.67 44.673 44.718 44.643 44.585 44.573 44.59 44.708 44.778 44.768 44.75 44.755 44.775 44.8 44.815 44.735 44.74 45.125 45.405 45.428 45.465 45.478 45.468 45.443 45.423 45.395
46.83 46.745 46.738 46.758 46.81 47.015 47.15 46.945 46.618 46.45 46.688 46.873 46.875 46.995 47.018 46.953 46.983 46.98 47.005 46.953 46.938 46.948 46.905 46.885 46.91 46.94 46.975 47.108 47.108 47.048 46.923 46.148 45.985 46.473 46.518 46.453 46.485 46.628 46.803 47.06 47.273 47.42 47.53 47.703 48.055 48.428 48.61 48.79 48.94 49.07 49.17 49.235 49.265 49.24 49.155 49.035 48.883 48.813 48.748 48.66 48.603 48.568 48.538 48.538 48.548 48.555 48.54 48.543 48.575 48.568 48.558 48.583 48.578 48.588 48.67 48.673 48.725 48.803 48.833 48.888 48.9 48.965 49.07 49.153 49.193 49.283 49.36 49.448 49.51 49.58 49.703 49.765 49.84 49.87 49.89 50.005 50.063 50.123 50.205 50.275 50.325 50.388 50.405 50.468 50.54 50.618 50.628 50.735 50.798 50.878 50.933 50.995 51.1 51.155 51.255 51.343 51.38 51.44 51.538 51.56 51.648 51.7 51.775 51.845 51.928 51.94 52.025 52.123 52.13 52.22 52.313 52.335 52.443 52.493 52.528 52.598 52.708 52.773 52.855 52.983 53.083 53.158 53.31 53.803 54.013 53.928 53.75 53.585 53.605 53.605 53.618 53.615 53.608 53.595 53.518 53.465 53.4 53.295 53.168 53.075 53.035 52.908 52.798 52.725 52.568 52.468 52.37 52.305 52.198 52.088 52.003 51.948 51.86 51.76 51.66 51.623 51.498 51.41 51.32 51.185 51.065 50.923 50.808 50.63 50.495 50.34 50.19 49.968 49.79 49.565 49.35 49.103 48.848 48.595 48.305 48.02 47.708 47.383 47.063 46.693 46.353 46.02 45.655 45.283 44.933 44.57 44.295 44.045 43.908 43.843 43.768 43.743 43.748 43.76 43.775 43.765 43.775 43.783 43.72 43.628 43.555 43.453 43.455 43.45 43.418 43.423 43.448 43.518 43.558 43.585 43.545 43.545 43.498 43.533 43.56 43.583 43.623 43.68 43.723 43.793 43.883 43.975 44.025 44.098 44.21 44.338 44.513 44.695 44.808 44.893 44.948 45.02 45.075 45.183 45.25 45.28 45.275 45.313 45.333 45.403 45.445 45.5 45.558 45.648 45.705 45.815 45.933 45.98 46.033 46.168 46.348 46.38 46.343 46.363 46.378 46.458 46.533 46.565 46.635 46.703 46.77 46.838 46.895 46.96 46.988 47.035 47.085 47.12 47.12 47.133 47.183 47.218 47.22 47.273 47.255 47.253 47.248 47.273 47.26 47.238 47.238 47.26 47.228 47.235 47.223 47.208 47.228 47.183 47.13 47.083 47.065 47.013 46.92 46.883 46.823 46.753 46.7 46.635 46.55 46.53 46.443 46.443 46.385 46.37 46.365 46.343 46.33 46.295 46.3 46.285 46.238 46.238 46.24 46.218 46.25 46.268 46.26 46.24 46.238 46.23 46.225 46.24 46.235 46.248 46.24 46.23 46.223 46.188 46.205 46.203 46.17 46.178 46.178 46.173 46.16 46.155 46.128 46.088 46.048 45.945 45.84 45.713 45.658 45.62 45.603 45.578 45.605 45.628 45.65 45.738 45.795 45.915 46.015 46.063 46.013 45.903 45.838 45.835 45.825 45.865 45.843 45.843 45.918 45.89 45.928 45.93 45.878 45.84 45.685 45.563 45.688 45.54 45.608 45.593 45.515 45.28 45.18 45.175 45.133 45.025 44.935 44.835 44.798 44.765 44.688 44.648 44.618 44.608 44.588 44.56 44.52 44.518 44.543 44.62 44.7 44.695 44.673 44.635 44.628 44.565 44.54 44.705 44.938 44.988 44.905 44.828 44.805 44.825 44.845 44.86 44.87 44.97 45.343 45.42 45.443 45.465 45.46 45.438 45.393 45.38 45.37
46.958 46.645 46.69 46.74 46.78 46.885 46.973 46.735 46.45 46.295 46.71 46.803 46.913 47.053 47.028 46.813 46.998 47.018 47.005 47.003 46.985 46.945 46.92 46.903 46.895 46.905 47.03 47.2 47.2 46.988 46.913 46.585 45.845 46.283 46.553 46.455 46.47 46.453 46.518 46.695 47.108 47.33 47.44 47.468 47.693 48.068 48.325 48.548 48.7 48.813 48.918 48.993 49.043 49.07 49.068 49.033 48.913 48.785 48.728 48.645 48.59 48.525 48.478 48.48 48.48 48.503 48.488 48.473 48.495 48.493 48.5 48.49 48.475 48.535 48.565 48.6 48.65 48.733 48.74 48.818 48.878 48.915 48.978 49.043 49.115 49.205 49.273 49.365 49.458 49.51 49.603 49.663 49.743 49.78 49.818 49.898 50.01 50.07 50.11 50.165 50.258 50.3 50.35 50.428 50.47 50.54 50.573 50.623 50.73 50.798 50.84 50.933 50.985 51.045 51.125 51.225 51.268 51.358 51.413 51.43 51.548 51.598 51.643 51.695 51.793 51.833 51.9 51.968 52.045 52.12 52.19 52.23 52.333 52.41 52.478 52.525 52.645 52.728 52.805 52.91 53.028 53.118 53.345 53.768 53.958 53.818 53.6 53.478 53.51 53.515 53.54 53.538 53.523 53.523 53.435 53.39 53.308 53.228 53.128 53.045 52.978 52.838 52.755 52.653 52.543 52.435 52.345 52.255 52.165 52.053 51.985 51.938 51.815 51.74 51.645 51.563 51.458 51.368 51.255 51.163 51.03 50.895 50.795 50.628 50.495 50.34 50.165 49.973 49.773 49.55 49.348 49.08 48.843 48.585 48.323 47.998 47.723 47.415 47.138 46.81 46.438 46.12 45.738 45.365 45.005 44.68 44.375 44.143 43.945 43.888 43.855 43.815 43.785 43.768 43.818 43.865 43.855 43.805 43.76 43.668 43.605 43.523 43.488 43.483 43.425 43.423 43.455 43.518 43.575 43.58 43.548 43.535 43.505 43.468 43.53 43.59 43.615 43.67 43.723 43.748 43.81 43.853 43.91 44.028 44.143 44.308 44.508 44.678 44.793 44.878 44.92 44.998 45.068 45.15 45.198 45.235 45.258 45.285 45.285 45.318 45.328 45.4 45.45 45.528 45.61 45.72 45.848 45.888 45.948 46.045 46.153 46.275 46.305 46.333 46.353 46.393 46.438 46.498 46.583 46.665 46.73 46.77 46.855 46.903 46.97 47.043 47.063 47.1 47.148 47.175 47.215 47.253 47.253 47.288 47.28 47.26 47.27 47.273 47.275 47.265 47.275 47.265 47.245 47.253 47.23 47.213 47.22 47.198 47.17 47.133 47.105 47.045 46.968 46.908 46.883 46.8 46.745 46.67 46.608 46.55 46.498 46.458 46.415 46.408 46.368 46.353 46.335 46.338 46.318 46.285 46.28 46.245 46.233 46.218 46.235 46.24 46.248 46.25 46.248 46.233 46.265 46.268 46.27 46.275 46.273 46.273 46.263 46.228 46.24 46.263 46.235 46.208 46.233 46.233 46.245 46.21 46.148 46.115 46.053 45.945 45.83 45.72 45.653 45.635 45.65 45.655 45.72 45.708 45.7 45.713 45.78 45.863 45.905 45.988 45.993 46.003 45.998 45.943 45.93 45.798 45.828 45.873 45.905 45.895 45.89 45.908 45.875 45.888 45.933 45.975 46.008 45.905 45.778 45.663 45.655 45.5 45.39 45.355 45.265 45.213 45.095 44.948 44.87 44.785 44.738 44.705 44.698 44.668 44.635 44.535 44.5 44.523 44.513 44.55 44.633 44.685 44.678 44.698 44.645 44.623 44.68 44.853 45.08 45.13 45.13 45.095 45.063 45 44.925 44.898 45.09 45.363 45.395 45.415 45.443 45.45 45.43 45.385 45.34 45.333 45.328
47.033 46.895 46.858 46.775 46.858 46.898 46.863 46.588 46.39 46.49 46.773 46.96 47.013 47.153 47.19 47.083 46.98 46.998 47.028 47.018 46.975 46.935 46.865 46.818 46.85 46.863 46.928 47.045 47.125 47.02 46.853 46.578 46.128 46.05 46.335 46.46 46.468 46.46 46.413 46.355 46.66 47.22 47.405 47.265 47.34 47.515 47.993 48.253 48.45 48.55 48.668 48.72 48.798 48.903 48.95 48.948 48.903 48.763 48.665 48.563 48.533 48.493 48.423 48.423 48.433 48.45 48.44 48.415 48.43 48.423 48.393 48.423 48.418 48.453 48.503 48.538 48.583 48.62 48.67 48.758 48.795 48.855 48.923 48.99 49.033 49.11 49.188 49.273 49.338 49.43 49.518 49.588 49.655 49.723 49.775 49.828 49.878 49.993 50.025 50.078 50.128 50.193 50.26 50.335 50.4 50.448 50.49 50.565 50.63 50.708 50.743 50.828 50.92 50.955 51.06 51.128 51.163 51.223 51.243 51.313 51.398 51.478 51.473 51.595 51.613 51.725 51.77 51.89 51.938 52.003 52.08 52.145 52.23 52.345 52.393 52.475 52.563 52.658 52.775 52.843 52.948 53.06 53.235 53.728 53.893 53.81 53.648 53.4 53.418 53.438 53.478 53.473 53.46 53.458 53.398 53.35 53.258 53.195 53.098 52.988 52.935 52.808 52.705 52.605 52.478 52.398 52.303 52.218 52.133 52.018 51.948 51.89 51.77 51.703 51.6 51.515 51.425 51.315 51.225 51.145 51.005 50.885 50.783 50.633 50.468 50.375 50.173 49.968 49.78 49.565 49.333 49.063 48.845 48.563 48.285 47.985 47.74 47.448 47.143 46.865 46.508 46.203 45.868 45.495 45.128 44.795 44.513 44.283 44.078 43.963 43.925 43.88 43.87 43.885 43.9 43.93 43.925 43.893 43.858 43.778 43.673 43.58 43.538 43.503 43.455 43.445 43.45 43.49 43.563 43.555 43.518 43.518 43.475 43.41 43.503 43.588 43.623 43.653 43.7 43.718 43.748 43.738 43.793 43.885 44.023 44.213 44.478 44.685 44.805 44.903 44.97 45.015 45.073 45.125 45.165 45.183 45.203 45.23 45.265 45.278 45.27 45.278 45.313 45.423 45.508 45.653 45.713 45.793 45.875 45.94 46.048 46.168 46.26 46.33 46.358 46.353 46.37 46.415 46.493 46.583 46.648 46.73 46.815 46.878 46.973 47.038 47.075 47.113 47.158 47.203 47.255 47.28 47.28 47.32 47.325 47.305 47.303 47.308 47.29 47.295 47.293 47.28 47.293 47.27 47.258 47.228 47.245 47.21 47.133 47.138 47.103 47.07 46.983 46.943 46.893 46.833 46.788 46.748 46.66 46.595 46.568 46.508 46.495 46.478 46.418 46.405 46.375 46.358 46.325 46.308 46.305 46.288 46.275 46.24 46.258 46.253 46.265 46.275 46.27 46.24 46.245 46.273 46.275 46.268 46.268 46.298 46.31 46.323 46.283 46.308 46.298 46.28 46.265 46.245 46.268 46.24 46.175 46.128 46.05 45.943 45.87 45.763 45.693 45.645 45.705 45.733 45.753 45.785 45.773 45.775 45.838 45.863 45.863 45.92 45.995 46.005 46.023 46.058 46.05 45.978 45.878 45.823 45.858 45.858 45.885 45.945 45.925 45.903 45.91 45.928 45.978 46.018 45.945 45.835 45.815 45.775 45.68 45.65 45.518 45.415 45.265 45.07 44.903 44.84 44.825 44.795 44.773 44.705 44.618 44.533 44.548 44.553 44.495 44.513 44.56 44.638 44.71 44.703 44.608 44.765 44.938 45.06 45.12 45.218 45.218 45.183 45.17 45.018 44.89 44.903 45.27 45.385 45.385 45.4 45.443 45.425 45.393 45.318 45.295 45.293 45.335
46.99 47.068 46.998 46.865 46.743 46.608 46.618 46.438 46.518 46.645 46.808 47.038 46.993 47.115 47.145 47.105 46.948 46.983 47.02 46.925 46.91 46.89 46.855 46.798 46.81 46.838 46.848 46.943 47.005 47.025 46.918 46.87 46.508 45.96 45.995 46.245 46.443 46.438 46.403 46.405 46.44 46.895 47.13 47.14 47.228 47.305 47.523 47.848 48.135 48.275 48.388 48.578 48.665 48.743 48.793 48.763 48.763 48.735 48.643 48.558 48.51 48.445 48.39 48.36 48.35 48.365 48.368 48.35 48.348 48.363 48.33 48.365 48.375 48.403 48.428 48.445 48.51 48.545 48.6 48.69 48.728 48.788 48.83 48.885 48.968 49.043 49.113 49.195 49.25 49.335 49.4 49.51 49.59 49.648 49.72 49.745 49.785 49.86 49.98 50 50.07 50.108 50.16 50.268 50.325 50.358 50.413 50.475 50.558 50.593 50.695 50.748 50.79 50.875 50.978 51.028 51.063 51.11 51.188 51.193 51.325 51.35 51.383 51.5 51.545 51.58 51.668 51.758 51.84 51.875 51.988 52.085 52.175 52.285 52.32 52.415 52.518 52.55 52.688 52.753 52.875 52.96 53.123 53.408 53.635 53.708 53.493 53.305 53.323 53.365 53.41 53.423 53.398 53.358 53.325 53.288 53.243 53.163 53.065 52.985 52.898 52.77 52.663 52.578 52.455 52.38 52.27 52.19 52.105 52.02 51.898 51.85 51.738 51.688 51.578 51.505 51.398 51.293 51.23 51.098 50.995 50.903 50.815 50.643 50.498 50.368 50.178 49.96 49.743 49.508 49.283 49.038 48.778 48.51 48.228 47.93 47.693 47.438 47.16 46.888 46.573 46.268 45.99 45.623 45.283 44.955 44.678 44.425 44.255 44.125 44.033 44.015 44.005 43.995 44.015 44.023 44.005 44 43.925 43.87 43.77 43.668 43.6 43.55 43.535 43.51 43.453 43.483 43.525 43.533 43.495 43.465 43.463 43.445 43.493 43.575 43.6 43.633 43.695 43.705 43.715 43.705 43.695 43.768 43.92 44.115 44.38 44.63 44.78 44.898 44.99 45.028 45.088 45.118 45.178 45.18 45.173 45.178 45.19 45.178 45.198 45.175 45.243 45.333 45.4 45.518 45.628 45.715 45.835 45.893 45.953 46.068 46.153 46.175 46.348 46.363 46.383 46.383 46.433 46.495 46.548 46.67 46.77 46.858 46.973 47.065 47.08 47.143 47.2 47.253 47.28 47.313 47.323 47.355 47.363 47.335 47.328 47.295 47.303 47.315 47.298 47.315 47.298 47.258 47.253 47.265 47.24 47.213 47.19 47.168 47.12 47.015 46.985 46.925 46.873 46.798 46.765 46.73 46.683 46.648 46.6 46.578 46.56 46.535 46.455 46.448 46.393 46.393 46.38 46.35 46.32 46.308 46.305 46.313 46.295 46.278 46.298 46.273 46.283 46.263 46.26 46.275 46.28 46.278 46.29 46.318 46.325 46.358 46.358 46.333 46.328 46.35 46.338 46.283 46.275 46.265 46.203 46.145 46.07 45.948 45.87 45.78 45.758 45.725 45.738 45.733 45.758 45.793 45.808 45.873 45.96 45.948 45.918 45.968 46.028 46.093 46.123 46.135 46.065 46.025 45.88 45.825 45.828 45.815 45.85 45.868 45.9 45.935 45.89 45.938 45.898 45.888 45.883 45.93 45.913 45.918 45.855 45.81 45.728 45.578 45.438 45.343 45.1 44.973 44.905 44.848 44.805 44.768 44.718 44.625 44.575 44.578 44.533 44.55 44.555 44.62 44.698 44.678 44.733 45.003 45.258 45.313 45.305 45.27 45.198 45.173 45.205 45.223 45.075 45.17 45.305 45.345 45.355 45.38 45.415 45.39 45.32 45.26 45.255 45.31 45.373
46.97 47.078 46.94 46.805 46.723 46.49 46.303 46.465 46.75 46.738 46.93 47.048 46.928 47.093 47.133 47.045 46.973 46.95 46.99 46.925 46.883 46.85 46.84 46.828 46.81 46.813 46.798 46.848 46.915 47.003 46.985 46.918 46.775 46.258 45.853 46.043 46.3 46.433 46.385 46.393 46.36 46.603 46.873 47.06 47.15 47.145 47.288 47.493 47.705 47.898 48.09 48.28 48.37 48.445 48.498 48.51 48.548 48.653 48.653 48.535 48.483 48.388 48.345 48.308 48.278 48.298 48.29 48.278 48.295 48.29 48.28 48.315 48.32 48.333 48.383 48.385 48.455 48.485 48.53 48.605 48.63 48.675 48.755 48.815 48.923 48.988 49.025 49.105 49.198 49.258 49.328 49.425 49.5 49.573 49.613 49.658 49.755 49.825 49.888 49.915 50.015 50.043 50.083 50.12 50.223 50.308 50.328 50.358 50.463 50.508 50.543 50.638 50.685 50.753 50.833 50.903 50.94 51.005 51.085 51.043 51.195 51.258 51.305 51.333 51.44 51.478 51.558 51.673 51.76 51.805 51.893 51.998 52.098 52.178 52.255 52.308 52.425 52.49 52.618 52.705 52.823 52.89 53.023 53.253 53.465 53.43 53.31 53.19 53.24 53.248 53.305 53.355 53.323 53.32 53.318 53.248 53.208 53.13 53.033 52.955 52.885 52.78 52.64 52.57 52.493 52.368 52.26 52.195 52.085 52.005 51.92 51.833 51.755 51.678 51.58 51.465 51.393 51.288 51.203 51.09 50.968 50.88 50.768 50.618 50.47 50.328 50.14 49.928 49.715 49.513 49.245 48.965 48.705 48.405 48.138 47.815 47.583 47.373 47.148 46.898 46.625 46.355 46.09 45.77 45.438 45.138 44.873 44.628 44.433 44.31 44.19 44.108 44.1 44.103 44.078 44.088 44.075 44.045 43.993 43.935 43.86 43.753 43.668 43.618 43.575 43.548 43.515 43.513 43.513 43.505 43.488 43.458 43.455 43.443 43.54 43.575 43.61 43.638 43.655 43.663 43.675 43.635 43.625 43.675 43.828 43.99 44.268 44.505 44.658 44.828 44.938 45.03 45.12 45.12 45.17 45.178 45.135 45.123 45.118 45.13 45.115 45.06 45.123 45.208 45.33 45.433 45.533 45.69 45.795 45.875 45.94 46.008 46.063 46.14 46.208 46.278 46.403 46.43 46.435 46.478 46.53 46.58 46.7 46.798 46.888 46.983 47.058 47.14 47.225 47.31 47.335 47.35 47.383 47.395 47.413 47.385 47.378 47.368 47.328 47.32 47.303 47.323 47.3 47.288 47.265 47.245 47.273 47.253 47.213 47.175 47.11 47.03 47.03 46.98 46.89 46.835 46.8 46.77 46.693 46.645 46.61 46.568 46.535 46.51 46.448 46.448 46.428 46.43 46.415 46.408 46.38 46.313 46.343 46.343 46.328 46.305 46.295 46.305 46.315 46.285 46.285 46.293 46.333 46.31 46.348 46.4 46.395 46.405 46.385 46.36 46.388 46.358 46.338 46.323 46.303 46.288 46.253 46.2 46.115 45.993 45.908 45.868 45.82 45.805 45.788 45.773 45.778 45.793 45.845 45.933 46.01 45.985 46.018 46.05 46.075 46.16 46.173 46.16 46.08 46.018 45.863 45.815 45.853 45.885 45.808 45.805 45.87 45.923 45.87 45.918 45.948 45.925 45.918 45.863 45.85 45.948 45.993 45.96 45.908 45.803 45.75 45.688 45.483 45.295 45.068 44.948 44.87 44.813 44.75 44.718 44.69 44.678 44.645 44.633 44.615 44.655 44.725 44.818 44.945 45.153 45.373 45.38 45.308 45.268 45.228 45.203 45.245 45.263 45.255 45.263 45.29 45.303 45.323 45.35 45.383 45.378 45.25 45.22 45.283 45.358 45.383
47.105 47.203 47.145 46.855 46.733 46.57 46.42 46.508 46.78 46.823 47.123 47.033 46.97 47.068 47.08 47.01 47.018 46.973 46.968 46.975 46.91 46.83 46.83 46.805 46.783 46.798 46.79 46.788 46.873 47.02 47.085 46.958 46.893 46.583 45.985 46.005 46.203 46.368 46.373 46.368 46.348 46.348 46.63 46.908 47.01 46.988 47.193 47.238 47.335 47.435 47.638 47.83 47.993 48.098 48.16 48.228 48.315 48.448 48.558 48.528 48.4 48.345 48.285 48.27 48.245 48.21 48.183 48.243 48.225 48.235 48.23 48.248 48.27 48.26 48.323 48.353 48.383 48.44 48.473 48.535 48.573 48.675 48.715 48.783 48.863 48.92 48.958 49.043 49.1 49.205 49.268 49.35 49.395 49.47 49.538 49.615 49.693 49.73 49.848 49.878 49.923 49.965 49.968 50.055 50.14 50.2 50.188 50.283 50.355 50.43 50.453 50.54 50.595 50.635 50.738 50.803 50.82 50.86 50.913 50.955 51.023 51.123 51.165 51.225 51.313 51.398 51.463 51.568 51.673 51.703 51.818 51.933 52.013 52.123 52.188 52.253 52.363 52.448 52.545 52.64 52.743 52.803 52.918 53.273 53.493 53.478 53.333 53.115 53.133 53.138 53.228 53.243 53.308 53.293 53.268 53.215 53.195 53.113 53.043 52.905 52.848 52.743 52.625 52.555 52.493 52.383 52.245 52.2 52.115 52.005 51.895 51.833 51.738 51.678 51.57 51.49 51.383 51.243 51.195 51.103 50.95 50.84 50.708 50.618 50.45 50.318 50.138 49.905 49.685 49.408 49.178 48.9 48.648 48.343 48.028 47.738 47.51 47.3 47.058 46.863 46.63 46.423 46.18 45.873 45.583 45.318 45.085 44.87 44.633 44.485 44.365 44.305 44.273 44.218 44.22 44.228 44.203 44.165 44.12 44.038 43.94 43.86 43.798 43.71 43.665 43.553 43.54 43.533 43.523 43.478 43.493 43.488 43.48 43.435 43.52 43.553 43.59 43.623 43.633 43.62 43.625 43.598 43.618 43.645 43.708 43.865 44.11 44.29 44.508 44.65 44.828 44.943 45.043 45.1 45.158 45.158 45.085 45.08 45.058 45.063 44.998 44.95 44.998 45.098 45.218 45.34 45.478 45.635 45.733 45.878 45.965 46.013 46.068 46.1 46.093 46.19 46.33 46.465 46.495 46.515 46.57 46.603 46.688 46.75 46.805 46.898 46.963 47.13 47.255 47.32 47.398 47.423 47.425 47.438 47.44 47.423 47.403 47.418 47.385 47.393 47.363 47.38 47.345 47.35 47.315 47.298 47.255 47.233 47.225 47.173 47.145 47.083 47.098 46.985 46.918 46.865 46.843 46.788 46.713 46.675 46.635 46.6 46.558 46.525 46.488 46.448 46.425 46.408 46.368 46.365 46.343 46.32 46.33 46.373 46.358 46.33 46.325 46.313 46.308 46.323 46.335 46.333 46.34 46.343 46.375 46.423 46.445 46.453 46.443 46.425 46.453 46.405 46.37 46.343 46.318 46.315 46.313 46.273 46.213 46.103 45.988 45.965 45.878 45.87 45.84 45.848 45.815 45.823 45.855 45.96 46.028 46.08 46.08 46.095 46.088 46.105 46.123 46.11 46.045 46.015 45.893 45.86 45.915 45.978 45.98 45.998 45.945 45.883 45.885 45.885 45.895 45.865 45.935 45.935 45.96 45.918 45.918 45.933 45.978 45.948 45.968 45.96 45.845 45.763 45.595 45.38 45.108 44.895 44.843 44.798 44.758 44.745 44.738 44.725 44.725 44.765 44.83 44.958 45.153 45.295 45.403 45.403 45.378 45.335 45.308 45.293 45.278 45.305 45.31 45.298 45.285 45.283 45.313 45.333 45.363 45.395 45.265 45.255 45.333 45.383 45.395
47.123 47.16 47.183 47.028 46.758 46.508 46.498 46.673 46.853 46.853 46.943 46.978 46.958 47.048 47.065 47.018 47.033 47.023 46.955 46.96 46.91 46.86 46.84 46.868 46.84 46.825 46.788 46.795 46.8 46.988 47.075 47.023 46.923 46.848 46.398 45.87 45.995 46.31 46.403 46.39 46.383 46.313 46.383 46.705 46.865 47.078 47.103 47.148 47.19 47.255 47.268 47.4 47.533 47.59 47.735 47.875 47.973 48.168 48.37 48.51 48.398 48.303 48.233 48.188 48.148 48.128 48.123 48.168 48.18 48.173 48.205 48.21 48.223 48.25 48.27 48.298 48.345 48.383 48.453 48.513 48.575 48.6 48.675 48.71 48.77 48.86 48.91 48.99 49.043 49.133 49.19 49.255 49.335 49.425 49.485 49.528 49.6 49.683 49.758 49.783 49.83 49.845 49.87 49.978 50.083 50.15 50.15 50.193 50.245 50.315 50.373 50.42 50.493 50.54 50.58 50.61 50.67 50.748 50.808 50.833 50.98 51.055 51.078 51.14 51.253 51.305 51.403 51.528 51.588 51.67 51.74 51.853 51.925 52.023 52.088 52.168 52.278 52.393 52.48 52.54 52.668 52.703 52.838 53.21 53.36 53.42 53.31 53.053 53.033 53.058 53.148 53.215 53.21 53.258 53.253 53.205 53.135 53.09 52.998 52.89 52.858 52.743 52.655 52.56 52.48 52.358 52.245 52.185 52.118 52.015 51.903 51.833 51.74 51.655 51.558 51.475 51.368 51.225 51.145 51.055 50.958 50.825 50.718 50.588 50.425 50.28 50.098 49.875 49.625 49.375 49.13 48.825 48.555 48.253 47.933 47.65 47.39 47.188 47.015 46.853 46.655 46.513 46.313 46.03 45.745 45.513 45.27 45.035 44.8 44.63 44.515 44.463 44.415 44.38 44.378 44.345 44.3 44.298 44.245 44.155 44.078 43.98 43.905 43.798 43.753 43.69 43.633 43.555 43.515 43.495 43.525 43.488 43.485 43.463 43.538 43.57 43.575 43.598 43.583 43.535 43.578 43.578 43.608 43.658 43.713 43.795 43.928 44.08 44.34 44.528 44.713 44.815 44.915 44.975 45.03 45.073 45.04 45.015 44.985 44.953 44.89 44.87 44.89 44.973 45.103 45.258 45.39 45.553 45.69 45.865 45.965 46.025 46.04 46.113 46.133 46.138 46.255 46.385 46.455 46.485 46.615 46.685 46.733 46.763 46.803 46.835 46.905 46.945 47.088 47.263 47.358 47.423 47.48 47.47 47.443 47.465 47.455 47.423 47.465 47.425 47.403 47.438 47.368 47.35 47.355 47.345 47.293 47.263 47.26 47.178 47.17 47.095 47.073 47.038 46.918 46.898 46.828 46.803 46.79 46.713 46.653 46.615 46.575 46.548 46.5 46.478 46.405 46.4 46.365 46.353 46.338 46.315 46.328 46.323 46.36 46.33 46.34 46.325 46.31 46.35 46.34 46.365 46.373 46.388 46.405 46.44 46.455 46.46 46.455 46.468 46.483 46.443 46.375 46.38 46.353 46.338 46.368 46.38 46.363 46.233 46.115 45.993 45.955 45.92 45.928 45.923 45.885 45.855 45.9 46.028 46.053 46.12 46.138 46.143 46.105 46.11 46.108 46.07 46.013 45.968 45.943 45.99 46.095 46.18 46.168 46.065 46.043 45.983 46.003 45.92 45.875 45.865 45.865 45.913 45.955 45.958 45.97 45.97 45.963 45.973 46.05 46.01 46.07 46.01 45.895 45.815 45.693 45.508 45.205 44.97 44.88 44.853 44.855 44.845 44.938 44.97 45.068 45.185 45.328 45.45 45.453 45.445 45.428 45.425 45.375 45.35 45.375 45.368 45.35 45.313 45.308 45.275 45.325 45.333 45.355 45.378 45.345 45.36 45.375 45.398 45.41
47.113 47.113 47.133 46.955 46.663 46.463 46.635 46.83 46.938 46.923 46.888 46.923 46.98 47.08 47.078 47.038 47.043 47.05 46.948 46.893 46.96 46.955 46.885 46.978 46.978 46.975 46.92 46.873 46.798 46.898 46.965 47.095 46.98 46.89 46.738 45.963 45.943 46.22 46.403 46.438 46.458 46.473 46.333 46.398 46.638 46.813 46.95 47.1 47.133 47.178 47.24 47.278 47.24 47.265 47.433 47.598 47.648 47.83 48.075 48.278 48.36 48.188 48.19 48.15 48.1 48.08 48.07 48.058 48.093 48.143 48.183 48.185 48.198 48.23 48.25 48.28 48.33 48.355 48.433 48.47 48.508 48.518 48.615 48.663 48.728 48.82 48.86 48.913 48.983 49.073 49.12 49.205 49.285 49.375 49.445 49.515 49.543 49.575 49.668 49.693 49.738 49.81 49.883 49.878 49.96 50.038 50.083 50.09 50.145 50.14 50.263 50.31 50.363 50.443 50.495 50.535 50.575 50.623 50.698 50.765 50.855 50.948 50.968 51.063 51.12 51.205 51.308 51.41 51.518 51.568 51.668 51.77 51.86 51.915 52.025 52.113 52.185 52.298 52.4 52.445 52.55 52.598 52.65 52.98 53.255 53.248 53.2 52.95 52.925 52.993 53.085 53.153 53.15 53.195 53.188 53.158 53.108 53.05 52.975 52.858 52.835 52.748 52.63 52.55 52.47 52.358 52.27 52.228 52.103 52.023 51.898 51.798 51.758 51.635 51.523 51.435 51.348 51.205 51.118 51.053 50.94 50.828 50.705 50.603 50.408 50.243 50.06 49.838 49.595 49.34 49.07 48.738 48.435 48.133 47.845 47.54 47.258 47.09 46.943 46.823 46.645 46.545 46.43 46.17 45.903 45.673 45.415 45.19 44.97 44.743 44.653 44.61 44.548 44.543 44.518 44.45 44.408 44.375 44.333 44.263 44.19 44.093 44 43.903 43.84 43.738 43.725 43.655 43.585 43.565 43.558 43.503 43.49 43.483 43.538 43.608 43.588 43.593 43.595 43.5 43.523 43.563 43.638 43.685 43.725 43.768 43.853 43.943 44.145 44.38 44.545 44.72 44.79 44.843 44.9 44.945 44.91 44.9 44.88 44.878 44.853 44.808 44.808 44.898 45.035 45.193 45.32 45.475 45.665 45.82 45.945 45.993 46.065 46.07 46.135 46.138 46.198 46.265 46.378 46.445 46.578 46.68 46.748 46.78 46.82 46.89 46.92 46.94 46.99 47.06 47.158 47.313 47.408 47.445 47.478 47.48 47.493 47.488 47.473 47.48 47.465 47.46 47.433 47.393 47.408 47.375 47.37 47.32 47.303 47.268 47.205 47.15 47.113 47.05 46.968 46.913 46.87 46.853 46.823 46.748 46.688 46.62 46.583 46.558 46.528 46.47 46.43 46.415 46.395 46.383 46.365 46.338 46.343 46.325 46.343 46.338 46.33 46.33 46.3 46.328 46.36 46.373 46.393 46.41 46.425 46.398 46.423 46.473 46.453 46.47 46.503 46.453 46.403 46.383 46.365 46.375 46.445 46.455 46.458 46.355 46.228 46.118 46.073 46.01 46.008 46.023 46.033 45.965 46.01 46.183 46.19 46.153 46.163 46.185 46.173 46.143 46.115 46.1 46.023 46.03 46.083 46.058 46.028 46.055 46.1 46.093 46.048 46.033 46.02 45.943 45.915 45.903 45.885 45.848 45.895 45.898 45.92 45.94 45.955 45.963 45.995 45.97 46.04 46.073 46.105 45.99 45.95 45.92 45.85 45.583 45.268 45.005 44.925 45.03 45.21 45.275 45.335 45.465 45.483 45.528 45.533 45.513 45.503 45.493 45.468 45.428 45.405 45.373 45.385 45.368 45.348 45.335 45.358 45.343 45.328 45.368 45.365 45.378 45.375 45.393 45.425
47.07 47.045 46.94 46.715 46.463 46.463 46.675 46.813 46.95 46.83 46.93 46.925 46.983 46.988 46.99 47.055 47.07 47.028 46.968 46.918 46.823 46.83 46.843 46.948 46.96 47.008 46.988 46.97 46.965 46.91 46.98 47.078 47.05 46.928 46.833 46.35 45.933 46.08 46.318 46.473 46.453 46.498 46.403 46.293 46.365 46.563 46.85 47.05 47.085 47.118 47.163 47.15 47.108 47.118 47.235 47.335 47.385 47.53 47.753 47.958 48.15 48.135 48.13 48.118 48.06 48.013 47.993 47.993 48.023 48.088 48.13 48.155 48.19 48.19 48.228 48.263 48.288 48.328 48.403 48.458 48.48 48.51 48.565 48.625 48.685 48.76 48.823 48.878 48.933 49.028 49.033 49.155 49.213 49.288 49.358 49.408 49.423 49.455 49.518 49.58 49.633 49.685 49.763 49.788 49.843 49.883 49.968 49.96 50.055 50.07 50.145 50.178 50.198 50.308 50.34 50.423 50.453 50.458 50.543 50.64 50.703 50.793 50.838 50.928 51.035 51.095 51.22 51.315 51.42 51.495 51.618 51.693 51.765 51.858 51.958 52.005 52.103 52.188 52.283 52.323 52.4 52.465 52.573 52.828 53.01 53.11 53.033 52.825 52.828 52.875 53.008 53.07 53.12 53.148 53.193 53.14 53.108 53.058 52.915 52.835 52.803 52.745 52.648 52.563 52.443 52.303 52.233 52.198 52.118 52.025 51.915 51.813 51.72 51.618 51.533 51.418 51.323 51.205 51.113 51.033 50.935 50.805 50.68 50.565 50.4 50.223 50.045 49.81 49.56 49.29 49.02 48.718 48.413 48.085 47.773 47.455 47.23 47.04 46.928 46.798 46.693 46.625 46.508 46.348 46.09 45.835 45.57 45.308 45.08 44.88 44.815 44.76 44.695 44.668 44.625 44.588 44.56 44.513 44.49 44.425 44.333 44.233 44.128 43.98 43.888 43.848 43.798 43.71 43.688 43.625 43.61 43.578 43.573 43.528 43.528 43.63 43.625 43.643 43.585 43.573 43.56 43.578 43.618 43.658 43.713 43.76 43.795 43.858 43.983 44.173 44.385 44.593 44.655 44.718 44.755 44.795 44.8 44.77 44.763 44.763 44.743 44.733 44.74 44.83 44.975 45.115 45.273 45.395 45.57 45.748 45.878 45.903 45.96 46.005 46.078 46.135 46.158 46.22 46.3 46.423 46.513 46.605 46.683 46.778 46.898 46.93 46.958 46.973 47.04 47.06 47.06 47.113 47.2 47.348 47.445 47.488 47.52 47.555 47.488 47.468 47.468 47.47 47.48 47.45 47.465 47.425 47.383 47.358 47.35 47.32 47.27 47.203 47.138 47.108 47.078 46.998 46.935 46.88 46.848 46.78 46.74 46.638 46.608 46.56 46.538 46.53 46.483 46.458 46.425 46.403 46.398 46.395 46.365 46.338 46.313 46.335 46.33 46.318 46.32 46.34 46.375 46.373 46.39 46.36 46.383 46.388 46.443 46.475 46.468 46.463 46.45 46.45 46.405 46.403 46.423 46.43 46.435 46.47 46.455 46.37 46.305 46.195 46.143 46.135 46.155 46.163 46.173 46.13 46.153 46.24 46.253 46.255 46.233 46.225 46.218 46.178 46.113 46.065 46.06 46.098 46.115 46.085 46.028 46.1 46.085 46.085 46.098 46.038 46.02 45.935 45.935 45.923 45.913 45.863 45.875 45.863 45.89 45.94 45.94 45.97 46 45.993 45.98 45.988 46.03 46.068 46.115 46.088 46.06 46.045 45.915 45.618 45.368 45.415 45.62 45.625 45.613 45.668 45.69 45.693 45.705 45.665 45.595 45.558 45.548 45.513 45.5 45.448 45.463 45.45 45.428 45.398 45.403 45.368 45.348 45.4 45.348 45.36 45.355 45.383 45.43
46.973 46.938 46.743 46.465 46.493 46.58 46.74 46.91 47.07 46.953 46.94 46.915 46.975 46.925 46.963 47.055 47.075 47.025 46.973 46.838 46.503 46.37 46.48 46.585 46.71 46.865 46.94 46.97 46.993 46.923 46.938 47.028 47.045 46.97 46.92 46.788 46.163 45.963 46.168 46.375 46.398 46.408 46.345 46.308 46.265 46.293 46.59 46.895 46.993 47.018 47.06 47.055 47.033 47.108 47.078 47.035 47.15 47.3 47.48 47.695 47.898 48.053 48.058 48.06 47.988 47.955 47.973 47.943 47.935 48.043 48.078 48.133 48.16 48.185 48.213 48.24 48.258 48.318 48.37 48.408 48.45 48.498 48.543 48.603 48.643 48.685 48.745 48.82 48.895 48.943 48.983 49.115 49.125 49.168 49.225 49.35 49.335 49.32 49.438 49.533 49.57 49.58 49.608 49.64 49.735 49.758 49.858 49.868 49.903 49.998 50.043 50.065 50.128 50.2 50.238 50.343 50.368 50.375 50.46 50.555 50.59 50.633 50.733 50.81 50.893 50.99 51.128 51.228 51.325 51.4 51.533 51.628 51.69 51.785 51.88 51.933 52.01 52.083 52.16 52.218 52.285 52.32 52.418 52.543 52.738 52.92 52.783 52.698 52.763 52.783 52.935 53.035 53.083 53.095 53.123 53.088 53.038 52.995 52.928 52.828 52.785 52.73 52.625 52.545 52.435 52.34 52.268 52.183 52.088 51.99 51.885 51.805 51.718 51.625 51.513 51.405 51.33 51.205 51.118 51.028 50.938 50.798 50.68 50.548 50.38 50.19 50.008 49.773 49.528 49.263 48.973 48.683 48.368 48.01 47.695 47.395 47.178 47.015 46.88 46.798 46.748 46.675 46.66 46.528 46.308 46.065 45.88 45.585 45.248 45.048 44.918 44.903 44.838 44.795 44.763 44.728 44.688 44.66 44.583 44.565 44.478 44.398 44.263 44.123 44.025 43.945 43.843 43.748 43.733 43.635 43.628 43.64 43.6 43.575 43.518 43.575 43.568 43.585 43.6 43.583 43.598 43.63 43.628 43.643 43.665 43.703 43.74 43.815 43.898 44.038 44.193 44.398 44.523 44.585 44.655 44.685 44.643 44.61 44.623 44.62 44.61 44.633 44.698 44.785 44.92 45.05 45.24 45.373 45.468 45.67 45.833 45.87 45.888 45.94 45.98 46.088 46.128 46.185 46.265 46.355 46.418 46.535 46.593 46.733 46.828 46.943 47.008 47.033 47.093 47.108 47.113 47.088 47.133 47.263 47.295 47.433 47.463 47.558 47.538 47.58 47.523 47.488 47.533 47.495 47.488 47.43 47.42 47.398 47.375 47.338 47.258 47.263 47.2 47.155 47.09 47.06 46.97 46.913 46.883 46.853 46.773 46.718 46.683 46.618 46.56 46.53 46.49 46.453 46.455 46.418 46.405 46.393 46.385 46.378 46.328 46.335 46.33 46.33 46.328 46.323 46.368 46.338 46.358 46.373 46.38 46.368 46.398 46.44 46.423 46.39 46.398 46.445 46.41 46.353 46.433 46.475 46.478 46.473 46.435 46.373 46.338 46.27 46.228 46.228 46.273 46.29 46.26 46.27 46.278 46.255 46.253 46.318 46.31 46.278 46.24 46.145 46.113 46.075 46.115 46.095 46.053 46.055 46.115 46.183 46.09 46.08 46.163 46.108 45.975 45.96 45.943 45.908 45.898 45.84 45.853 45.868 45.863 45.945 45.968 45.953 45.983 46.015 46.015 46.003 45.985 45.98 45.998 46.095 46.108 46.138 46.103 46.068 46.045 45.98 45.87 45.805 45.85 45.898 45.883 45.855 45.84 45.78 45.693 45.66 45.595 45.578 45.538 45.54 45.51 45.485 45.458 45.45 45.43 45.443 45.463 45.44 45.398 45.37 45.375 45.398 45.443
47.03 46.915 46.628 46.46 46.718 46.963 46.98 47.04 47.038 46.91 46.95 46.945 46.933 46.95 46.99 47.033 47.015 46.995 46.935 46.92 46.81 46.645 46.53 46.423 46.418 46.448 46.62 46.78 46.865 46.888 46.878 46.965 47.065 47.078 46.94 46.87 46.695 46.003 45.935 46.195 46.408 46.465 46.413 46.298 46.268 46.34 46.315 46.508 46.78 46.918 46.963 47 47.02 47.013 46.923 46.948 47.175 47.255 47.345 47.49 47.663 47.82 47.953 47.98 47.928 47.948 47.925 47.925 47.925 47.95 48.038 48.088 48.138 48.165 48.205 48.235 48.233 48.308 48.36 48.385 48.463 48.47 48.498 48.578 48.635 48.66 48.708 48.778 48.833 48.9 48.955 49.008 49.053 49.068 49.143 49.253 49.305 49.315 49.368 49.455 49.483 49.515 49.523 49.548 49.645 49.683 49.718 49.75 49.818 49.91 49.908 49.93 49.988 50.065 50.108 50.183 50.208 50.258 50.305 50.408 50.425 50.523 50.615 50.695 50.788 50.908 51.043 51.128 51.23 51.308 51.438 51.545 51.61 51.683 51.75 51.85 51.91 51.985 52.068 52.083 52.173 52.258 52.358 52.635 52.79 52.753 52.728 52.695 52.733 52.75 52.913 52.993 53.055 53.073 53.09 53.06 53.018 52.993 52.913 52.805 52.743 52.67 52.605 52.513 52.423 52.293 52.208 52.133 52.08 51.988 51.855 51.758 51.693 51.578 51.485 51.383 51.293 51.178 51.1 51.003 50.893 50.745 50.625 50.528 50.343 50.185 50.003 49.75 49.495 49.21 48.933 48.638 48.308 47.98 47.645 47.348 47.163 47.005 46.885 46.82 46.808 46.758 46.745 46.64 46.468 46.313 46.173 45.953 45.618 45.248 45.095 45.035 44.99 44.923 44.92 44.908 44.845 44.79 44.76 44.688 44.583 44.49 44.383 44.23 44.105 44.025 43.923 43.85 43.758 43.69 43.658 43.643 43.633 43.578 43.5 43.545 43.555 43.593 43.605 43.613 43.633 43.64 43.638 43.63 43.645 43.66 43.69 43.74 43.81 43.933 44.06 44.21 44.353 44.435 44.51 44.545 44.528 44.483 44.455 44.435 44.465 44.558 44.645 44.73 44.903 45.04 45.195 45.313 45.408 45.62 45.755 45.808 45.81 45.87 45.94 46.023 46.093 46.168 46.195 46.325 46.428 46.5 46.595 46.695 46.803 46.855 46.94 47.055 47.12 47.138 47.145 47.09 47.143 47.233 47.27 47.343 47.378 47.483 47.52 47.63 47.568 47.555 47.598 47.555 47.543 47.478 47.475 47.45 47.385 47.345 47.293 47.285 47.243 47.2 47.13 47.08 47.013 46.993 46.913 46.88 46.84 46.783 46.73 46.665 46.598 46.573 46.563 46.515 46.485 46.435 46.423 46.375 46.375 46.363 46.338 46.345 46.343 46.37 46.36 46.355 46.373 46.365 46.348 46.34 46.363 46.37 46.388 46.378 46.378 46.33 46.328 46.403 46.42 46.423 46.483 46.505 46.52 46.538 46.49 46.4 46.383 46.318 46.268 46.283 46.325 46.34 46.33 46.363 46.333 46.31 46.328 46.36 46.348 46.308 46.228 46.198 46.19 46.115 46.115 46.093 46.058 46.05 46.08 46.173 46.135 46.09 46.11 46.065 45.968 45.93 45.878 45.955 45.838 45.855 45.868 45.795 45.795 45.825 45.915 45.968 45.96 46.003 45.983 46.013 46.045 46.043 46.005 46.053 46.068 46.133 46.155 46.165 46.178 46.238 46.115 45.998 46.035 46.025 46.035 46.038 45.955 45.833 45.775 45.723 45.645 45.615 45.565 45.578 45.55 45.533 45.505 45.48 45.478 45.478 45.478 45.455 45.423 45.44 45.37 45.443 45.44
46.998 46.81 46.438 46.648 46.89 47.1 47.118 47.025 46.953 46.948 46.93 46.963 46.975 47.008 47.005 46.963 46.97 46.99 46.913 46.85 46.9 46.858 46.78 46.778 46.75 46.778 46.633 46.463 46.495 46.68 46.788 46.903 47.003 47.053 47.003 46.915 46.88 46.398 45.88 45.98 46.268 46.445 46.378 46.253 46.315 46.433 46.383 46.303 46.5 46.75 46.89 46.968 46.928 46.91 46.86 47.015 47.163 47.213 47.278 47.353 47.493 47.638 47.833 47.938 47.87 47.855 47.88 47.878 47.903 47.93 47.978 48.045 48.135 48.14 48.203 48.238 48.26 48.313 48.355 48.378 48.445 48.458 48.45 48.55 48.583 48.645 48.675 48.733 48.783 48.825 48.885 48.943 48.96 48.958 49.048 49.133 49.193 49.243 49.275 49.32 49.34 49.423 49.415 49.425 49.555 49.615 49.655 49.653 49.673 49.773 49.758 49.845 49.903 49.963 50.023 50.05 50.12 50.158 50.203 50.293 50.328 50.425 50.538 50.618 50.715 50.833 50.938 51.043 51.158 51.24 51.343 51.433 51.513 51.593 51.665 51.723 51.825 51.903 51.955 52.025 52.075 52.188 52.303 52.59 52.895 52.745 52.67 52.61 52.665 52.728 52.863 52.955 53.018 53.025 53.053 53.03 53.018 52.98 52.9 52.813 52.698 52.635 52.548 52.47 52.353 52.28 52.185 52.098 52.058 51.915 51.815 51.713 51.635 51.533 51.453 51.33 51.258 51.148 51.07 50.965 50.858 50.715 50.59 50.485 50.313 50.153 49.97 49.708 49.46 49.158 48.885 48.625 48.268 47.968 47.65 47.39 47.153 47.013 46.89 46.858 46.853 46.83 46.838 46.77 46.64 46.455 46.398 46.233 45.908 45.545 45.328 45.235 45.123 45.115 45.083 45.105 45.02 44.963 44.938 44.83 44.758 44.633 44.508 44.365 44.198 44.088 43.945 43.883 43.833 43.735 43.693 43.675 43.645 43.595 43.5 43.503 43.57 43.585 43.638 43.618 43.66 43.665 43.663 43.66 43.658 43.668 43.695 43.745 43.798 43.848 43.933 44.065 44.185 44.25 44.33 44.358 44.37 44.295 44.235 44.248 44.325 44.48 44.588 44.738 44.893 45.018 45.168 45.273 45.433 45.62 45.703 45.71 45.78 45.828 45.9 45.955 46.018 46.093 46.183 46.298 46.398 46.5 46.548 46.645 46.725 46.795 46.898 47.003 47.068 47.108 47.138 47.17 47.163 47.235 47.28 47.278 47.303 47.365 47.395 47.455 47.518 47.573 47.628 47.628 47.625 47.615 47.57 47.533 47.445 47.45 47.388 47.303 47.295 47.26 47.195 47.14 47.023 47.005 46.973 46.905 46.88 46.818 46.765 46.723 46.675 46.62 46.625 46.548 46.533 46.473 46.453 46.443 46.398 46.385 46.395 46.4 46.378 46.365 46.378 46.38 46.393 46.37 46.355 46.34 46.338 46.335 46.373 46.358 46.338 46.35 46.355 46.433 46.465 46.588 46.678 46.703 46.678 46.645 46.588 46.498 46.443 46.41 46.38 46.368 46.358 46.36 46.383 46.398 46.358 46.39 46.425 46.41 46.345 46.318 46.235 46.263 46.275 46.163 46.115 46.075 46.078 46.14 46.198 46.23 46.233 46.15 46.123 46.048 45.985 45.885 45.883 45.958 45.893 45.91 45.863 45.803 45.77 45.76 45.818 45.88 45.94 46.125 46.013 45.955 46.035 46.025 46.028 46.063 46.06 46.08 46.073 46.103 46.153 46.245 46.228 46.17 46.15 46.148 46.13 46.123 46.06 45.913 45.863 45.798 45.715 45.69 45.633 45.648 45.608 45.58 45.578 45.505 45.51 45.543 45.508 45.473 45.5 45.473 45.43 45.425 45.453
46.973 46.61 46.375 47.025 47.105 47.083 47.05 47.015 46.923 46.93 46.93 46.953 46.978 47.008 47.018 46.928 46.943 46.978 46.875 46.79 46.825 46.895 46.853 46.835 46.92 46.985 46.923 46.658 46.575 46.398 46.465 46.72 46.865 47.038 47.093 46.945 46.903 46.74 46.233 45.953 46.128 46.343 46.398 46.285 46.428 46.443 46.485 46.423 46.288 46.398 46.718 46.88 46.838 46.83 46.868 46.985 47.078 47.088 47.22 47.223 47.33 47.523 47.6 47.828 47.813 47.825 47.845 47.863 47.898 47.9 47.913 48 48.073 48.15 48.21 48.235 48.265 48.29 48.33 48.385 48.42 48.42 48.465 48.508 48.545 48.573 48.615 48.645 48.695 48.76 48.81 48.87 48.898 48.915 48.963 49.028 49.053 49.158 49.14 49.185 49.278 49.335 49.358 49.365 49.43 49.478 49.485 49.55 49.623 49.64 49.63 49.72 49.82 49.84 49.89 49.935 50.025 50.045 50.085 50.18 50.235 50.355 50.423 50.51 50.638 50.745 50.865 50.948 51.078 51.17 51.24 51.34 51.45 51.54 51.593 51.633 51.73 51.813 51.878 51.928 51.99 52.09 52.228 52.498 52.79 52.73 52.6 52.51 52.575 52.648 52.78 52.933 52.96 52.978 53.023 53.008 53 52.96 52.883 52.758 52.67 52.583 52.513 52.378 52.298 52.23 52.105 52.038 51.948 51.848 51.748 51.645 51.595 51.518 51.373 51.315 51.21 51.085 51.023 50.923 50.823 50.703 50.553 50.438 50.263 50.11 49.923 49.665 49.39 49.148 48.868 48.593 48.24 47.94 47.663 47.403 47.215 47.038 46.963 46.898 46.903 46.925 46.918 46.88 46.765 46.62 46.573 46.438 46.24 45.798 45.558 45.475 45.378 45.328 45.265 45.293 45.248 45.153 45.11 44.998 44.88 44.73 44.65 44.465 44.338 44.183 44 43.913 43.875 43.813 43.768 43.725 43.665 43.583 43.485 43.458 43.525 43.6 43.615 43.618 43.65 43.658 43.653 43.683 43.648 43.663 43.688 43.715 43.753 43.768 43.87 43.978 43.985 44.053 44.118 44.178 44.188 44.11 44.025 44.06 44.153 44.33 44.508 44.668 44.87 44.99 45.12 45.225 45.5 45.645 45.693 45.693 45.755 45.81 45.895 45.93 46.005 46.053 46.133 46.23 46.35 46.438 46.508 46.58 46.678 46.76 46.838 46.903 46.978 47.07 47.12 47.205 47.21 47.22 47.273 47.245 47.258 47.31 47.345 47.338 47.435 47.488 47.56 47.675 47.69 47.668 47.653 47.663 47.62 47.573 47.528 47.448 47.375 47.335 47.288 47.165 47.073 47.04 46.98 46.933 46.9 46.828 46.803 46.76 46.718 46.708 46.673 46.62 46.543 46.51 46.485 46.473 46.473 46.443 46.44 46.43 46.415 46.4 46.398 46.405 46.375 46.388 46.39 46.36 46.338 46.348 46.358 46.368 46.378 46.418 46.413 46.543 46.55 46.54 46.625 46.705 46.678 46.618 46.568 46.578 46.585 46.53 46.48 46.43 46.443 46.445 46.458 46.435 46.433 46.435 46.425 46.385 46.353 46.318 46.28 46.23 46.205 46.14 46.128 46.11 46.13 46.168 46.25 46.343 46.323 46.23 46.145 46.058 46.038 45.988 45.99 46 45.948 45.888 45.865 45.843 45.808 45.788 45.778 45.783 45.945 46.008 45.875 45.803 45.883 45.898 45.985 46.01 46.075 46.055 46.043 46.015 46.09 46.123 46.14 46.173 46.168 46.133 46.153 46.128 46.078 46.05 45.973 45.908 45.838 45.748 45.713 45.718 45.635 45.665 45.608 45.588 45.618 45.598 45.57 45.56 45.538 45.525 45.49 45.463 45.468
