ncols 448
nrows 32
xllcorner    426062
yllcorner    485366
cellsize     2
NODATA_value -9999
-9999 -9999 -9999 -9999 -9999 -9999 -9999 -9999 -9999 -9999 -9999 -9999 -9999 -9999 -9999 -9999 -9999 -9999 -9999 -9999 -9999 -9999 -9999 -9999 -9999 -9999 -9999 -9999 -9999 -9999 -9999 -9999 -9999 -9999 -9999 -9999 -9999 -9999 -9999 -9999 -9999 -9999 -9999 -9999 -9999 -9999 -9999 -9999 -9999 -9999 -9999 -9999 -9999 -9999 -9999 -9999 -9999 -9999 -9999 -9999 -9999 -9999 -9999 -9999 -9999 -9999 -9999 -9999 -9999 -9999 -9999 -9999 -9999 -9999 -9999 -9999 -9999 -9999 -9999 -9999 -9999 -9999 -9999 -9999 -9999 -9999 -9999 -9999 -9999 -9999 -9999 -9999 -9999 -9999 -9999 -9999 -9999 -9999 -9999 -9999 -9999 -9999 -9999 -9999 -9999 -9999 -9999 -9999 -9999 -9999 -9999 -9999 -9999 -9999 -9999 -9999 -9999 -9999 -9999 -9999 -9999 -9999 -9999 -9999 -9999 -9999 -9999 -9999 -9999 -9999 -9999 -9999 -9999 -9999 -9999 -9999 -9999 -9999 -9999 -9999 -9999 -9999 -9999 -9999 -9999 -9999 -9999 -9999 -9999 -9999 -9999 -9999 -9999 -9999 -9999 -9999 -9999 -9999 -9999 -9999 43.936 43.864 43.849 43.826 43.799 43.784 43.769 43.714 43.711 43.661 43.666 43.636 43.576 43.619 43.544 43.529 43.471 43.446 43.456 43.506 43.486 43.561 43.659 43.746 43.909 43.989 43.956 43.959 43.941 43.884 43.874 43.884 43.906 43.906 43.944 43.926 44.009 43.994 43.936 43.881 43.874 43.889 43.929 43.876 43.836 43.806 43.809 43.831 43.776 43.759 43.761 43.784 43.751 43.769 43.754 43.806 43.846 43.854 43.874 43.828 43.838 43.936 44.066 44.123 44.143 44.116 44.201 44.266 44.318 44.303 44.348 44.418 44.501 44.503 44.491 44.523 44.523 44.528 44.506 44.508 44.431 44.293 44.283 44.241 44.268 44.241 44.223 44.173 44.153 44.153 44.151 44.128 44.118 44.048 43.986 43.956 43.916 43.926 43.898 43.868 43.776 43.746 43.728 43.723 43.726 43.728 43.726 43.663 43.603 43.618 43.618 43.611 43.581 43.558 43.518 43.483 43.481 43.436 43.441 43.463 43.441 43.386 43.368 43.336 43.303 43.303 43.303 43.316 43.296 43.238 43.208 43.183 43.133 43.101 43.066 43.028 42.971 42.913 42.898 42.836 42.743 42.718 42.678 42.601 42.541 42.486 42.421 42.341 42.251 42.196 42.153 42.098 42.078 42.018 41.931 41.838 41.783 41.723 41.638 41.593 41.538 41.476 41.426 41.353 41.273 41.198 41.118 41.073 40.973 40.898 40.871 40.843 40.818 40.743 40.681 40.696 40.668 40.498 40.418 40.496 40.498 40.351 40.206 40.168 40.161 40.111 40.048 40.006 39.958 40.033 40.036 40.113 40.176 40.303 40.306 40.218 40.103 39.866 39.726 39.641 39.583 39.598 39.638 39.676 39.738 39.863 39.778 39.538 39.126 38.908 38.823 38.863 38.923 39.026 39.078 39.223 39.411 39.438 39.401 39.383 39.281 39.246 39.323 39.383 39.401 39.371 39.298 39.176 38.981 38.806 38.708 38.681 38.643 38.616 38.528 38.463 38.388 38.453 38.526 38.446 38.356 38.348 38.356 38.331 38.291 38.391 38.236 38.106 38.123 38.083 38.033 38.071 38.008 38.031 37.941 37.931 37.986 37.928 37.806 37.718 37.711 37.696 37.731 37.678 37.653 37.628 37.573 37.526 37.508 37.501 37.493 37.481 37.473 37.498 37.493 37.518 37.521 37.498 37.503 37.506 37.516 37.558 37.596 37.608 37.593 37.603 37.658 37.673
-9999 -9999 -9999 -9999 -9999 -9999 -9999 -9999 -9999 -9999 -9999 -9999 -9999 -9999 -9999 -9999 -9999 -9999 -9999 -9999 -9999 -9999 -9999 -9999 -9999 -9999 -9999 -9999 -9999 -9999 -9999 -9999 -9999 -9999 -9999 -9999 -9999 -9999 -9999 -9999 -9999 -9999 -9999 -9999 -9999 -9999 -9999 -9999 -9999 -9999 -9999 -9999 -9999 -9999 -9999 -9999 -9999 -9999 -9999 -9999 -9999 -9999 -9999 -9999 -9999 -9999 -9999 -9999 -9999 -9999 -9999 -9999 -9999 -9999 -9999 -9999 -9999 -9999 -9999 -9999 -9999 -9999 -9999 -9999 -9999 -9999 -9999 -9999 -9999 -9999 -9999 -9999 -9999 -9999 -9999 -9999 -9999 -9999 -9999 -9999 -9999 -9999 -9999 -9999 -9999 -9999 -9999 -9999 -9999 -9999 -9999 -9999 -9999 -9999 -9999 -9999 -9999 -9999 -9999 -9999 -9999 -9999 -9999 -9999 -9999 -9999 -9999 -9999 -9999 -9999 -9999 -9999 -9999 -9999 -9999 -9999 -9999 -9999 -9999 -9999 -9999 -9999 -9999 -9999 -9999 -9999 -9999 -9999 -9999 -9999 -9999 -9999 -9999 -9999 -9999 -9999 -9999 -9999 -9999 -9999 -9999 43.916 43.869 43.844 43.794 43.764 43.761 43.744 43.711 43.689 43.646 43.606 43.599 43.614 43.576 43.526 43.481 43.466 43.471 43.506 43.499 43.551 43.659 43.761 43.879 43.981 43.984 43.946 43.881 43.831 43.871 43.879 43.886 43.939 43.961 43.969 43.976 43.954 43.889 43.906 43.909 43.906 43.894 43.816 43.814 43.846 43.836 43.806 43.759 43.756 43.806 43.786 43.774 43.814 43.826 43.841 43.849 43.824 43.846 43.871 43.883 43.951 44.028 44.078 44.133 44.171 44.218 44.241 44.263 44.336 44.408 44.476 44.488 44.478 44.513 44.548 44.556 44.533 44.458 44.396 44.321 44.311 44.228 44.251 44.248 44.196 44.146 44.138 44.161 44.161 44.121 44.088 44.046 44.008 43.973 43.961 43.921 43.886 43.836 43.783 43.746 43.786 43.771 43.748 43.708 43.693 43.691 43.656 43.653 43.638 43.616 43.556 43.531 43.511 43.478 43.481 43.486 43.463 43.461 43.463 43.428 43.378 43.358 43.356 43.323 43.323 43.311 43.296 43.253 43.186 43.178 43.138 43.118 43.086 43.008 42.948 42.921 42.868 42.813 42.778 42.716 42.691 42.618 42.541 42.451 42.386 42.323 42.276 42.201 42.156 42.118 42.061 41.986 41.923 41.843 41.771 41.721 41.658 41.598 41.571 41.508 41.443 41.336 41.281 41.203 41.133 41.073 41.018 40.941 40.906 40.873 40.848 40.788 40.746 40.661 40.593 40.621 40.553 40.401 40.471 40.463 40.386 40.258 40.138 40.168 40.123 40.041 40.028 39.953 40.006 40.061 40.071 40.168 40.281 40.363 40.276 40.143 39.951 39.763 39.651 39.596 39.721 39.841 39.881 39.861 39.683 39.488 39.363 39.003 39.016 38.988 39.093 39.228 39.508 39.548 39.498 39.426 39.366 39.393 39.373 39.286 39.271 39.333 39.386 39.413 39.343 39.266 39.176 38.958 38.766 38.738 38.721 38.606 38.536 38.473 38.318 38.348 38.473 38.463 38.473 38.408 38.383 38.343 38.331 38.311 38.386 38.181 38.113 38.113 38.033 37.991 37.986 37.878 37.818 37.796 37.741 37.721 37.658 37.638 37.618 37.616 37.693 37.636 37.593 37.561 37.513 37.488 37.458 37.413 37.436 37.413 37.391 37.386 37.413 37.416 37.456 37.446 37.411 37.471 37.468 37.458 37.461 37.466 37.476 37.531 37.553 37.583 37.598
-9999 -9999 -9999 -9999 -9999 -9999 -9999 -9999 -9999 -9999 -9999 -9999 -9999 -9999 -9999 -9999 -9999 -9999 -9999 -9999 -9999 -9999 -9999 -9999 -9999 -9999 -9999 -9999 -9999 -9999 -9999 -9999 -9999 -9999 -9999 -9999 -9999 -9999 -9999 -9999 -9999 -9999 -9999 -9999 -9999 -9999 -9999 -9999 -9999 -9999 -9999 -9999 -9999 -9999 -9999 -9999 -9999 -9999 -9999 -9999 -9999 -9999 -9999 -9999 -9999 -9999 -9999 -9999 -9999 -9999 -9999 -9999 -9999 -9999 -9999 -9999 -9999 -9999 -9999 -9999 -9999 -9999 -9999 -9999 -9999 -9999 -9999 -9999 -9999 -9999 -9999 -9999 -9999 -9999 -9999 -9999 -9999 -9999 -9999 -9999 -9999 -9999 -9999 -9999 -9999 -9999 -9999 -9999 -9999 -9999 -9999 -9999 -9999 -9999 -9999 -9999 -9999 -9999 -9999 -9999 -9999 -9999 -9999 -9999 -9999 -9999 -9999 -9999 -9999 -9999 -9999 -9999 -9999 -9999 -9999 -9999 -9999 -9999 -9999 -9999 -9999 -9999 -9999 -9999 -9999 -9999 -9999 -9999 -9999 -9999 -9999 -9999 -9999 -9999 -9999 -9999 -9999 -9999 -9999 -9999 -9999 -9999 43.876 43.849 43.784 43.754 43.736 43.739 43.694 43.654 43.589 43.639 43.619 43.649 43.546 43.516 43.514 43.499 43.519 43.529 43.544 43.531 43.676 43.754 43.829 43.959 43.976 43.936 43.871 43.824 43.851 43.856 43.906 43.921 43.941 43.931 43.931 43.904 43.899 43.936 43.909 43.866 43.854 43.831 43.814 43.831 43.799 43.789 43.791 43.804 43.811 43.794 43.804 43.839 43.854 43.834 43.831 43.826 43.891 43.931 43.948 43.978 43.998 44.056 44.106 44.141 44.141 44.198 44.281 44.386 44.398 44.431 44.446 44.503 44.533 44.578 44.546 44.451 44.376 44.328 44.343 44.346 44.288 44.253 44.201 44.183 44.163 44.166 44.136 44.111 44.116 44.038 44.008 43.976 43.933 43.913 43.828 43.803 43.803 43.818 43.788 43.756 43.756 43.691 43.656 43.698 43.691 43.676 43.626 43.626 43.591 43.563 43.538 43.546 43.531 43.511 43.491 43.473 43.436 43.446 43.391 43.358 43.346 43.356 43.326 43.283 43.253 43.246 43.203 43.163 43.151 43.106 43.046 43.011 42.966 42.886 42.883 42.838 42.793 42.751 42.678 42.611 42.518 42.456 42.371 42.308 42.326 42.248 42.193 42.131 42.061 41.983 41.908 41.866 41.798 41.741 41.663 41.643 41.586 41.541 41.453 41.363 41.311 41.226 41.136 41.073 41.006 40.971 40.923 40.896 40.876 40.788 40.726 40.696 40.611 40.588 40.573 40.628 40.463 40.411 40.481 40.433 40.286 40.146 40.118 40.121 40.073 40.046 39.976 39.968 40.041 40.036 40.158 40.226 40.348 40.333 40.188 39.993 39.786 39.711 39.718 39.771 39.706 39.556 39.518 39.391 39.511 39.588 39.468 39.593 39.388 39.313 39.521 39.618 39.581 39.471 39.323 39.286 39.358 39.366 39.306 39.306 39.333 39.378 39.368 39.296 39.228 39.168 38.981 38.823 38.771 38.671 38.586 38.491 38.388 38.268 38.358 38.258 38.093 38.126 38.176 38.268 38.266 38.246 38.311 38.308 38.211 38.106 38.066 37.958 37.861 37.776 37.668 37.628 37.601 37.546 37.561 37.583 37.578 37.613 37.581 37.566 37.523 37.478 37.458 37.441 37.411 37.381 37.371 37.403 37.406 37.346 37.346 37.378 37.331 37.376 37.398 37.366 37.373 37.353 37.341 37.371 37.373 37.371 37.448 37.458 37.476 37.496
-9999 -9999 -9999 -9999 -9999 -9999 -9999 -9999 -9999 -9999 -9999 -9999 -9999 -9999 -9999 -9999 -9999 -9999 -9999 -9999 -9999 -9999 -9999 -9999 -9999 -9999 -9999 -9999 -9999 -9999 -9999 -9999 -9999 -9999 -9999 -9999 -9999 -9999 -9999 -9999 -9999 -9999 -9999 -9999 -9999 -9999 -9999 -9999 -9999 -9999 -9999 -9999 -9999 -9999 -9999 -9999 -9999 -9999 -9999 -9999 -9999 -9999 -9999 -9999 -9999 -9999 -9999 -9999 -9999 -9999 -9999 -9999 -9999 -9999 -9999 -9999 -9999 -9999 -9999 -9999 -9999 -9999 -9999 -9999 -9999 -9999 -9999 -9999 -9999 -9999 -9999 -9999 -9999 -9999 -9999 -9999 -9999 -9999 -9999 -9999 -9999 -9999 -9999 -9999 -9999 -9999 -9999 -9999 -9999 -9999 -9999 -9999 -9999 -9999 -9999 -9999 -9999 -9999 -9999 -9999 -9999 -9999 -9999 -9999 -9999 -9999 -9999 -9999 -9999 -9999 -9999 -9999 -9999 -9999 -9999 -9999 -9999 -9999 -9999 -9999 -9999 -9999 -9999 -9999 -9999 -9999 -9999 -9999 -9999 -9999 -9999 -9999 -9999 -9999 -9999 -9999 -9999 -9999 -9999 -9999 -9999 -9999 -9999 43.851 43.774 43.736 43.749 43.731 43.699 43.644 43.681 43.691 43.666 43.654 43.589 43.551 43.566 43.539 43.541 43.564 43.539 43.516 43.619 43.754 43.839 43.966 44.001 43.956 43.921 43.851 43.826 43.864 43.904 43.919 43.911 43.891 43.896 43.899 43.906 43.934 43.899 43.846 43.851 43.894 43.859 43.806 43.779 43.796 43.836 43.841 43.826 43.829 43.836 43.876 43.851 43.814 43.811 43.906 43.939 43.933 43.928 43.968 44.033 44.021 44.056 44.081 44.113 44.198 44.276 44.326 44.358 44.418 44.491 44.523 44.511 44.516 44.451 44.366 44.336 44.346 44.361 44.291 44.228 44.213 44.221 44.198 44.203 44.143 44.116 44.091 44.131 44.031 43.986 43.933 43.873 43.856 43.858 43.828 43.808 43.788 43.766 43.731 43.718 43.693 43.696 43.688 43.666 43.608 43.583 43.608 43.556 43.546 43.558 43.553 43.511 43.481 43.456 43.456 43.411 43.408 43.393 43.361 43.323 43.306 43.286 43.268 43.251 43.233 43.203 43.171 43.103 43.028 42.996 42.978 42.971 42.896 42.853 42.813 42.726 42.638 42.578 42.536 42.466 42.441 42.371 42.301 42.241 42.168 42.111 42.028 41.981 41.933 41.886 41.826 41.756 41.701 41.636 41.606 41.536 41.443 41.411 41.326 41.246 41.146 41.081 41.063 41.033 41.013 40.926 40.856 40.803 40.738 40.693 40.673 40.641 40.571 40.516 40.536 40.548 40.423 40.441 40.448 40.306 40.191 40.096 40.093 40.103 40.061 40.008 39.968 40.013 40.028 40.096 40.216 40.278 40.318 40.196 40.013 39.866 39.806 39.673 39.516 39.351 39.418 39.426 39.491 39.668 39.763 39.863 39.761 39.606 39.396 39.558 39.581 39.538 39.508 39.381 39.423 39.483 39.486 39.321 39.223 39.251 39.303 39.293 39.253 39.178 39.143 39.028 38.928 38.876 38.781 38.633 38.483 38.321 38.218 38.106 37.896 37.723 37.743 37.953 38.153 38.161 38.173 38.218 38.173 38.076 38.058 37.923 37.776 37.643 37.558 37.518 37.526 37.536 37.578 37.588 37.568 37.563 37.536 37.483 37.438 37.411 37.403 37.391 37.391 37.363 37.333 37.338 37.338 37.313 37.288 37.293 37.303 37.281 37.301 37.296 37.313 37.298 37.258 37.266 37.283 37.283 37.281 37.333 37.338 37.353 37.388
-9999 -9999 -9999 -9999 -9999 -9999 -9999 -9999 -9999 -9999 -9999 -9999 -9999 -9999 -9999 -9999 -9999 -9999 -9999 -9999 -9999 -9999 -9999 -9999 -9999 -9999 -9999 -9999 -9999 -9999 -9999 -9999 -9999 -9999 -9999 -9999 -9999 -9999 -9999 -9999 -9999 -9999 -9999 -9999 -9999 -9999 -9999 -9999 -9999 -9999 -9999 -9999 -9999 -9999 -9999 -9999 -9999 -9999 -9999 -9999 -9999 -9999 -9999 -9999 -9999 -9999 -9999 -9999 -9999 -9999 -9999 -9999 -9999 -9999 -9999 -9999 -9999 -9999 -9999 -9999 -9999 -9999 -9999 -9999 -9999 -9999 -9999 -9999 -9999 -9999 -9999 -9999 -9999 -9999 -9999 -9999 -9999 -9999 -9999 -9999 -9999 -9999 -9999 -9999 -9999 -9999 -9999 -9999 -9999 -9999 -9999 -9999 -9999 -9999 -9999 -9999 -9999 -9999 -9999 -9999 -9999 -9999 -9999 -9999 -9999 -9999 -9999 -9999 -9999 -9999 -9999 -9999 -9999 -9999 -9999 -9999 -9999 -9999 -9999 -9999 -9999 -9999 -9999 -9999 -9999 -9999 -9999 -9999 -9999 -9999 -9999 -9999 -9999 -9999 -9999 -9999 -9999 -9999 -9999 -9999 -9999 -9999 -9999 -9999 43.774 43.769 43.741 43.721 43.689 43.701 43.701 43.686 43.679 43.616 43.599 43.576 43.559 43.536 43.574 43.576 43.544 43.481 43.579 43.714 43.826 43.941 44.004 43.959 43.929 43.874 43.861 43.869 43.906 43.919 43.901 43.884 43.874 43.889 43.911 43.879 43.866 43.871 43.899 43.881 43.839 43.816 43.804 43.816 43.834 43.839 43.864 43.866 43.866 43.829 43.814 43.829 43.881 43.936 43.889 43.883 43.963 43.993 44.006 43.986 44.026 44.098 44.151 44.198 44.233 44.311 44.381 44.411 44.478 44.478 44.441 44.396 44.363 44.393 44.373 44.356 44.308 44.256 44.238 44.233 44.233 44.176 44.128 44.078 44.068 44.116 44.133 44.023 43.931 43.878 43.861 43.888 43.871 43.841 43.771 43.741 43.718 43.736 43.731 43.713 43.691 43.668 43.643 43.618 43.588 43.611 43.561 43.558 43.558 43.528 43.506 43.503 43.481 43.441 43.428 43.388 43.358 43.343 43.301 43.293 43.293 43.263 43.216 43.198 43.128 43.113 43.076 43.026 42.978 42.951 42.903 42.826 42.803 42.706 42.631 42.616 42.541 42.471 42.458 42.393 42.328 42.263 42.178 42.123 42.076 42.008 41.936 41.881 41.851 41.791 41.708 41.643 41.566 41.471 41.443 41.421 41.351 41.258 41.191 41.153 41.116 41.071 40.991 40.923 40.871 40.803 40.753 40.718 40.703 40.656 40.588 40.533 40.498 40.471 40.536 40.551 40.458 40.446 40.328 40.178 40.103 40.081 40.096 40.058 40.028 39.996 39.988 40.028 40.096 40.131 40.201 40.233 40.138 39.983 39.863 39.771 39.591 39.396 39.313 39.531 39.678 39.701 39.823 39.853 39.851 39.768 39.593 39.438 39.441 39.578 39.548 39.538 39.498 39.523 39.641 39.623 39.478 39.333 39.196 39.196 39.181 39.168 39.106 39.123 39.056 38.951 38.956 38.868 38.636 38.353 38.276 38.211 37.933 37.588 37.361 37.463 37.886 38.053 38.058 38.081 38.056 38.041 37.931 37.851 37.751 37.626 37.571 37.518 37.508 37.521 37.541 37.563 37.508 37.478 37.458 37.438 37.401 37.361 37.341 37.343 37.323 37.316 37.308 37.288 37.288 37.268 37.263 37.241 37.248 37.258 37.221 37.198 37.223 37.238 37.216 37.196 37.166 37.168 37.168 37.178 37.223 37.248 37.271 37.273
-9999 -9999 -9999 -9999 -9999 -9999 -9999 -9999 -9999 -9999 -9999 -9999 -9999 -9999 -9999 -9999 -9999 -9999 -9999 -9999 -9999 -9999 -9999 -9999 -9999 -9999 -9999 -9999 -9999 -9999 -9999 -9999 -9999 -9999 -9999 -9999 -9999 -9999 -9999 -9999 -9999 -9999 -9999 -9999 -9999 -9999 -9999 -9999 -9999 -9999 -9999 -9999 -9999 -9999 -9999 -9999 -9999 -9999 -9999 -9999 -9999 -9999 -9999 -9999 -9999 -9999 -9999 -9999 -9999 -9999 -9999 -9999 -9999 -9999 -9999 -9999 -9999 -9999 -9999 -9999 -9999 -9999 -9999 -9999 -9999 -9999 -9999 -9999 -9999 -9999 -9999 -9999 -9999 -9999 -9999 -9999 -9999 -9999 -9999 -9999 -9999 -9999 -9999 -9999 -9999 -9999 -9999 -9999 -9999 -9999 -9999 -9999 -9999 -9999 -9999 -9999 -9999 -9999 -9999 -9999 -9999 -9999 -9999 -9999 -9999 -9999 -9999 -9999 -9999 -9999 -9999 -9999 -9999 -9999 -9999 -9999 -9999 -9999 -9999 -9999 -9999 -9999 -9999 -9999 -9999 -9999 -9999 -9999 -9999 -9999 -9999 -9999 -9999 -9999 -9999 -9999 -9999 -9999 -9999 -9999 -9999 -9999 -9999 -9999 -9999 43.779 43.704 43.704 43.671 43.666 43.676 43.659 43.646 43.629 43.614 43.596 43.599 43.571 43.591 43.576 43.526 43.481 43.561 43.704 43.834 43.919 43.976 43.981 43.956 43.889 43.911 43.914 43.891 43.889 43.846 43.844 43.891 43.894 43.881 43.869 43.896 43.909 43.886 43.834 43.794 43.861 43.846 43.831 43.834 43.844 43.844 43.831 43.839 43.814 43.849 43.889 43.901 43.904 43.899 43.913 43.983 43.956 43.931 43.981 44.038 44.128 44.121 44.168 44.243 44.323 44.371 44.398 44.411 44.403 44.398 44.386 44.396 44.403 44.348 44.321 44.273 44.263 44.258 44.241 44.163 44.106 44.086 44.063 44.021 44.018 43.976 43.913 43.908 43.901 43.866 43.843 43.818 43.778 43.761 43.758 43.733 43.718 43.701 43.693 43.656 43.626 43.648 43.626 43.583 43.596 43.573 43.553 43.528 43.498 43.488 43.488 43.456 43.426 43.418 43.386 43.363 43.321 43.296 43.286 43.276 43.233 43.183 43.158 43.118 43.091 43.066 43.013 42.976 42.913 42.846 42.766 42.716 42.661 42.631 42.578 42.508 42.428 42.391 42.321 42.261 42.221 42.151 42.086 42.031 41.963 41.918 41.831 41.798 41.716 41.643 41.578 41.488 41.438 41.401 41.363 41.321 41.251 41.176 41.123 41.068 40.993 40.946 40.863 40.821 40.823 40.806 40.743 40.666 40.593 40.521 40.506 40.478 40.431 40.496 40.571 40.451 40.453 40.351 40.218 40.176 40.078 40.101 40.123 40.058 40.048 40.021 40.076 40.128 40.161 40.201 40.178 39.983 39.851 39.803 39.746 39.486 39.301 39.293 39.591 39.881 39.851 39.841 39.883 39.896 39.741 39.573 39.486 39.598 39.821 39.931 40.006 39.741 39.481 39.586 39.536 39.561 39.363 39.166 39.176 39.116 39.046 39.036 39.071 39.051 38.968 38.946 38.798 38.583 38.401 38.288 38.213 37.776 37.628 37.648 37.831 37.946 38.028 38.003 37.976 37.891 37.876 37.828 37.713 37.678 37.656 37.646 37.601 37.518 37.483 37.506 37.448 37.401 37.408 37.383 37.376 37.341 37.316 37.321 37.326 37.308 37.316 37.296 37.248 37.221 37.258 37.221 37.143 37.151 37.201 37.138 37.156 37.161 37.143 37.128 37.123 37.116 37.106 37.131 37.138 37.141 37.131 37.151 37.213
-9999 -9999 -9999 -9999 -9999 -9999 -9999 -9999 -9999 -9999 -9999 -9999 -9999 -9999 -9999 -9999 -9999 -9999 -9999 -9999 -9999 -9999 -9999 -9999 -9999 -9999 -9999 -9999 -9999 -9999 -9999 -9999 -9999 -9999 -9999 -9999 -9999 -9999 -9999 -9999 -9999 -9999 -9999 -9999 -9999 -9999 -9999 -9999 -9999 -9999 -9999 -9999 -9999 -9999 -9999 -9999 -9999 -9999 -9999 -9999 -9999 -9999 -9999 -9999 -9999 -9999 -9999 -9999 -9999 -9999 -9999 -9999 -9999 -9999 -9999 -9999 -9999 -9999 -9999 -9999 -9999 -9999 -9999 -9999 -9999 -9999 -9999 -9999 -9999 -9999 -9999 -9999 -9999 -9999 -9999 -9999 -9999 -9999 -9999 -9999 -9999 -9999 -9999 -9999 -9999 -9999 -9999 -9999 -9999 -9999 -9999 -9999 -9999 -9999 -9999 -9999 -9999 -9999 -9999 -9999 -9999 -9999 -9999 -9999 -9999 -9999 -9999 -9999 -9999 -9999 -9999 -9999 -9999 -9999 -9999 -9999 -9999 -9999 -9999 -9999 -9999 -9999 -9999 -9999 -9999 -9999 -9999 -9999 -9999 -9999 -9999 -9999 -9999 -9999 -9999 -9999 -9999 -9999 -9999 -9999 -9999 -9999 -9999 -9999 -9999 43.744 43.724 43.714 43.694 43.671 43.669 43.659 43.644 43.649 43.636 43.601 43.589 43.589 43.576 43.574 43.541 43.499 43.534 43.674 43.809 43.896 43.974 43.971 43.951 43.936 43.926 43.911 43.881 43.816 43.854 43.874 43.924 43.874 43.886 43.871 43.886 43.864 43.821 43.794 43.844 43.856 43.856 43.831 43.886 43.869 43.854 43.789 43.806 43.856 43.879 43.876 43.881 43.889 43.944 43.946 43.913 43.896 43.951 43.996 44.028 44.063 44.108 44.163 44.223 44.296 44.328 44.323 44.358 44.363 44.411 44.383 44.366 44.346 44.341 44.306 44.278 44.238 44.186 44.133 44.108 44.073 44.063 44.011 43.986 43.956 43.966 43.938 43.918 43.888 43.823 43.801 43.776 43.791 43.763 43.753 43.723 43.683 43.683 43.683 43.658 43.661 43.661 43.638 43.601 43.588 43.568 43.586 43.531 43.546 43.471 43.453 43.456 43.426 43.393 43.373 43.348 43.316 43.276 43.253 43.233 43.203 43.193 43.178 43.148 43.078 43.031 42.978 42.898 42.831 42.788 42.696 42.678 42.661 42.596 42.486 42.448 42.408 42.318 42.273 42.226 42.156 42.111 42.066 41.988 41.901 41.841 41.763 41.696 41.641 41.571 41.516 41.463 41.411 41.363 41.356 41.331 41.221 41.151 41.096 41.021 40.951 40.901 40.846 40.818 40.788 40.718 40.668 40.603 40.586 40.538 40.486 40.456 40.411 40.413 40.423 40.418 40.463 40.371 40.228 40.173 40.106 40.103 40.131 40.113 40.131 40.123 40.151 40.203 40.188 40.128 40.018 39.811 39.588 39.686 39.648 39.356 39.291 39.423 39.671 39.938 40.043 39.841 39.781 39.816 39.706 39.573 39.606 39.711 40.096 40.276 40.226 39.991 39.636 39.486 39.363 39.356 39.251 39.208 39.276 39.178 39.096 39.111 39.068 39.021 38.938 38.931 38.823 38.543 38.366 38.143 37.811 37.631 37.843 38.088 38.136 38.051 37.993 37.896 37.828 37.808 37.796 37.738 37.726 37.726 37.713 37.668 37.596 37.523 37.476 37.421 37.418 37.383 37.398 37.383 37.363 37.301 37.293 37.283 37.276 37.313 37.301 37.273 37.226 37.206 37.143 37.118 37.073 37.081 37.123 37.086 37.058 37.088 37.073 37.073 37.068 37.048 37.018 37.066 37.076 37.081 37.071 37.081 37.113
-9999 -9999 -9999 -9999 -9999 -9999 -9999 -9999 -9999 -9999 -9999 -9999 -9999 -9999 -9999 -9999 -9999 -9999 -9999 -9999 -9999 -9999 -9999 -9999 -9999 -9999 -9999 -9999 -9999 -9999 -9999 -9999 -9999 -9999 -9999 -9999 -9999 -9999 -9999 -9999 -9999 -9999 -9999 -9999 -9999 -9999 -9999 -9999 -9999 -9999 -9999 -9999 -9999 -9999 -9999 -9999 -9999 -9999 -9999 -9999 -9999 -9999 -9999 -9999 -9999 -9999 -9999 -9999 -9999 -9999 -9999 -9999 -9999 -9999 -9999 -9999 -9999 -9999 -9999 -9999 -9999 -9999 -9999 -9999 -9999 -9999 -9999 -9999 -9999 -9999 -9999 -9999 -9999 -9999 -9999 -9999 -9999 -9999 -9999 -9999 -9999 -9999 -9999 -9999 -9999 -9999 -9999 -9999 -9999 -9999 -9999 -9999 -9999 -9999 -9999 -9999 -9999 -9999 -9999 -9999 -9999 -9999 -9999 -9999 -9999 -9999 -9999 -9999 -9999 -9999 -9999 -9999 -9999 -9999 -9999 -9999 -9999 -9999 -9999 -9999 -9999 -9999 -9999 -9999 -9999 -9999 -9999 -9999 -9999 -9999 -9999 -9999 -9999 -9999 -9999 -9999 -9999 -9999 -9999 -9999 -9999 -9999 -9999 -9999 -9999 -9999 43.739 43.731 43.701 43.681 43.659 43.671 43.651 43.654 43.609 43.589 43.584 43.594 43.576 43.556 43.529 43.491 43.476 43.634 43.811 43.899 43.994 44.016 43.981 43.954 43.951 43.886 43.846 43.824 43.866 43.874 43.879 43.856 43.859 43.891 43.874 43.831 43.791 43.821 43.851 43.854 43.836 43.871 43.911 43.859 43.824 43.821 43.829 43.871 43.876 43.864 43.874 43.904 43.899 43.891 43.888 43.928 43.968 43.973 44.001 44.061 44.133 44.143 44.198 44.203 44.258 44.278 44.371 44.406 44.403 44.383 44.336 44.363 44.343 44.293 44.233 44.181 44.133 44.113 44.066 44.036 43.981 43.931 43.916 43.941 43.956 43.921 43.866 43.836 43.816 43.808 43.806 43.776 43.738 43.721 43.706 43.693 43.696 43.678 43.651 43.661 43.666 43.623 43.583 43.591 43.568 43.553 43.516 43.518 43.481 43.458 43.473 43.441 43.398 43.368 43.331 43.306 43.276 43.248 43.213 43.216 43.183 43.153 43.111 43.036 42.951 42.901 42.848 42.808 42.748 42.681 42.623 42.571 42.543 42.461 42.396 42.368 42.333 42.271 42.198 42.113 42.043 41.983 41.938 41.871 41.771 41.688 41.643 41.613 41.541 41.468 41.401 41.388 41.326 41.308 41.248 41.161 41.098 41.031 40.971 40.986 40.931 40.871 40.748 40.693 40.671 40.631 40.593 40.553 40.513 40.481 40.443 40.398 40.373 40.373 40.406 40.431 40.353 40.251 40.198 40.158 40.156 40.181 40.186 40.186 40.203 40.218 40.218 40.073 39.823 39.786 39.578 39.288 39.306 39.383 39.323 39.346 39.561 39.821 40.026 40.096 39.873 39.678 39.708 39.671 39.588 39.608 39.853 39.976 40.091 40.036 39.818 39.546 39.406 39.298 39.216 39.201 39.161 39.181 39.188 39.228 39.166 39.038 39.058 39.013 38.943 38.781 38.556 38.211 37.746 37.473 37.731 37.998 38.141 38.096 38.043 37.968 37.843 37.848 37.781 37.733 37.821 37.858 37.771 37.686 37.611 37.591 37.536 37.451 37.428 37.393 37.393 37.413 37.401 37.358 37.331 37.311 37.306 37.321 37.276 37.258 37.253 37.228 37.158 37.076 37.061 37.018 36.973 36.993 36.978 36.956 37.003 37.018 37.031 37.048 37.041 37.003 37.041 37.073 37.036 37.018 37.011 37.021
-9999 -9999 -9999 -9999 -9999 -9999 -9999 -9999 -9999 -9999 -9999 -9999 -9999 -9999 -9999 -9999 -9999 -9999 -9999 -9999 -9999 -9999 -9999 -9999 -9999 -9999 -9999 -9999 -9999 -9999 -9999 -9999 -9999 -9999 -9999 -9999 -9999 -9999 -9999 -9999 -9999 -9999 -9999 -9999 -9999 -9999 -9999 -9999 -9999 -9999 -9999 -9999 -9999 -9999 -9999 -9999 -9999 -9999 -9999 -9999 -9999 -9999 -9999 -9999 -9999 -9999 -9999 -9999 -9999 -9999 -9999 -9999 -9999 -9999 -9999 -9999 -9999 -9999 -9999 -9999 -9999 -9999 -9999 -9999 -9999 -9999 -9999 -9999 -9999 -9999 -9999 -9999 -9999 -9999 -9999 -9999 -9999 -9999 -9999 -9999 -9999 -9999 -9999 -9999 -9999 -9999 -9999 -9999 -9999 -9999 -9999 -9999 -9999 -9999 -9999 -9999 -9999 -9999 -9999 -9999 -9999 -9999 -9999 -9999 -9999 -9999 -9999 -9999 -9999 -9999 -9999 -9999 -9999 -9999 -9999 -9999 -9999 -9999 -9999 -9999 -9999 -9999 -9999 -9999 -9999 -9999 -9999 -9999 -9999 -9999 -9999 -9999 -9999 -9999 -9999 -9999 -9999 -9999 -9999 -9999 -9999 -9999 -9999 -9999 -9999 -9999 -9999 43.729 43.741 43.719 43.699 43.644 43.636 43.641 43.621 43.599 43.589 43.601 43.591 43.554 43.531 43.491 43.479 43.561 43.791 43.926 44.001 44.059 44.004 43.986 43.971 43.861 43.829 43.844 43.894 43.861 43.849 43.871 43.874 43.881 43.826 43.791 43.831 43.791 43.814 43.829 43.854 43.866 43.859 43.854 43.839 43.876 43.874 43.869 43.861 43.871 43.894 43.874 43.851 43.878 43.901 43.911 43.913 43.938 43.976 44.043 44.096 44.081 44.091 44.121 44.208 44.293 44.351 44.376 44.363 44.381 44.361 44.341 44.301 44.236 44.188 44.136 44.086 44.061 44.003 43.946 43.946 43.928 43.941 43.928 43.898 43.853 43.816 43.796 43.821 43.793 43.783 43.741 43.721 43.716 43.733 43.721 43.673 43.673 43.646 43.648 43.636 43.616 43.593 43.593 43.548 43.566 43.533 43.518 43.491 43.461 43.441 43.416 43.353 43.333 43.311 43.306 43.288 43.243 43.201 43.176 43.138 43.076 43.028 42.978 42.958 42.908 42.853 42.828 42.746 42.656 42.596 42.541 42.528 42.483 42.418 42.341 42.296 42.233 42.141 42.058 41.971 41.926 41.856 41.778 41.716 41.638 41.591 41.553 41.493 41.428 41.371 41.333 41.283 41.206 41.198 41.123 41.056 41.018 40.981 40.921 40.853 40.773 40.723 40.678 40.638 40.576 40.546 40.491 40.481 40.496 40.456 40.421 40.383 40.378 40.391 40.398 40.386 40.316 40.286 40.313 40.331 40.308 40.313 40.286 40.158 39.931 39.801 39.701 39.458 39.363 39.273 39.298 39.333 39.443 39.556 39.573 39.731 39.851 39.948 40.018 39.861 39.633 39.728 39.723 39.616 39.571 39.636 39.726 39.871 39.826 39.608 39.428 39.373 39.316 39.316 39.203 39.193 39.143 39.116 39.093 39.108 39.033 38.991 38.933 38.773 38.676 38.488 38.151 37.611 37.598 37.871 38.046 38.068 38.068 38.066 37.966 37.913 37.856 37.841 37.806 37.833 37.808 37.751 37.683 37.611 37.561 37.526 37.496 37.451 37.388 37.443 37.456 37.448 37.413 37.366 37.323 37.296 37.283 37.261 37.261 37.211 37.171 37.121 37.046 37.018 36.983 36.936 36.931 36.908 36.891 36.911 36.928 36.938 36.963 37.001 36.988 37.008 37.036 37.008 36.986 36.976 36.976
-9999 -9999 -9999 -9999 -9999 -9999 -9999 -9999 -9999 -9999 -9999 -9999 -9999 -9999 -9999 -9999 -9999 -9999 -9999 -9999 -9999 -9999 -9999 -9999 -9999 -9999 -9999 -9999 -9999 -9999 -9999 -9999 -9999 -9999 -9999 -9999 -9999 -9999 -9999 -9999 -9999 -9999 -9999 -9999 -9999 -9999 -9999 -9999 -9999 -9999 -9999 -9999 -9999 -9999 -9999 -9999 -9999 -9999 -9999 -9999 -9999 -9999 -9999 -9999 -9999 -9999 -9999 -9999 -9999 -9999 -9999 -9999 -9999 -9999 -9999 -9999 -9999 -9999 -9999 -9999 -9999 -9999 -9999 -9999 -9999 -9999 -9999 -9999 -9999 -9999 -9999 -9999 -9999 -9999 -9999 -9999 -9999 -9999 -9999 -9999 -9999 -9999 -9999 -9999 -9999 -9999 -9999 -9999 -9999 -9999 -9999 -9999 -9999 -9999 -9999 -9999 -9999 -9999 -9999 -9999 -9999 -9999 -9999 -9999 -9999 -9999 -9999 -9999 -9999 -9999 -9999 -9999 -9999 -9999 -9999 -9999 -9999 -9999 -9999 -9999 -9999 -9999 -9999 -9999 -9999 -9999 -9999 -9999 -9999 -9999 -9999 -9999 -9999 -9999 -9999 -9999 -9999 -9999 -9999 -9999 -9999 -9999 -9999 -9999 -9999 -9999 -9999 43.738 43.731 43.719 43.706 43.676 43.664 43.634 43.636 43.614 43.606 43.629 43.601 43.564 43.531 43.484 43.494 43.524 43.736 43.921 43.984 44.044 44.044 44.031 44.001 43.884 43.884 43.896 43.874 43.856 43.864 43.881 43.871 43.849 43.814 43.846 43.856 43.816 43.811 43.799 43.824 43.814 43.804 43.844 43.874 43.899 43.889 43.849 43.876 43.876 43.844 43.834 43.859 43.878 43.878 43.868 43.881 43.941 43.988 44.021 44.016 43.998 44.036 44.123 44.203 44.253 44.283 44.321 44.328 44.361 44.321 44.243 44.196 44.183 44.161 44.101 44.038 43.983 43.936 43.916 43.906 43.916 43.926 43.893 43.856 43.843 43.801 43.778 43.766 43.731 43.716 43.723 43.693 43.668 43.688 43.681 43.631 43.613 43.611 43.626 43.636 43.598 43.583 43.588 43.583 43.596 43.581 43.558 43.498 43.443 43.396 43.353 43.376 43.316 43.283 43.283 43.266 43.228 43.166 43.141 43.101 43.048 43.003 42.993 42.933 42.843 42.796 42.741 42.676 42.628 42.586 42.528 42.501 42.438 42.358 42.296 42.211 42.151 42.078 42.006 41.941 41.851 41.801 41.726 41.671 41.616 41.541 41.496 41.471 41.393 41.333 41.308 41.216 41.191 41.158 41.096 41.033 40.958 40.871 40.818 40.798 40.766 40.721 40.648 40.633 40.551 40.536 40.496 40.481 40.473 40.428 40.401 40.376 40.401 40.381 40.351 40.361 40.348 40.388 40.406 40.423 40.441 40.391 40.228 39.801 39.483 39.386 39.336 39.356 39.286 39.293 39.333 39.438 39.571 39.638 39.583 39.731 39.738 39.818 39.828 39.731 39.648 39.826 39.763 39.613 39.473 39.466 39.533 39.708 39.588 39.418 39.333 39.313 39.301 39.306 39.261 39.188 39.106 39.018 38.938 38.961 38.866 38.871 38.846 38.581 38.458 38.388 38.243 37.773 37.851 38.168 38.106 38.096 38.078 38.023 37.891 37.878 37.873 37.861 37.838 37.838 37.821 37.753 37.716 37.666 37.606 37.561 37.523 37.468 37.471 37.518 37.471 37.446 37.443 37.406 37.358 37.356 37.316 37.246 37.241 37.201 37.181 37.131 37.021 37.003 36.956 36.896 36.866 36.876 36.846 36.863 36.883 36.873 36.896 36.966 36.951 36.951 36.978 36.976 36.971 36.968 36.976
-9999 -9999 -9999 -9999 -9999 -9999 -9999 -9999 -9999 -9999 -9999 -9999 -9999 -9999 -9999 -9999 -9999 -9999 -9999 -9999 -9999 -9999 -9999 -9999 -9999 -9999 -9999 -9999 -9999 -9999 -9999 -9999 -9999 -9999 -9999 -9999 -9999 -9999 -9999 -9999 -9999 -9999 -9999 -9999 -9999 -9999 -9999 -9999 -9999 -9999 -9999 -9999 -9999 -9999 -9999 -9999 -9999 -9999 -9999 -9999 -9999 -9999 -9999 -9999 -9999 -9999 -9999 -9999 -9999 -9999 -9999 -9999 -9999 -9999 -9999 -9999 -9999 -9999 -9999 -9999 -9999 -9999 -9999 -9999 -9999 -9999 -9999 -9999 -9999 -9999 -9999 -9999 -9999 -9999 -9999 -9999 -9999 -9999 -9999 -9999 -9999 -9999 -9999 -9999 -9999 -9999 -9999 -9999 -9999 -9999 -9999 -9999 -9999 -9999 -9999 -9999 -9999 -9999 -9999 -9999 -9999 -9999 -9999 -9999 -9999 -9999 -9999 -9999 -9999 -9999 -9999 -9999 -9999 -9999 -9999 -9999 -9999 -9999 -9999 -9999 -9999 -9999 -9999 -9999 -9999 -9999 -9999 -9999 -9999 -9999 -9999 -9999 -9999 -9999 -9999 -9999 -9999 -9999 -9999 -9999 -9999 -9999 -9999 -9999 -9999 -9999 -9999 -9999 43.749 43.736 43.746 43.731 43.706 43.696 43.654 43.631 43.609 43.601 43.616 43.564 43.539 43.529 43.494 43.521 43.716 43.899 43.986 44.064 44.076 44.054 44.021 43.934 43.904 43.906 43.871 43.851 43.861 43.889 43.826 43.819 43.811 43.834 43.834 43.824 43.839 43.834 43.826 43.794 43.791 43.831 43.859 43.859 43.866 43.861 43.871 43.811 43.814 43.841 43.866 43.866 43.863 43.853 43.911 43.918 43.921 43.903 43.936 43.983 44.056 44.118 44.163 44.226 44.266 44.331 44.338 44.283 44.231 44.193 44.173 44.151 44.096 44.031 43.968 43.941 43.933 43.928 43.883 43.853 43.853 43.813 43.823 43.821 43.781 43.763 43.758 43.723 43.678 43.681 43.691 43.673 43.673 43.651 43.631 43.651 43.638 43.641 43.608 43.578 43.556 43.593 43.596 43.636 43.568 43.528 43.463 43.458 43.431 43.403 43.378 43.278 43.286 43.266 43.226 43.198 43.183 43.133 43.106 43.058 43.036 42.976 42.886 42.831 42.778 42.718 42.678 42.643 42.586 42.521 42.416 42.358 42.291 42.208 42.106 42.048 42.006 41.943 41.853 41.793 41.763 41.693 41.648 41.596 41.533 41.463 41.411 41.346 41.283 41.241 41.206 41.158 41.083 41.033 40.918 40.876 40.841 40.778 40.771 40.743 40.673 40.631 40.606 40.586 40.566 40.513 40.463 40.456 40.441 40.446 40.423 40.438 40.441 40.356 40.353 40.353 40.396 40.378 40.358 40.321 40.253 40.096 39.728 39.323 39.396 39.476 39.418 39.301 39.286 39.323 39.451 39.533 39.603 39.531 39.706 39.753 39.671 39.596 39.541 39.638 39.786 39.681 39.546 39.416 39.458 39.531 39.511 39.413 39.361 39.326 39.291 39.248 39.256 39.151 39.086 39.021 38.881 38.778 38.698 38.676 38.708 38.703 38.523 38.421 38.313 38.328 37.883 37.788 38.188 38.211 38.151 38.073 37.968 37.906 37.891 37.841 37.823 37.836 37.858 37.848 37.808 37.761 37.733 37.678 37.646 37.588 37.546 37.553 37.613 37.573 37.548 37.511 37.513 37.443 37.421 37.393 37.296 37.256 37.261 37.191 37.116 37.101 37.011 36.971 36.916 36.881 36.873 36.893 36.866 36.886 36.891 36.903 36.908 36.918 36.936 36.958 36.948 36.971 36.951 36.963
-9999 -9999 -9999 -9999 -9999 -9999 -9999 -9999 -9999 -9999 -9999 -9999 -9999 -9999 -9999 -9999 -9999 -9999 -9999 -9999 -9999 -9999 -9999 -9999 -9999 -9999 -9999 -9999 -9999 -9999 -9999 -9999 -9999 -9999 -9999 -9999 -9999 -9999 -9999 -9999 -9999 -9999 -9999 -9999 -9999 -9999 -9999 -9999 -9999 -9999 -9999 -9999 -9999 -9999 -9999 -9999 -9999 -9999 -9999 -9999 -9999 -9999 -9999 -9999 -9999 -9999 -9999 -9999 -9999 -9999 -9999 -9999 -9999 -9999 -9999 -9999 -9999 -9999 -9999 -9999 -9999 -9999 -9999 -9999 -9999 -9999 -9999 -9999 -9999 -9999 -9999 -9999 -9999 -9999 -9999 -9999 -9999 -9999 -9999 -9999 -9999 -9999 -9999 -9999 -9999 -9999 -9999 -9999 -9999 -9999 -9999 -9999 -9999 -9999 -9999 -9999 -9999 -9999 -9999 -9999 -9999 -9999 -9999 -9999 -9999 -9999 -9999 -9999 -9999 -9999 -9999 -9999 -9999 -9999 -9999 -9999 -9999 -9999 -9999 -9999 -9999 -9999 -9999 -9999 -9999 -9999 -9999 -9999 -9999 -9999 -9999 -9999 -9999 -9999 -9999 -9999 -9999 -9999 -9999 -9999 -9999 -9999 -9999 -9999 -9999 -9999 -9999 -9999 43.751 43.764 43.764 43.746 43.719 43.696 43.661 43.629 43.644 43.606 43.616 43.594 43.549 43.509 43.481 43.519 43.629 43.881 43.971 44.084 44.134 44.081 44.036 44.011 43.946 43.899 43.856 43.836 43.851 43.854 43.816 43.814 43.826 43.816 43.814 43.799 43.846 43.836 43.784 43.784 43.824 43.816 43.794 43.801 43.834 43.836 43.829 43.796 43.811 43.816 43.809 43.811 43.816 43.861 43.878 43.823 43.833 43.853 43.916 43.978 44.028 44.038 44.111 44.181 44.243 44.271 44.243 44.216 44.181 44.163 44.111 44.053 44.008 43.968 43.958 43.961 43.916 43.871 43.823 43.818 43.853 43.826 43.771 43.781 43.736 43.733 43.743 43.708 43.646 43.663 43.658 43.648 43.651 43.638 43.638 43.618 43.621 43.613 43.601 43.583 43.558 43.588 43.573 43.663 43.636 43.538 43.506 43.473 43.423 43.376 43.343 43.303 43.296 43.256 43.248 43.206 43.198 43.151 43.091 43.043 43.001 42.948 42.883 42.826 42.756 42.713 42.683 42.613 42.541 42.461 42.361 42.266 42.206 42.133 42.063 42.001 41.958 41.911 41.838 41.781 41.736 41.671 41.596 41.558 41.466 41.416 41.371 41.323 41.258 41.211 41.173 41.098 41.026 40.968 40.901 40.856 40.786 40.746 40.723 40.711 40.688 40.646 40.611 40.573 40.541 40.501 40.486 40.491 40.476 40.506 40.521 40.541 40.511 40.393 40.333 40.273 40.223 40.201 40.221 40.148 40.068 40.003 39.623 39.448 39.701 39.658 39.483 39.333 39.278 39.321 39.443 39.571 39.621 39.463 39.481 39.426 39.386 39.353 39.411 39.438 39.496 39.503 39.441 39.358 39.376 39.483 39.343 39.293 39.333 39.323 39.288 39.228 39.163 39.121 39.083 39.058 38.873 38.733 38.618 38.581 38.586 38.493 38.498 38.373 38.326 38.388 38.048 37.611 38.016 38.181 38.168 38.113 37.981 37.961 37.943 37.898 37.903 37.913 37.896 37.878 37.828 37.796 37.823 37.798 37.678 37.663 37.648 37.676 37.653 37.646 37.623 37.618 37.593 37.523 37.483 37.433 37.391 37.351 37.311 37.208 37.201 37.148 37.078 37.046 37.001 36.968 36.953 36.931 36.921 36.896 36.921 36.913 36.898 36.938 36.976 36.968 36.981 36.976 36.936 36.943
-9999 -9999 -9999 -9999 -9999 -9999 -9999 -9999 -9999 -9999 -9999 -9999 -9999 -9999 -9999 -9999 -9999 -9999 -9999 -9999 -9999 -9999 -9999 -9999 -9999 -9999 -9999 -9999 -9999 -9999 -9999 -9999 -9999 -9999 -9999 -9999 -9999 -9999 -9999 -9999 -9999 -9999 -9999 -9999 -9999 -9999 -9999 -9999 -9999 -9999 -9999 -9999 -9999 -9999 -9999 -9999 -9999 -9999 -9999 -9999 -9999 -9999 -9999 -9999 -9999 -9999 -9999 -9999 -9999 -9999 -9999 -9999 -9999 -9999 -9999 -9999 -9999 -9999 -9999 -9999 -9999 -9999 -9999 -9999 -9999 -9999 -9999 -9999 -9999 -9999 -9999 -9999 -9999 -9999 -9999 -9999 -9999 -9999 -9999 -9999 -9999 -9999 -9999 -9999 -9999 -9999 -9999 -9999 -9999 -9999 -9999 -9999 -9999 -9999 -9999 -9999 -9999 -9999 -9999 -9999 -9999 -9999 -9999 -9999 -9999 -9999 -9999 -9999 -9999 -9999 -9999 -9999 -9999 -9999 -9999 -9999 -9999 -9999 -9999 -9999 -9999 -9999 -9999 -9999 -9999 -9999 -9999 -9999 -9999 -9999 -9999 -9999 -9999 -9999 -9999 -9999 -9999 -9999 -9999 -9999 -9999 -9999 -9999 -9999 -9999 -9999 -9999 -9999 -9999 43.774 43.751 43.744 43.744 43.681 43.661 43.649 43.661 43.639 43.656 43.599 43.566 43.526 43.499 43.516 43.561 43.774 43.964 44.074 44.144 44.096 44.056 44.029 43.966 43.899 43.886 43.851 43.836 43.801 43.799 43.806 43.804 43.801 43.809 43.799 43.819 43.769 43.744 43.791 43.799 43.796 43.779 43.799 43.801 43.776 43.789 43.829 43.809 43.786 43.799 43.838 43.811 43.796 43.768 43.746 43.813 43.821 43.868 43.901 43.941 44.026 44.106 44.141 44.183 44.188 44.176 44.166 44.136 44.108 44.003 44.003 43.941 43.941 43.946 43.923 43.846 43.803 43.821 43.858 43.868 43.806 43.766 43.728 43.723 43.711 43.703 43.696 43.643 43.663 43.651 43.631 43.638 43.613 43.626 43.623 43.628 43.583 43.573 43.553 43.553 43.531 43.548 43.568 43.571 43.546 43.501 43.423 43.406 43.396 43.376 43.348 43.313 43.258 43.228 43.188 43.143 43.068 43.051 43.028 42.958 42.938 42.878 42.813 42.763 42.701 42.618 42.561 42.471 42.393 42.286 42.223 42.158 42.078 42.026 41.996 41.953 41.883 41.831 41.756 41.673 41.603 41.553 41.493 41.453 41.408 41.368 41.308 41.246 41.151 41.081 41.038 40.991 40.898 40.846 40.813 40.786 40.788 40.771 40.731 40.688 40.633 40.596 40.553 40.546 40.548 40.523 40.546 40.568 40.583 40.601 40.581 40.511 40.351 40.256 40.246 40.161 40.058 40.063 39.996 40.043 39.918 39.528 39.446 39.836 39.726 39.573 39.393 39.278 39.311 39.441 39.566 39.618 39.476 39.393 39.371 39.328 39.233 39.278 39.341 39.323 39.246 39.271 39.308 39.236 39.263 39.306 39.231 39.208 39.178 39.233 39.221 39.161 39.171 38.991 38.968 38.828 38.711 38.658 38.636 38.548 38.501 38.483 38.448 38.321 38.318 38.128 37.621 37.818 38.136 38.223 38.098 38.041 38.011 37.998 38.006 37.991 37.978 37.948 37.938 37.908 37.866 37.866 37.836 37.761 37.743 37.736 37.743 37.716 37.708 37.651 37.651 37.656 37.578 37.521 37.531 37.466 37.406 37.411 37.308 37.286 37.263 37.138 37.141 37.148 37.076 37.048 37.008 36.988 36.951 36.986 36.971 36.966 36.998 36.973 37.016 37.013 36.978 36.961 36.983
-9999 -9999 -9999 -9999 -9999 -9999 -9999 -9999 -9999 -9999 -9999 -9999 -9999 -9999 -9999 -9999 -9999 -9999 -9999 -9999 -9999 -9999 -9999 -9999 -9999 -9999 -9999 -9999 -9999 -9999 -9999 -9999 -9999 -9999 -9999 -9999 -9999 -9999 -9999 -9999 -9999 -9999 -9999 -9999 -9999 -9999 -9999 -9999 -9999 -9999 -9999 -9999 -9999 -9999 -9999 -9999 -9999 -9999 -9999 -9999 -9999 -9999 -9999 -9999 -9999 -9999 -9999 -9999 -9999 -9999 -9999 -9999 -9999 -9999 -9999 -9999 -9999 -9999 -9999 -9999 -9999 -9999 -9999 -9999 -9999 -9999 -9999 -9999 -9999 -9999 -9999 -9999 -9999 -9999 -9999 -9999 -9999 -9999 -9999 -9999 -9999 -9999 -9999 -9999 -9999 -9999 -9999 -9999 -9999 -9999 -9999 -9999 -9999 -9999 -9999 -9999 -9999 -9999 -9999 -9999 -9999 -9999 -9999 -9999 -9999 -9999 -9999 -9999 -9999 -9999 -9999 -9999 -9999 -9999 -9999 -9999 -9999 -9999 -9999 -9999 -9999 -9999 -9999 -9999 -9999 -9999 -9999 -9999 -9999 -9999 -9999 -9999 -9999 -9999 -9999 -9999 -9999 -9999 -9999 -9999 -9999 -9999 -9999 -9999 -9999 -9999 -9999 -9999 -9999 -9999 43.766 43.729 43.721 43.696 43.679 43.686 43.699 43.691 43.674 43.624 43.571 43.526 43.544 43.564 43.541 43.666 43.896 44.049 44.121 44.106 44.101 44.044 44.016 43.956 43.881 43.856 43.831 43.806 43.809 43.816 43.824 43.791 43.801 43.786 43.759 43.734 43.749 43.774 43.776 43.769 43.796 43.771 43.746 43.776 43.771 43.774 43.754 43.784 43.806 43.756 43.711 43.668 43.688 43.748 43.793 43.803 43.803 43.858 43.938 44.003 44.053 44.063 44.078 44.096 44.108 44.111 44.068 44.021 43.956 43.936 43.956 43.888 43.838 43.813 43.803 43.811 43.851 43.838 43.788 43.753 43.763 43.708 43.701 43.696 43.671 43.651 43.628 43.638 43.631 43.606 43.598 43.613 43.601 43.631 43.586 43.543 43.516 43.516 43.526 43.541 43.553 43.536 43.531 43.506 43.466 43.426 43.388 43.388 43.378 43.331 43.291 43.248 43.188 43.151 43.133 43.078 43.091 43.036 43.011 42.941 42.868 42.786 42.728 42.653 42.581 42.498 42.413 42.328 42.248 42.198 42.136 42.053 42.023 41.971 41.906 41.828 41.773 41.701 41.648 41.556 41.518 41.468 41.436 41.366 41.298 41.216 41.146 41.096 41.051 41.013 40.953 40.881 40.838 40.826 40.821 40.838 40.796 40.701 40.646 40.628 40.618 40.631 40.608 40.616 40.603 40.593 40.596 40.593 40.661 40.573 40.356 40.186 40.201 40.258 40.201 40.156 40.143 40.121 40.073 39.771 39.503 39.706 39.906 39.831 39.661 39.506 39.306 39.308 39.428 39.513 39.543 39.423 39.466 39.418 39.313 39.216 39.226 39.251 39.178 39.108 39.188 39.161 39.113 39.091 39.278 39.206 39.066 39.046 39.178 39.258 39.178 39.001 38.896 38.866 38.816 38.711 38.578 38.636 38.531 38.538 38.523 38.448 38.363 38.328 38.221 37.813 37.786 38.188 38.243 38.141 38.046 37.991 38.008 38.066 38.118 38.081 38.038 38.031 37.981 37.981 37.933 37.906 37.843 37.803 37.841 37.846 37.781 37.746 37.753 37.703 37.676 37.641 37.563 37.596 37.548 37.506 37.491 37.418 37.361 37.338 37.248 37.228 37.186 37.138 37.123 37.126 37.073 37.041 37.018 37.013 37.026 37.041 37.008 37.026 37.008 37.031 36.996 36.996
-9999 -9999 -9999 -9999 -9999 -9999 -9999 -9999 -9999 -9999 -9999 -9999 -9999 -9999 -9999 -9999 -9999 -9999 -9999 -9999 -9999 -9999 -9999 -9999 -9999 -9999 -9999 -9999 -9999 -9999 -9999 -9999 -9999 -9999 -9999 -9999 -9999 -9999 -9999 -9999 -9999 -9999 -9999 -9999 -9999 -9999 -9999 -9999 -9999 -9999 -9999 -9999 -9999 -9999 -9999 -9999 -9999 -9999 -9999 -9999 -9999 -9999 -9999 -9999 -9999 -9999 -9999 -9999 -9999 -9999 -9999 -9999 -9999 -9999 -9999 -9999 -9999 -9999 -9999 -9999 -9999 -9999 -9999 -9999 -9999 -9999 -9999 -9999 -9999 -9999 -9999 -9999 -9999 -9999 -9999 -9999 -9999 -9999 -9999 -9999 -9999 -9999 -9999 -9999 -9999 -9999 -9999 -9999 -9999 -9999 -9999 -9999 -9999 -9999 -9999 -9999 -9999 -9999 -9999 -9999 -9999 -9999 -9999 -9999 -9999 -9999 -9999 -9999 -9999 -9999 -9999 -9999 -9999 -9999 -9999 -9999 -9999 -9999 -9999 -9999 -9999 -9999 -9999 -9999 -9999 -9999 -9999 -9999 -9999 -9999 -9999 -9999 -9999 -9999 -9999 -9999 -9999 -9999 -9999 -9999 -9999 -9999 -9999 -9999 -9999 -9999 -9999 -9999 -9999 -9999 43.794 43.759 43.749 43.749 43.711 43.751 43.756 43.751 43.691 43.639 43.586 43.539 43.541 43.534 43.561 43.576 43.836 44.006 44.066 44.154 44.146 44.091 44.034 43.984 43.929 43.899 43.846 43.804 43.799 43.814 43.814 43.804 43.784 43.746 43.681 43.706 43.764 43.754 43.744 43.751 43.736 43.691 43.696 43.779 43.746 43.714 43.711 43.781 43.741 43.671 43.631 43.638 43.688 43.733 43.721 43.716 43.796 43.863 43.883 43.921 43.971 43.996 44.033 44.088 44.046 44.011 43.991 43.981 43.931 43.906 43.896 43.826 43.803 43.811 43.798 43.796 43.791 43.768 43.776 43.763 43.731 43.678 43.668 43.688 43.663 43.623 43.603 43.591 43.616 43.603 43.591 43.576 43.571 43.558 43.513 43.516 43.511 43.543 43.558 43.571 43.498 43.473 43.461 43.466 43.431 43.436 43.393 43.366 43.343 43.323 43.256 43.226 43.193 43.191 43.163 43.141 43.098 42.998 42.983 42.918 42.826 42.731 42.656 42.603 42.521 42.448 42.353 42.303 42.238 42.166 42.126 42.038 41.978 41.906 41.853 41.778 41.733 41.648 41.616 41.573 41.471 41.406 41.363 41.306 41.198 41.156 41.113 41.061 41.008 40.963 40.931 40.898 40.893 40.878 40.828 40.781 40.728 40.731 40.718 40.731 40.728 40.738 40.691 40.668 40.706 40.671 40.556 40.506 40.456 40.256 40.076 40.063 40.163 40.206 40.231 40.246 40.151 40.153 39.948 39.606 39.498 39.828 39.896 39.813 39.706 39.578 39.421 39.298 39.366 39.453 39.436 39.368 39.451 39.453 39.301 39.248 39.198 39.151 39.138 39.136 39.128 39.108 39.083 39.106 39.208 39.088 39.018 39.048 39.091 39.206 39.121 38.876 38.791 38.711 38.766 38.721 38.661 38.626 38.563 38.581 38.613 38.518 38.436 38.406 38.371 38.108 37.783 38.118 38.318 38.213 38.103 38.091 38.101 38.058 38.153 38.151 38.088 38.116 38.078 37.991 37.993 37.988 37.948 37.911 37.908 37.896 37.848 37.848 37.826 37.778 37.776 37.703 37.663 37.681 37.663 37.576 37.573 37.521 37.428 37.438 37.321 37.283 37.291 37.251 37.166 37.206 37.166 37.073 37.086 37.061 37.041 37.046 37.023 37.016 37.033 37.056 37.038 37.008
-9999 -9999 -9999 -9999 -9999 -9999 -9999 -9999 -9999 -9999 -9999 -9999 -9999 -9999 -9999 -9999 -9999 -9999 -9999 -9999 -9999 -9999 -9999 -9999 -9999 -9999 -9999 -9999 -9999 -9999 -9999 -9999 -9999 -9999 -9999 -9999 -9999 -9999 -9999 -9999 -9999 -9999 -9999 -9999 -9999 -9999 -9999 -9999 -9999 -9999 -9999 -9999 -9999 -9999 -9999 -9999 -9999 -9999 -9999 -9999 -9999 -9999 -9999 -9999 -9999 -9999 -9999 -9999 -9999 -9999 -9999 -9999 -9999 -9999 -9999 -9999 -9999 -9999 -9999 -9999 -9999 -9999 -9999 -9999 -9999 -9999 -9999 -9999 -9999 -9999 -9999 -9999 -9999 -9999 -9999 -9999 -9999 -9999 -9999 -9999 -9999 -9999 -9999 -9999 -9999 -9999 -9999 -9999 -9999 -9999 -9999 -9999 -9999 -9999 -9999 -9999 -9999 -9999 -9999 -9999 -9999 -9999 -9999 -9999 -9999 -9999 -9999 -9999 -9999 -9999 -9999 -9999 -9999 -9999 -9999 -9999 -9999 -9999 -9999 -9999 -9999 -9999 -9999 -9999 -9999 -9999 -9999 -9999 -9999 -9999 -9999 -9999 -9999 -9999 -9999 -9999 -9999 -9999 -9999 -9999 -9999 -9999 -9999 -9999 -9999 -9999 -9999 -9999 -9999 -9999 -9999 43.811 43.781 43.756 43.751 43.774 43.746 43.756 43.681 43.641 43.576 43.534 43.526 43.529 43.559 43.556 43.686 43.831 43.926 44.026 44.079 44.069 44.026 44.001 43.984 43.906 43.846 43.811 43.806 43.816 43.806 43.804 43.756 43.709 43.699 43.716 43.756 43.731 43.724 43.719 43.676 43.689 43.706 43.711 43.701 43.719 43.694 43.651 43.636 43.623 43.633 43.681 43.668 43.661 43.668 43.711 43.791 43.806 43.811 43.853 43.941 43.963 44.008 44.023 43.933 43.956 43.926 43.928 43.878 43.831 43.806 43.793 43.773 43.793 43.773 43.743 43.736 43.773 43.758 43.751 43.708 43.691 43.671 43.673 43.618 43.588 43.598 43.591 43.603 43.571 43.548 43.551 43.543 43.548 43.566 43.533 43.531 43.546 43.508 43.473 43.441 43.431 43.433 43.438 43.451 43.438 43.386 43.333 43.308 43.316 43.301 43.261 43.246 43.213 43.158 43.133 43.073 43.001 42.963 42.891 42.813 42.731 42.661 42.606 42.511 42.461 42.371 42.306 42.181 42.116 42.078 41.966 41.898 41.851 41.808 41.723 41.668 41.646 41.583 41.498 41.421 41.336 41.286 41.203 41.161 41.128 41.053 41.051 41.036 41.021 40.988 40.941 40.921 40.868 40.851 40.806 40.858 40.873 40.858 40.853 40.863 40.818 40.801 40.736 40.658 40.558 40.398 40.248 40.153 40.113 40.011 40.008 40.121 40.178 40.153 40.201 40.123 39.993 39.701 39.388 39.471 39.788 39.833 39.751 39.646 39.556 39.468 39.428 39.418 39.451 39.433 39.413 39.398 39.406 39.331 39.208 39.168 39.151 39.168 39.153 39.088 39.158 39.138 39.061 39.121 39.066 39.011 39.051 38.993 39.006 38.971 38.906 38.861 38.788 38.808 38.713 38.668 38.638 38.621 38.626 38.658 38.566 38.496 38.446 38.493 38.451 37.891 37.996 38.273 38.281 38.183 38.143 38.151 38.126 38.226 38.231 38.141 38.111 38.116 38.038 38.086 38.051 38.026 37.986 37.963 37.948 37.908 37.906 37.923 37.841 37.828 37.798 37.728 37.753 37.723 37.668 37.641 37.598 37.531 37.506 37.448 37.366 37.351 37.313 37.241 37.241 37.213 37.198 37.163 37.111 37.108 37.111 37.071 37.036 37.048 37.066 37.051 37.036
-9999 -9999 -9999 -9999 -9999 -9999 -9999 -9999 -9999 -9999 -9999 -9999 -9999 -9999 -9999 -9999 -9999 -9999 -9999 -9999 -9999 -9999 -9999 -9999 -9999 -9999 -9999 -9999 -9999 -9999 -9999 -9999 -9999 -9999 -9999 -9999 -9999 -9999 -9999 -9999 -9999 -9999 -9999 -9999 -9999 -9999 -9999 -9999 -9999 -9999 -9999 -9999 -9999 -9999 -9999 -9999 -9999 -9999 -9999 -9999 -9999 -9999 -9999 -9999 -9999 -9999 -9999 -9999 -9999 -9999 -9999 -9999 -9999 -9999 -9999 -9999 -9999 -9999 -9999 -9999 -9999 -9999 -9999 -9999 -9999 -9999 -9999 -9999 -9999 -9999 -9999 -9999 -9999 -9999 -9999 -9999 -9999 -9999 -9999 -9999 -9999 -9999 -9999 -9999 -9999 -9999 -9999 -9999 -9999 -9999 -9999 -9999 -9999 -9999 -9999 -9999 -9999 -9999 -9999 -9999 -9999 -9999 -9999 -9999 -9999 -9999 -9999 -9999 -9999 -9999 -9999 -9999 -9999 -9999 -9999 -9999 -9999 -9999 -9999 -9999 -9999 -9999 -9999 -9999 -9999 -9999 -9999 -9999 -9999 -9999 -9999 -9999 -9999 -9999 -9999 -9999 -9999 -9999 -9999 -9999 -9999 -9999 -9999 -9999 -9999 -9999 -9999 -9999 -9999 -9999 -9999 43.841 43.786 43.781 43.791 43.801 43.764 43.746 43.706 43.631 43.574 43.529 43.531 43.556 43.599 43.556 43.561 43.664 43.781 43.914 43.984 44.021 44.031 44.009 43.991 43.939 43.854 43.846 43.844 43.819 43.806 43.796 43.689 43.694 43.716 43.724 43.719 43.699 43.684 43.651 43.664 43.719 43.719 43.694 43.701 43.711 43.656 43.599 43.574 43.573 43.621 43.623 43.598 43.626 43.666 43.673 43.676 43.681 43.696 43.841 43.966 43.958 43.938 43.928 43.873 43.908 43.908 43.838 43.808 43.763 43.771 43.791 43.761 43.733 43.718 43.728 43.741 43.691 43.686 43.718 43.711 43.661 43.628 43.598 43.571 43.576 43.588 43.578 43.548 43.531 43.511 43.551 43.523 43.543 43.556 43.526 43.483 43.488 43.468 43.433 43.446 43.453 43.416 43.413 43.398 43.406 43.386 43.371 43.361 43.338 43.316 43.283 43.263 43.211 43.178 43.108 43.063 42.998 42.931 42.828 42.776 42.701 42.658 42.616 42.571 42.483 42.361 42.273 42.141 42.053 42.011 41.918 41.856 41.823 41.736 41.686 41.633 41.573 41.493 41.408 41.338 41.288 41.223 41.186 41.138 41.098 41.078 41.091 41.096 41.056 40.998 40.956 40.958 40.953 40.966 40.928 40.948 40.971 40.978 40.903 40.886 40.838 40.728 40.551 40.411 40.266 40.136 40.091 40.063 40.058 40.053 40.033 40.048 40.096 40.113 40.138 40.036 39.746 39.416 39.338 39.493 39.728 39.771 39.711 39.628 39.538 39.448 39.353 39.393 39.463 39.361 39.336 39.331 39.353 39.306 39.218 39.166 39.181 39.146 39.138 39.178 39.178 39.138 39.046 39.093 39.111 39.043 39.036 38.958 38.883 38.936 38.906 38.901 38.873 38.838 38.736 38.691 38.671 38.628 38.668 38.688 38.611 38.531 38.531 38.521 38.483 38.138 37.881 38.246 38.401 38.326 38.253 38.206 38.151 38.193 38.253 38.196 38.156 38.161 38.098 38.088 38.093 38.088 38.033 37.978 37.991 37.933 37.896 37.948 37.911 37.893 37.891 37.846 37.826 37.788 37.733 37.713 37.653 37.623 37.571 37.536 37.483 37.436 37.408 37.376 37.313 37.258 37.221 37.211 37.208 37.171 37.166 37.121 37.091 37.056 37.048 37.073 37.058
-9999 -9999 -9999 -9999 -9999 -9999 -9999 -9999 -9999 -9999 -9999 -9999 -9999 -9999 -9999 -9999 -9999 -9999 -9999 -9999 -9999 -9999 -9999 -9999 -9999 -9999 -9999 -9999 -9999 -9999 -9999 -9999 -9999 -9999 -9999 -9999 -9999 -9999 -9999 -9999 -9999 -9999 -9999 -9999 -9999 -9999 -9999 -9999 -9999 -9999 -9999 -9999 -9999 -9999 -9999 -9999 -9999 -9999 -9999 -9999 -9999 -9999 -9999 -9999 -9999 -9999 -9999 -9999 -9999 -9999 -9999 -9999 -9999 -9999 -9999 -9999 -9999 -9999 -9999 -9999 -9999 -9999 -9999 -9999 -9999 -9999 -9999 -9999 -9999 -9999 -9999 -9999 -9999 -9999 -9999 -9999 -9999 -9999 -9999 -9999 -9999 -9999 -9999 -9999 -9999 -9999 -9999 -9999 -9999 -9999 -9999 -9999 -9999 -9999 -9999 -9999 -9999 -9999 -9999 -9999 -9999 -9999 -9999 -9999 -9999 -9999 -9999 -9999 -9999 -9999 -9999 -9999 -9999 -9999 -9999 -9999 -9999 -9999 -9999 -9999 -9999 -9999 -9999 -9999 -9999 -9999 -9999 -9999 -9999 -9999 -9999 -9999 -9999 -9999 -9999 -9999 -9999 -9999 -9999 -9999 -9999 -9999 -9999 -9999 -9999 -9999 -9999 -9999 -9999 -9999 -9999 -9999 43.816 43.826 43.841 43.834 43.766 43.721 43.681 43.634 43.581 43.539 43.556 43.559 43.606 43.591 43.544 43.521 43.644 43.799 43.846 43.879 43.941 43.956 43.951 43.894 43.851 43.866 43.866 43.834 43.821 43.809 43.746 43.731 43.751 43.726 43.754 43.726 43.679 43.681 43.684 43.684 43.681 43.701 43.706 43.644 43.616 43.566 43.589 43.571 43.556 43.541 43.546 43.633 43.601 43.593 43.593 43.596 43.678 43.861 43.981 43.976 43.921 43.901 43.876 43.846 43.801 43.756 43.758 43.786 43.758 43.736 43.726 43.696 43.703 43.698 43.673 43.638 43.673 43.698 43.686 43.601 43.581 43.548 43.541 43.548 43.543 43.553 43.553 43.561 43.521 43.506 43.518 43.526 43.521 43.501 43.423 43.461 43.483 43.448 43.446 43.443 43.406 43.368 43.381 43.426 43.413 43.413 43.363 43.341 43.331 43.278 43.251 43.143 43.091 43.086 43.058 42.963 42.868 42.806 42.751 42.643 42.601 42.581 42.561 42.438 42.316 42.236 42.123 42.036 41.963 41.898 41.851 41.746 41.683 41.593 41.546 41.501 41.473 41.353 41.321 41.258 41.198 41.171 41.158 41.133 41.103 41.093 41.081 41.046 41.043 41.038 41.026 41.026 41.033 41.041 40.988 40.886 40.836 40.731 40.626 40.486 40.413 40.296 40.188 40.168 40.113 40.111 40.106 40.088 40.181 40.031 39.981 40.028 40.048 40.066 39.943 39.636 39.383 39.481 39.691 39.741 39.756 39.673 39.606 39.553 39.473 39.231 39.131 39.391 39.343 39.306 39.273 39.323 39.331 39.246 39.143 39.153 39.148 39.126 39.181 39.198 39.113 39.131 39.171 39.121 39.048 39.008 38.933 38.806 38.933 38.976 38.933 38.873 38.818 38.768 38.733 38.643 38.673 38.731 38.756 38.706 38.656 38.566 38.613 38.576 38.491 38.021 38.141 38.468 38.428 38.316 38.208 38.186 38.226 38.261 38.216 38.196 38.183 38.103 38.106 38.111 38.128 38.078 38.041 38.043 37.988 37.943 37.988 37.956 37.953 37.941 37.896 37.886 37.876 37.843 37.776 37.751 37.678 37.623 37.608 37.511 37.501 37.488 37.428 37.403 37.343 37.291 37.273 37.258 37.263 37.221 37.188 37.116 37.096 37.083 37.078 37.073
-9999 -9999 -9999 -9999 -9999 -9999 -9999 -9999 -9999 -9999 -9999 -9999 -9999 -9999 -9999 -9999 -9999 -9999 -9999 -9999 -9999 -9999 -9999 -9999 -9999 -9999 -9999 -9999 -9999 -9999 -9999 -9999 -9999 -9999 -9999 -9999 -9999 -9999 -9999 -9999 -9999 -9999 -9999 -9999 -9999 -9999 -9999 -9999 -9999 -9999 -9999 -9999 -9999 -9999 -9999 -9999 -9999 -9999 -9999 -9999 -9999 -9999 -9999 -9999 -9999 -9999 -9999 -9999 -9999 -9999 -9999 -9999 -9999 -9999 -9999 -9999 -9999 -9999 -9999 -9999 -9999 -9999 -9999 -9999 -9999 -9999 -9999 -9999 -9999 -9999 -9999 -9999 -9999 -9999 -9999 -9999 -9999 -9999 -9999 -9999 -9999 -9999 -9999 -9999 -9999 -9999 -9999 -9999 -9999 -9999 -9999 -9999 -9999 -9999 -9999 -9999 -9999 -9999 -9999 -9999 -9999 -9999 -9999 -9999 -9999 -9999 -9999 -9999 -9999 -9999 -9999 -9999 -9999 -9999 -9999 -9999 -9999 -9999 -9999 -9999 -9999 -9999 -9999 -9999 -9999 -9999 -9999 -9999 -9999 -9999 -9999 -9999 -9999 -9999 -9999 -9999 -9999 -9999 -9999 -9999 -9999 -9999 -9999 -9999 -9999 -9999 -9999 -9999 -9999 -9999 -9999 -9999 43.858 43.876 43.879 43.836 43.809 43.744 43.681 43.621 43.621 43.584 43.576 43.574 43.591 43.596 43.569 43.501 43.526 43.694 43.744 43.739 43.796 43.826 43.861 43.804 43.799 43.836 43.801 43.821 43.809 43.764 43.744 43.721 43.711 43.686 43.664 43.686 43.634 43.724 43.674 43.654 43.739 43.761 43.711 43.581 43.581 43.611 43.586 43.553 43.521 43.538 43.451 43.516 43.511 43.526 43.523 43.563 43.688 43.848 43.983 44.008 43.971 43.908 43.833 43.768 43.733 43.741 43.768 43.728 43.671 43.688 43.731 43.668 43.663 43.638 43.638 43.623 43.653 43.606 43.571 43.588 43.556 43.551 43.526 43.556 43.543 43.521 43.521 43.543 43.528 43.493 43.488 43.498 43.491 43.478 43.476 43.448 43.478 43.456 43.446 43.438 43.373 43.331 43.446 43.476 43.436 43.403 43.358 43.338 43.288 43.223 43.181 43.161 43.123 43.166 43.088 42.958 42.898 42.841 42.776 42.668 42.588 42.553 42.506 42.413 42.283 42.188 42.111 42.003 41.898 41.816 41.728 41.641 41.606 41.508 41.451 41.446 41.423 41.336 41.278 41.223 41.206 41.176 41.161 41.138 41.091 41.131 41.128 41.111 41.088 41.068 41.111 41.111 41.011 40.913 40.746 40.598 40.456 40.443 40.323 40.326 40.263 40.266 40.248 40.201 40.188 40.188 40.103 40.131 40.233 40.088 39.943 39.936 40.003 40.031 39.833 39.488 39.623 39.771 39.678 39.678 39.611 39.583 39.546 39.503 39.456 39.423 39.391 39.411 39.333 39.276 39.281 39.238 39.256 39.228 39.203 39.156 39.113 39.088 39.123 39.166 39.193 39.276 39.196 39.081 39.021 39.028 39.038 38.963 38.961 38.966 38.918 38.883 38.866 38.786 38.741 38.753 38.753 38.806 38.758 38.756 38.711 38.686 38.666 38.663 38.588 38.191 38.043 38.411 38.516 38.436 38.211 38.211 38.228 38.293 38.268 38.241 38.211 38.146 38.138 38.156 38.153 38.121 38.058 38.058 38.038 37.996 38.003 38.036 38.013 38.008 37.956 37.933 37.913 37.841 37.831 37.803 37.758 37.678 37.686 37.596 37.601 37.551 37.503 37.451 37.396 37.348 37.306 37.286 37.283 37.256 37.201 37.138 37.118 37.111 37.071 37.043
-9999 -9999 -9999 -9999 -9999 -9999 -9999 -9999 -9999 -9999 -9999 -9999 -9999 -9999 -9999 -9999 -9999 -9999 -9999 -9999 -9999 -9999 -9999 -9999 -9999 -9999 -9999 -9999 -9999 -9999 -9999 -9999 -9999 -9999 -9999 -9999 -9999 -9999 -9999 -9999 -9999 -9999 -9999 -9999 -9999 -9999 -9999 -9999 -9999 -9999 -9999 -9999 -9999 -9999 -9999 -9999 -9999 -9999 -9999 -9999 -9999 -9999 -9999 -9999 -9999 -9999 -9999 -9999 -9999 -9999 -9999 -9999 -9999 -9999 -9999 -9999 -9999 -9999 -9999 -9999 -9999 -9999 -9999 -9999 -9999 -9999 -9999 -9999 -9999 -9999 -9999 -9999 -9999 -9999 -9999 -9999 -9999 -9999 -9999 -9999 -9999 -9999 -9999 -9999 -9999 -9999 -9999 -9999 -9999 -9999 -9999 -9999 -9999 -9999 -9999 -9999 -9999 -9999 -9999 -9999 -9999 -9999 -9999 -9999 -9999 -9999 -9999 -9999 -9999 -9999 -9999 -9999 -9999 -9999 -9999 -9999 -9999 -9999 -9999 -9999 -9999 -9999 -9999 -9999 -9999 -9999 -9999 -9999 -9999 -9999 -9999 -9999 -9999 -9999 -9999 -9999 -9999 -9999 -9999 -9999 -9999 -9999 -9999 -9999 -9999 -9999 -9999 -9999 -9999 -9999 -9999 -9999 -9999 43.931 43.919 43.864 43.839 43.774 43.729 43.694 43.659 43.601 43.604 43.536 43.571 43.576 43.566 43.516 43.464 43.541 43.624 43.656 43.686 43.721 43.669 43.671 43.701 43.764 43.796 43.789 43.784 43.771 43.779 43.746 43.699 43.654 43.589 43.574 43.584 43.584 43.589 43.594 43.659 43.699 43.664 43.571 43.526 43.554 43.554 43.538 43.546 43.501 43.416 43.436 43.413 43.456 43.523 43.546 43.626 43.771 43.933 44.006 43.993 43.936 43.808 43.731 43.713 43.738 43.713 43.678 43.676 43.663 43.671 43.608 43.621 43.661 43.638 43.608 43.596 43.536 43.581 43.643 43.613 43.581 43.533 43.516 43.508 43.523 43.483 43.471 43.456 43.471 43.476 43.476 43.486 43.471 43.463 43.436 43.441 43.413 43.431 43.463 43.386 43.441 43.506 43.471 43.436 43.368 43.316 43.291 43.253 43.216 43.163 43.153 43.188 43.166 43.051 42.943 42.873 42.793 42.733 42.708 42.631 42.558 42.458 42.403 42.256 42.133 42.038 41.946 41.833 41.721 41.676 41.618 41.551 41.498 41.466 41.421 41.376 41.318 41.273 41.258 41.228 41.188 41.158 41.136 41.171 41.196 41.196 41.206 41.178 41.191 41.083 40.938 40.776 40.518 40.391 40.391 40.376 40.318 40.228 40.283 40.231 40.178 40.166 40.143 40.143 40.163 40.096 40.186 40.171 39.991 39.808 39.666 39.821 39.991 39.948 39.721 39.748 39.786 39.678 39.643 39.571 39.568 39.461 39.436 39.396 39.423 39.481 39.413 39.316 39.268 39.301 39.318 39.206 39.223 39.246 39.181 39.158 39.166 39.211 39.183 39.191 39.238 39.131 39.061 39.073 39.098 39.048 39.071 38.996 38.966 38.933 38.913 38.871 38.806 38.806 38.816 38.818 38.801 38.818 38.813 38.811 38.758 38.746 38.718 38.716 38.538 37.996 38.231 38.536 38.471 38.241 38.243 38.291 38.303 38.296 38.261 38.226 38.173 38.166 38.156 38.156 38.123 38.076 38.081 38.058 38.053 38.076 38.091 38.091 38.071 38.018 37.986 37.926 37.861 37.851 37.833 37.821 37.763 37.741 37.646 37.603 37.576 37.546 37.476 37.436 37.393 37.343 37.338 37.283 37.288 37.216 37.143 37.133 37.106 37.096 37.083
-9999 -9999 -9999 -9999 -9999 -9999 -9999 -9999 -9999 -9999 -9999 -9999 -9999 -9999 -9999 -9999 -9999 -9999 -9999 -9999 -9999 -9999 -9999 -9999 -9999 -9999 -9999 -9999 -9999 -9999 -9999 -9999 -9999 -9999 -9999 -9999 -9999 -9999 -9999 -9999 -9999 -9999 -9999 -9999 -9999 -9999 -9999 -9999 -9999 -9999 -9999 -9999 -9999 -9999 -9999 -9999 -9999 -9999 -9999 -9999 -9999 -9999 -9999 -9999 -9999 -9999 -9999 -9999 -9999 -9999 -9999 -9999 -9999 -9999 -9999 -9999 -9999 -9999 -9999 -9999 -9999 -9999 -9999 -9999 -9999 -9999 -9999 -9999 -9999 -9999 -9999 -9999 -9999 -9999 -9999 -9999 -9999 -9999 -9999 -9999 -9999 -9999 -9999 -9999 -9999 -9999 -9999 -9999 -9999 -9999 -9999 -9999 -9999 -9999 -9999 -9999 -9999 -9999 -9999 -9999 -9999 -9999 -9999 -9999 -9999 -9999 -9999 -9999 -9999 -9999 -9999 -9999 -9999 -9999 -9999 -9999 -9999 -9999 -9999 -9999 -9999 -9999 -9999 -9999 -9999 -9999 -9999 -9999 -9999 -9999 -9999 -9999 -9999 -9999 -9999 -9999 -9999 -9999 -9999 -9999 -9999 -9999 -9999 -9999 -9999 -9999 -9999 -9999 -9999 -9999 -9999 -9999 -9999 43.944 43.926 43.869 43.861 43.824 43.776 43.754 43.721 43.704 43.629 43.596 43.609 43.574 43.526 43.504 43.474 43.479 43.556 43.639 43.644 43.606 43.571 43.551 43.571 43.621 43.631 43.689 43.724 43.696 43.749 43.729 43.679 43.629 43.556 43.564 43.551 43.519 43.559 43.604 43.581 43.524 43.501 43.524 43.461 43.466 43.466 43.486 43.483 43.433 43.388 43.498 43.473 43.453 43.463 43.496 43.586 43.711 43.866 43.978 44.021 43.928 43.808 43.716 43.718 43.666 43.653 43.673 43.621 43.608 43.581 43.558 43.611 43.618 43.571 43.563 43.566 43.553 43.616 43.626 43.573 43.543 43.533 43.498 43.491 43.471 43.421 43.436 43.443 43.478 43.456 43.456 43.456 43.441 43.448 43.436 43.438 43.453 43.443 43.478 43.531 43.523 43.496 43.476 43.378 43.326 43.288 43.266 43.246 43.216 43.148 43.186 43.168 43.121 43.028 42.926 42.798 42.661 42.563 42.608 42.668 42.553 42.458 42.383 42.213 42.071 41.978 41.901 41.768 41.698 41.636 41.561 41.516 41.466 41.421 41.396 41.358 41.331 41.293 41.231 41.191 41.168 41.178 41.183 41.251 41.276 41.261 41.258 41.221 41.111 40.946 40.731 40.491 40.301 40.363 40.323 40.253 40.343 40.393 40.408 40.288 40.138 40.148 40.128 40.086 40.103 40.008 40.058 40.071 39.883 39.596 39.583 39.883 39.961 39.918 39.771 39.688 39.641 39.643 39.623 39.613 39.631 39.478 39.443 39.421 39.433 39.428 39.323 39.318 39.336 39.351 39.338 39.281 39.281 39.261 39.208 39.271 39.288 39.278 39.256 39.251 39.213 39.146 39.158 39.128 39.128 39.101 39.063 39.036 39.036 38.983 38.971 38.973 38.893 38.893 38.848 38.883 38.893 38.893 38.903 38.891 38.866 38.823 38.763 38.798 38.746 38.148 38.113 38.613 38.546 38.333 38.301 38.316 38.301 38.296 38.283 38.253 38.213 38.166 38.188 38.136 38.141 38.101 38.056 38.086 38.088 38.093 38.106 38.128 38.051 38.013 37.981 37.966 37.893 37.861 37.846 37.836 37.791 37.748 37.663 37.626 37.593 37.563 37.516 37.458 37.401 37.353 37.351 37.316 37.273 37.243 37.186 37.123 37.126 37.101 37.056
-9999 -9999 -9999 -9999 -9999 -9999 -9999 -9999 -9999 -9999 -9999 -9999 -9999 -9999 -9999 -9999 -9999 -9999 -9999 -9999 -9999 -9999 -9999 -9999 -9999 -9999 -9999 -9999 -9999 -9999 -9999 -9999 -9999 -9999 -9999 -9999 -9999 -9999 -9999 -9999 -9999 -9999 -9999 -9999 -9999 -9999 -9999 -9999 -9999 -9999 -9999 -9999 -9999 -9999 -9999 -9999 -9999 -9999 -9999 -9999 -9999 -9999 -9999 -9999 -9999 -9999 -9999 -9999 -9999 -9999 -9999 -9999 -9999 -9999 -9999 -9999 -9999 -9999 -9999 -9999 -9999 -9999 -9999 -9999 -9999 -9999 -9999 -9999 -9999 -9999 -9999 -9999 -9999 -9999 -9999 -9999 -9999 -9999 -9999 -9999 -9999 -9999 -9999 -9999 -9999 -9999 -9999 -9999 -9999 -9999 -9999 -9999 -9999 -9999 -9999 -9999 -9999 -9999 -9999 -9999 -9999 -9999 -9999 -9999 -9999 -9999 -9999 -9999 -9999 -9999 -9999 -9999 -9999 -9999 -9999 -9999 -9999 -9999 -9999 -9999 -9999 -9999 -9999 -9999 -9999 -9999 -9999 -9999 -9999 -9999 -9999 -9999 -9999 -9999 -9999 -9999 -9999 -9999 -9999 -9999 -9999 -9999 -9999 -9999 -9999 -9999 -9999 -9999 -9999 -9999 -9999 -9999 -9999 -9999 43.959 43.916 43.919 43.849 43.814 43.814 43.759 43.724 43.656 43.651 43.656 43.611 43.584 43.529 43.481 43.479 43.521 43.634 43.654 43.611 43.536 43.489 43.491 43.484 43.496 43.569 43.641 43.606 43.626 43.669 43.659 43.609 43.569 43.561 43.534 43.521 43.541 43.554 43.544 43.509 43.546 43.511 43.496 43.484 43.436 43.448 43.316 43.313 43.313 43.413 43.516 43.486 43.468 43.466 43.536 43.628 43.783 43.933 43.938 43.871 43.808 43.723 43.673 43.666 43.623 43.608 43.571 43.553 43.591 43.591 43.563 43.523 43.531 43.581 43.581 43.541 43.541 43.591 43.566 43.526 43.511 43.481 43.483 43.456 43.423 43.453 43.443 43.451 43.431 43.441 43.431 43.428 43.446 43.428 43.411 43.423 43.411 43.406 43.473 43.491 43.461 43.371 43.328 43.283 43.253 43.251 43.226 43.193 43.133 43.093 43.061 43.048 42.963 42.868 42.783 42.708 42.546 42.541 42.556 42.518 42.433 42.288 42.146 42.028 41.926 41.871 41.773 41.691 41.586 41.578 41.508 41.436 41.396 41.366 41.331 41.288 41.238 41.203 41.223 41.253 41.266 41.271 41.293 41.321 41.263 41.163 41.078 40.983 40.813 40.611 40.378 40.296 40.323 40.266 40.251 40.248 40.326 40.331 40.233 40.113 40.111 40.088 40.048 39.983 39.921 39.908 39.878 39.758 39.601 39.796 39.996 39.998 39.891 39.843 39.708 39.626 39.578 39.636 39.648 39.636 39.498 39.463 39.463 39.473 39.471 39.363 39.343 39.381 39.411 39.383 39.356 39.358 39.346 39.318 39.321 39.301 39.266 39.281 39.318 39.278 39.211 39.203 39.213 39.241 39.103 39.058 39.103 39.116 39.083 39.053 39.006 38.958 38.963 38.833 38.903 38.951 39.061 39.096 39.046 39.011 39.023 38.981 38.831 38.758 38.526 38.188 38.418 38.603 38.423 38.316 38.331 38.311 38.293 38.286 38.293 38.233 38.176 38.173 38.128 38.116 38.111 38.053 38.096 38.106 38.048 38.088 38.118 38.063 38.011 37.983 37.968 37.918 37.871 37.871 37.823 37.783 37.728 37.671 37.626 37.598 37.566 37.493 37.438 37.441 37.396 37.383 37.351 37.293 37.268 37.216 37.156 37.126 37.053 37.028
-9999 -9999 -9999 -9999 -9999 -9999 -9999 -9999 -9999 -9999 -9999 -9999 -9999 -9999 -9999 -9999 -9999 -9999 -9999 -9999 -9999 -9999 -9999 -9999 -9999 -9999 -9999 -9999 -9999 -9999 -9999 -9999 -9999 -9999 -9999 -9999 -9999 -9999 -9999 -9999 -9999 -9999 -9999 -9999 -9999 -9999 -9999 -9999 -9999 -9999 -9999 -9999 -9999 -9999 -9999 -9999 -9999 -9999 -9999 -9999 -9999 -9999 -9999 -9999 -9999 -9999 -9999 -9999 -9999 -9999 -9999 -9999 -9999 -9999 -9999 -9999 -9999 -9999 -9999 -9999 -9999 -9999 -9999 -9999 -9999 -9999 -9999 -9999 -9999 -9999 -9999 -9999 -9999 -9999 -9999 -9999 -9999 -9999 -9999 -9999 -9999 -9999 -9999 -9999 -9999 -9999 -9999 -9999 -9999 -9999 -9999 -9999 -9999 -9999 -9999 -9999 -9999 -9999 -9999 -9999 -9999 -9999 -9999 -9999 -9999 -9999 -9999 -9999 -9999 -9999 -9999 -9999 -9999 -9999 -9999 -9999 -9999 -9999 -9999 -9999 -9999 -9999 -9999 -9999 -9999 -9999 -9999 -9999 -9999 -9999 -9999 -9999 -9999 -9999 -9999 -9999 -9999 -9999 -9999 -9999 -9999 -9999 -9999 -9999 -9999 -9999 -9999 -9999 -9999 -9999 -9999 -9999 -9999 -9999 44.041 44.034 44.014 43.921 43.856 43.859 43.811 43.786 43.729 43.704 43.726 43.719 43.659 43.586 43.529 43.471 43.499 43.584 43.644 43.621 43.564 43.494 43.421 43.414 43.426 43.469 43.514 43.509 43.484 43.519 43.551 43.539 43.549 43.564 43.496 43.516 43.554 43.526 43.506 43.516 43.526 43.481 43.491 43.459 43.426 43.383 43.336 43.293 43.276 43.251 43.308 43.366 43.378 43.426 43.488 43.576 43.671 43.818 43.893 43.863 43.756 43.713 43.681 43.656 43.578 43.531 43.551 43.551 43.576 43.513 43.483 43.506 43.498 43.533 43.521 43.536 43.548 43.551 43.541 43.493 43.483 43.473 43.476 43.476 43.461 43.428 43.408 43.433 43.418 43.433 43.443 43.411 43.393 43.373 43.368 43.398 43.403 43.376 43.381 43.358 43.366 43.336 43.306 43.253 43.236 43.243 43.178 43.126 43.108 43.066 43.011 42.933 42.881 42.823 42.763 42.686 42.526 42.518 42.516 42.491 42.408 42.256 42.091 41.976 41.873 41.828 41.751 41.666 41.561 41.513 41.461 41.378 41.338 41.286 41.253 41.263 41.266 41.271 41.278 41.311 41.323 41.351 41.396 41.331 41.073 40.921 40.898 40.871 40.683 40.491 40.343 40.321 40.293 40.273 40.253 40.211 40.226 40.211 40.113 40.016 39.981 39.988 39.971 39.931 39.941 39.938 39.891 39.643 39.611 39.853 39.953 39.971 39.933 39.843 39.636 39.533 39.691 39.731 39.701 39.633 39.568 39.483 39.448 39.493 39.471 39.423 39.426 39.398 39.393 39.438 39.418 39.386 39.383 39.436 39.416 39.368 39.338 39.378 39.436 39.331 39.268 39.286 39.308 39.308 39.201 39.128 39.161 39.198 39.168 39.108 39.086 39.088 39.053 39.043 39.076 39.048 39.093 39.148 39.121 39.126 39.121 39.071 38.883 38.798 38.716 38.383 38.428 38.678 38.506 38.346 38.371 38.341 38.353 38.326 38.318 38.296 38.233 38.171 38.148 38.116 38.096 38.078 38.061 38.046 38.036 38.081 38.071 38.018 37.986 37.943 37.921 37.883 37.848 37.843 37.776 37.733 37.721 37.653 37.593 37.583 37.501 37.446 37.436 37.448 37.381 37.373 37.368 37.316 37.318 37.228 37.196 37.138 37.051 37.006
-9999 -9999 -9999 -9999 -9999 -9999 -9999 -9999 -9999 -9999 -9999 -9999 -9999 -9999 -9999 -9999 -9999 -9999 -9999 -9999 -9999 -9999 -9999 -9999 -9999 -9999 -9999 -9999 -9999 -9999 -9999 -9999 -9999 -9999 -9999 -9999 -9999 -9999 -9999 -9999 -9999 -9999 -9999 -9999 -9999 -9999 -9999 -9999 -9999 -9999 -9999 -9999 -9999 -9999 -9999 -9999 -9999 -9999 -9999 -9999 -9999 -9999 -9999 -9999 -9999 -9999 -9999 -9999 -9999 -9999 -9999 -9999 -9999 -9999 -9999 -9999 -9999 -9999 -9999 -9999 -9999 -9999 -9999 -9999 -9999 -9999 -9999 -9999 -9999 -9999 -9999 -9999 -9999 -9999 -9999 -9999 -9999 -9999 -9999 -9999 -9999 -9999 -9999 -9999 -9999 -9999 -9999 -9999 -9999 -9999 -9999 -9999 -9999 -9999 -9999 -9999 -9999 -9999 -9999 -9999 -9999 -9999 -9999 -9999 -9999 -9999 -9999 -9999 -9999 -9999 -9999 -9999 -9999 -9999 -9999 -9999 -9999 -9999 -9999 -9999 -9999 -9999 -9999 -9999 -9999 -9999 -9999 -9999 -9999 -9999 -9999 -9999 -9999 -9999 -9999 -9999 -9999 -9999 -9999 -9999 -9999 -9999 -9999 -9999 -9999 -9999 -9999 -9999 -9999 -9999 -9999 -9999 -9999 -9999 -9999 44.091 44.079 44.016 43.964 43.936 43.876 43.854 43.851 43.766 43.769 43.759 43.771 43.694 43.619 43.571 43.541 43.636 43.661 43.679 43.579 43.469 43.396 43.389 43.381 43.416 43.459 43.444 43.371 43.341 43.364 43.369 43.386 43.421 43.426 43.459 43.524 43.514 43.519 43.521 43.539 43.561 43.541 43.564 43.466 43.366 43.351 43.361 43.353 43.291 43.283 43.326 43.401 43.458 43.568 43.628 43.703 43.776 43.853 43.871 43.811 43.763 43.721 43.656 43.556 43.516 43.536 43.506 43.491 43.476 43.481 43.491 43.476 43.496 43.498 43.518 43.501 43.488 43.473 43.483 43.496 43.441 43.443 43.438 43.421 43.401 43.403 43.408 43.411 43.418 43.368 43.368 43.358 43.343 43.346 43.331 43.346 43.326 43.353 43.316 43.303 43.276 43.278 43.223 43.201 43.171 43.098 43.088 43.036 43.011 42.941 42.868 42.838 42.746 42.668 42.556 42.501 42.483 42.491 42.438 42.336 42.173 42.041 41.943 41.821 41.788 41.728 41.593 41.506 41.458 41.418 41.351 41.303 41.253 41.243 41.301 41.353 41.366 41.353 41.413 41.416 41.393 41.343 41.083 40.798 40.628 40.673 40.711 40.606 40.401 40.341 40.301 40.261 40.213 40.221 40.238 40.186 40.143 40.038 40.021 40.023 40.031 39.991 39.926 39.956 39.953 39.778 39.583 39.703 39.858 39.916 39.978 39.943 39.846 39.628 39.446 39.643 39.723 39.726 39.721 39.626 39.568 39.493 39.491 39.501 39.486 39.476 39.488 39.508 39.536 39.486 39.461 39.476 39.498 39.486 39.463 39.423 39.476 39.478 39.398 39.341 39.328 39.358 39.423 39.388 39.246 39.228 39.283 39.258 39.203 39.186 39.161 39.133 39.098 39.101 39.101 39.153 39.201 39.196 39.153 39.106 39.068 38.913 38.813 38.841 38.476 38.171 38.541 38.628 38.461 38.411 38.366 38.376 38.396 38.376 38.363 38.278 38.191 38.133 38.088 38.093 38.076 38.041 38.026 38.028 38.013 37.971 37.971 37.926 37.871 37.866 37.813 37.766 37.748 37.651 37.633 37.636 37.591 37.506 37.493 37.426 37.426 37.383 37.416 37.416 37.396 37.391 37.343 37.331 37.266 37.208 37.143 37.058 37.006
-9999 -9999 -9999 -9999 -9999 -9999 -9999 -9999 -9999 -9999 -9999 -9999 -9999 -9999 -9999 -9999 -9999 -9999 -9999 -9999 -9999 -9999 -9999 -9999 -9999 -9999 -9999 -9999 -9999 -9999 -9999 -9999 -9999 -9999 -9999 -9999 -9999 -9999 -9999 -9999 -9999 -9999 -9999 -9999 -9999 -9999 -9999 -9999 -9999 -9999 -9999 -9999 -9999 -9999 -9999 -9999 -9999 -9999 -9999 -9999 -9999 -9999 -9999 -9999 -9999 -9999 -9999 -9999 -9999 -9999 -9999 -9999 -9999 -9999 -9999 -9999 -9999 -9999 -9999 -9999 -9999 -9999 -9999 -9999 -9999 -9999 -9999 -9999 -9999 -9999 -9999 -9999 -9999 -9999 -9999 -9999 -9999 -9999 -9999 -9999 -9999 -9999 -9999 -9999 -9999 -9999 -9999 -9999 -9999 -9999 -9999 -9999 -9999 -9999 -9999 -9999 -9999 -9999 -9999 -9999 -9999 -9999 -9999 -9999 -9999 -9999 -9999 -9999 -9999 -9999 -9999 -9999 -9999 -9999 -9999 -9999 -9999 -9999 -9999 -9999 -9999 -9999 -9999 -9999 -9999 -9999 -9999 -9999 -9999 -9999 -9999 -9999 -9999 -9999 -9999 -9999 -9999 -9999 -9999 -9999 -9999 -9999 -9999 -9999 -9999 -9999 -9999 -9999 -9999 -9999 -9999 -9999 -9999 -9999 -9999 44.111 44.074 44.069 44.034 43.976 43.971 43.956 43.984 43.876 43.779 43.786 43.801 43.794 43.714 43.676 43.669 43.681 43.669 43.676 43.609 43.519 43.449 43.399 43.346 43.366 43.416 43.369 43.296 43.279 43.261 43.286 43.309 43.384 43.464 43.521 43.564 43.606 43.614 43.646 43.631 43.636 43.604 43.584 43.544 43.443 43.378 43.403 43.471 43.426 43.416 43.483 43.511 43.576 43.608 43.638 43.711 43.763 43.836 43.921 43.848 43.798 43.766 43.641 43.541 43.496 43.466 43.446 43.453 43.456 43.461 43.481 43.461 43.443 43.471 43.456 43.458 43.458 43.468 43.443 43.486 43.438 43.388 43.421 43.423 43.406 43.408 43.373 43.353 43.336 43.308 43.301 43.336 43.296 43.311 43.326 43.316 43.273 43.278 43.283 43.258 43.251 43.208 43.148 43.141 43.116 43.061 43.038 42.976 42.893 42.883 42.798 42.728 42.661 42.593 42.508 42.426 42.443 42.368 42.346 42.236 42.088 41.991 41.906 41.796 41.748 41.703 41.573 41.498 41.411 41.393 41.326 41.318 41.328 41.341 41.346 41.356 41.383 41.378 41.431 41.486 41.301 41.026 40.736 40.566 40.533 40.606 40.596 40.536 40.386 40.301 40.261 40.221 40.183 40.161 40.121 40.118 40.118 40.063 40.038 40.043 39.996 39.966 39.896 39.906 39.916 39.603 39.596 39.851 39.898 39.896 39.968 39.976 39.943 39.851 39.796 39.763 39.773 39.801 39.848 39.793 39.706 39.606 39.606 39.608 39.553 39.548 39.601 39.561 39.571 39.563 39.548 39.591 39.543 39.506 39.501 39.493 39.448 39.506 39.511 39.436 39.383 39.393 39.453 39.458 39.328 39.283 39.303 39.288 39.251 39.228 39.216 39.148 39.103 39.086 39.086 39.141 39.191 39.223 39.133 39.091 38.993 38.898 38.878 38.793 38.506 38.096 38.428 38.698 38.568 38.431 38.348 38.306 38.396 38.396 38.381 38.296 38.203 38.133 38.083 38.066 38.046 38.026 38.001 37.933 37.941 37.916 37.898 37.873 37.803 37.791 37.721 37.676 37.636 37.571 37.543 37.501 37.493 37.448 37.406 37.341 37.321 37.341 37.356 37.391 37.406 37.368 37.331 37.361 37.328 37.226 37.151 37.101 37.026
-9999 -9999 -9999 -9999 -9999 -9999 -9999 -9999 -9999 -9999 -9999 -9999 -9999 -9999 -9999 -9999 -9999 -9999 -9999 -9999 -9999 -9999 -9999 -9999 -9999 -9999 -9999 -9999 -9999 -9999 -9999 -9999 -9999 -9999 -9999 -9999 -9999 -9999 -9999 -9999 -9999 -9999 -9999 -9999 -9999 -9999 -9999 -9999 -9999 -9999 -9999 -9999 -9999 -9999 -9999 -9999 -9999 -9999 -9999 -9999 -9999 -9999 -9999 -9999 -9999 -9999 -9999 -9999 -9999 -9999 -9999 -9999 -9999 -9999 -9999 -9999 -9999 -9999 -9999 -9999 -9999 -9999 -9999 -9999 -9999 -9999 -9999 -9999 -9999 -9999 -9999 -9999 -9999 -9999 -9999 -9999 -9999 -9999 -9999 -9999 -9999 -9999 -9999 -9999 -9999 -9999 -9999 -9999 -9999 -9999 -9999 -9999 -9999 -9999 -9999 -9999 -9999 -9999 -9999 -9999 -9999 -9999 -9999 -9999 -9999 -9999 -9999 -9999 -9999 -9999 -9999 -9999 -9999 -9999 -9999 -9999 -9999 -9999 -9999 -9999 -9999 -9999 -9999 -9999 -9999 -9999 -9999 -9999 -9999 -9999 -9999 -9999 -9999 -9999 -9999 -9999 -9999 -9999 -9999 -9999 -9999 -9999 -9999 -9999 -9999 -9999 -9999 -9999 -9999 -9999 -9999 -9999 -9999 -9999 -9999 -9999 44.094 44.081 44.069 44.006 44.026 44.014 44.004 43.836 43.801 43.879 43.859 43.844 43.796 43.749 43.754 43.724 43.674 43.684 43.634 43.579 43.531 43.436 43.361 43.364 43.399 43.331 43.289 43.306 43.329 43.359 43.414 43.464 43.494 43.504 43.516 43.579 43.596 43.616 43.566 43.554 43.506 43.479 43.501 43.481 43.441 43.408 43.466 43.493 43.486 43.521 43.526 43.543 43.586 43.603 43.643 43.671 43.768 43.866 43.826 43.783 43.728 43.643 43.543 43.466 43.423 43.451 43.448 43.416 43.428 43.468 43.471 43.446 43.413 43.461 43.463 43.438 43.428 43.393 43.438 43.423 43.406 43.406 43.393 43.351 43.346 43.323 43.288 43.288 43.263 43.256 43.298 43.281 43.291 43.301 43.283 43.243 43.213 43.191 43.178 43.171 43.163 43.123 43.088 43.071 43.008 42.921 42.893 42.778 42.763 42.743 42.641 42.601 42.553 42.481 42.418 42.358 42.263 42.268 42.146 42.006 41.936 41.841 41.788 41.683 41.598 41.531 41.453 41.396 41.416 41.383 41.411 41.401 41.408 41.388 41.386 41.448 41.491 41.496 41.363 41.033 40.803 40.643 40.583 40.538 40.543 40.486 40.423 40.383 40.278 40.228 40.183 40.168 40.128 40.078 40.063 40.086 40.033 40.033 40.108 39.958 39.861 39.743 39.776 39.688 39.703 39.878 39.961 39.933 39.928 40.001 39.963 39.938 39.998 39.911 39.791 39.856 39.901 39.993 39.943 39.803 39.743 39.746 39.703 39.666 39.658 39.678 39.653 39.668 39.641 39.593 39.591 39.553 39.486 39.498 39.496 39.496 39.501 39.496 39.498 39.486 39.436 39.466 39.491 39.353 39.296 39.313 39.241 39.243 39.226 39.193 39.086 39.068 39.061 39.066 39.096 39.108 39.133 39.111 39.016 38.928 38.916 38.928 38.858 38.681 38.278 38.311 38.706 38.586 38.443 38.423 38.331 38.423 38.421 38.371 38.276 38.216 38.106 38.076 38.028 38.006 38.013 37.971 37.921 37.938 37.868 37.876 37.816 37.746 37.726 37.681 37.591 37.546 37.491 37.443 37.408 37.373 37.328 37.286 37.251 37.233 37.263 37.306 37.351 37.321 37.346 37.361 37.341 37.298 37.238 37.188 37.121 37.046
-9999 -9999 -9999 -9999 -9999 -9999 -9999 -9999 -9999 -9999 -9999 -9999 -9999 -9999 -9999 -9999 -9999 -9999 -9999 -9999 -9999 -9999 -9999 -9999 -9999 -9999 -9999 -9999 -9999 -9999 -9999 -9999 -9999 -9999 -9999 -9999 -9999 -9999 -9999 -9999 -9999 -9999 -9999 -9999 -9999 -9999 -9999 -9999 -9999 -9999 -9999 -9999 -9999 -9999 -9999 -9999 -9999 -9999 -9999 -9999 -9999 -9999 -9999 -9999 -9999 -9999 -9999 -9999 -9999 -9999 -9999 -9999 -9999 -9999 -9999 -9999 -9999 -9999 -9999 -9999 -9999 -9999 -9999 -9999 -9999 -9999 -9999 -9999 -9999 -9999 -9999 -9999 -9999 -9999 -9999 -9999 -9999 -9999 -9999 -9999 -9999 -9999 -9999 -9999 -9999 -9999 -9999 -9999 -9999 -9999 -9999 -9999 -9999 -9999 -9999 -9999 -9999 -9999 -9999 -9999 -9999 -9999 -9999 -9999 -9999 -9999 -9999 -9999 -9999 -9999 -9999 -9999 -9999 -9999 -9999 -9999 -9999 -9999 -9999 -9999 -9999 -9999 -9999 -9999 -9999 -9999 -9999 -9999 -9999 -9999 -9999 -9999 -9999 -9999 -9999 -9999 -9999 -9999 -9999 -9999 -9999 -9999 -9999 -9999 -9999 -9999 -9999 -9999 -9999 -9999 -9999 -9999 -9999 -9999 -9999 -9999 44.124 44.106 44.079 44.026 44.046 44.076 44.049 43.981 43.986 43.939 43.919 43.876 43.829 43.779 43.759 43.746 43.694 43.679 43.641 43.636 43.599 43.489 43.434 43.389 43.391 43.351 43.331 43.401 43.394 43.381 43.444 43.514 43.511 43.501 43.499 43.474 43.491 43.459 43.461 43.471 43.431 43.436 43.439 43.461 43.433 43.416 43.428 43.436 43.411 43.413 43.463 43.511 43.503 43.508 43.548 43.583 43.666 43.761 43.833 43.806 43.681 43.593 43.553 43.486 43.448 43.443 43.401 43.396 43.433 43.398 43.411 43.413 43.428 43.441 43.396 43.366 43.393 43.373 43.378 43.371 43.333 43.311 43.288 43.278 43.261 43.273 43.253 43.251 43.233 43.253 43.271 43.321 43.291 43.276 43.266 43.226 43.196 43.173 43.111 43.128 43.093 43.076 43.021 42.928 42.876 42.788 42.758 42.743 42.701 42.646 42.618 42.563 42.488 42.428 42.386 42.248 42.198 42.228 42.133 41.958 41.838 41.778 41.691 41.626 41.561 41.543 41.518 41.498 41.466 41.431 41.411 41.443 41.456 41.431 41.441 41.491 41.466 41.331 41.078 40.788 40.726 40.668 40.631 40.578 40.441 40.361 40.291 40.313 40.271 40.193 40.171 40.193 40.161 40.141 40.073 40.071 39.971 40.048 40.071 39.906 39.778 39.843 39.826 39.856 39.906 39.953 39.978 39.958 39.953 39.968 40.043 39.961 40.063 39.946 39.881 39.903 39.948 40.033 40.008 39.908 39.856 39.866 39.841 39.838 39.808 39.738 39.731 39.743 39.731 39.658 39.618 39.628 39.578 39.503 39.498 39.531 39.541 39.481 39.463 39.453 39.461 39.408 39.426 39.298 39.203 39.183 39.176 39.173 39.128 39.158 39.061 39.046 39.018 39.013 39.036 39.111 39.078 38.998 38.956 38.966 38.966 38.956 38.961 38.871 38.536 38.208 38.573 38.608 38.528 38.438 38.366 38.351 38.423 38.331 38.261 38.173 38.093 38.048 37.993 37.998 37.966 37.936 37.913 37.913 37.878 37.838 37.806 37.738 37.683 37.663 37.546 37.496 37.443 37.343 37.303 37.293 37.263 37.213 37.163 37.158 37.158 37.213 37.236 37.273 37.336 37.341 37.331 37.313 37.251 37.206 37.106 37.006
-9999 -9999 -9999 -9999 -9999 -9999 -9999 -9999 -9999 -9999 -9999 -9999 -9999 -9999 -9999 -9999 -9999 -9999 -9999 -9999 -9999 -9999 -9999 -9999 -9999 -9999 -9999 -9999 -9999 -9999 -9999 -9999 -9999 -9999 -9999 -9999 -9999 -9999 -9999 -9999 -9999 -9999 -9999 -9999 -9999 -9999 -9999 -9999 -9999 -9999 -9999 -9999 -9999 -9999 -9999 -9999 -9999 -9999 -9999 -9999 -9999 -9999 -9999 -9999 -9999 -9999 -9999 -9999 -9999 -9999 -9999 -9999 -9999 -9999 -9999 -9999 -9999 -9999 -9999 -9999 -9999 -9999 -9999 -9999 -9999 -9999 -9999 -9999 -9999 -9999 -9999 -9999 -9999 -9999 -9999 -9999 -9999 -9999 -9999 -9999 -9999 -9999 -9999 -9999 -9999 -9999 -9999 -9999 -9999 -9999 -9999 -9999 -9999 -9999 -9999 -9999 -9999 -9999 -9999 -9999 -9999 -9999 -9999 -9999 -9999 -9999 -9999 -9999 -9999 -9999 -9999 -9999 -9999 -9999 -9999 -9999 -9999 -9999 -9999 -9999 -9999 -9999 -9999 -9999 -9999 -9999 -9999 -9999 -9999 -9999 -9999 -9999 -9999 -9999 -9999 -9999 -9999 -9999 -9999 -9999 -9999 -9999 -9999 -9999 -9999 -9999 -9999 -9999 -9999 -9999 -9999 -9999 -9999 -9999 -9999 -9999 -9999 44.141 44.116 44.101 44.114 44.064 44.056 44.014 44.009 43.989 43.936 43.889 43.836 43.811 43.779 43.764 43.719 43.696 43.704 43.714 43.691 43.594 43.486 43.411 43.439 43.414 43.381 43.381 43.346 43.386 43.381 43.416 43.421 43.426 43.419 43.394 43.399 43.396 43.416 43.401 43.416 43.411 43.379 43.401 43.401 43.413 43.398 43.401 43.363 43.361 43.383 43.416 43.421 43.451 43.483 43.573 43.593 43.648 43.723 43.708 43.636 43.651 43.576 43.533 43.483 43.438 43.403 43.393 43.393 43.376 43.376 43.368 43.383 43.376 43.331 43.336 43.381 43.361 43.331 43.338 43.321 43.263 43.228 43.246 43.243 43.236 43.251 43.258 43.243 43.238 43.241 43.273 43.313 43.338 43.271 43.218 43.168 43.113 43.066 43.033 42.986 42.966 42.901 42.853 42.831 42.763 42.696 42.731 42.711 42.566 42.503 42.453 42.378 42.353 42.243 42.141 42.186 42.166 42.033 41.888 41.793 41.713 41.658 41.613 41.606 41.573 41.541 41.518 41.496 41.478 41.483 41.463 41.376 41.276 41.221 41.226 41.148 41.163 40.998 40.898 40.856 40.786 40.691 40.621 40.456 40.351 40.256 40.248 40.173 40.201 40.211 40.181 40.158 40.111 40.103 40.003 39.821 39.818 39.831 39.868 39.988 40.123 39.966 39.916 39.953 40.001 39.971 39.938 39.941 39.938 40.043 39.976 39.951 39.983 39.921 39.923 39.998 40.041 40.028 39.986 39.891 39.926 39.956 39.956 39.906 39.776 39.781 39.746 39.771 39.758 39.678 39.651 39.586 39.533 39.548 39.568 39.558 39.521 39.456 39.441 39.413 39.371 39.296 39.176 39.138 39.078 39.098 39.081 39.088 39.068 39.083 39.031 39.016 38.961 39.021 39.108 39.026 38.971 38.953 39.003 38.978 38.958 38.973 38.931 38.666 38.248 38.386 38.741 38.551 38.296 38.363 38.356 38.386 38.273 38.176 38.098 38.068 38.011 37.976 37.941 37.936 37.901 37.913 37.911 37.851 37.863 37.841 37.768 37.721 37.661 37.581 37.471 37.406 37.293 37.281 37.248 37.196 37.156 37.128 37.103 37.078 37.101 37.138 37.201 37.241 37.281 37.301 37.273 37.223 37.193 37.096 37.031
-9999 -9999 -9999 -9999 -9999 -9999 -9999 -9999 -9999 -9999 -9999 -9999 -9999 -9999 -9999 -9999 -9999 -9999 -9999 -9999 -9999 -9999 -9999 -9999 -9999 -9999 -9999 -9999 -9999 -9999 -9999 -9999 -9999 -9999 -9999 -9999 -9999 -9999 -9999 -9999 -9999 -9999 -9999 -9999 -9999 -9999 -9999 -9999 -9999 -9999 -9999 -9999 -9999 -9999 -9999 -9999 -9999 -9999 -9999 -9999 -9999 -9999 -9999 -9999 -9999 -9999 -9999 -9999 -9999 -9999 -9999 -9999 -9999 -9999 -9999 -9999 -9999 -9999 -9999 -9999 -9999 -9999 -9999 -9999 -9999 -9999 -9999 -9999 -9999 -9999 -9999 -9999 -9999 -9999 -9999 -9999 -9999 -9999 -9999 -9999 -9999 -9999 -9999 -9999 -9999 -9999 -9999 -9999 -9999 -9999 -9999 -9999 -9999 -9999 -9999 -9999 -9999 -9999 -9999 -9999 -9999 -9999 -9999 -9999 -9999 -9999 -9999 -9999 -9999 -9999 -9999 -9999 -9999 -9999 -9999 -9999 -9999 -9999 -9999 -9999 -9999 -9999 -9999 -9999 -9999 -9999 -9999 -9999 -9999 -9999 -9999 -9999 -9999 -9999 -9999 -9999 -9999 -9999 -9999 -9999 -9999 -9999 -9999 -9999 -9999 -9999 -9999 -9999 -9999 -9999 -9999 -9999 -9999 -9999 -9999 -9999 -9999 44.226 44.189 44.136 44.144 44.121 44.096 44.066 44.036 43.986 43.949 43.901 43.844 43.824 43.786 43.786 43.769 43.729 43.779 43.786 43.764 43.684 43.554 43.479 43.479 43.454 43.439 43.371 43.331 43.376 43.396 43.401 43.419 43.429 43.396 43.389 43.416 43.411 43.424 43.396 43.386 43.401 43.421 43.383 43.356 43.351 43.373 43.376 43.356 43.363 43.378 43.351 43.378 43.458 43.443 43.476 43.443 43.478 43.531 43.583 43.623 43.653 43.628 43.571 43.508 43.466 43.396 43.378 43.366 43.373 43.346 43.328 43.308 43.303 43.303 43.333 43.353 43.313 43.313 43.298 43.256 43.226 43.203 43.211 43.261 43.228 43.218 43.181 43.178 43.191 43.236 43.256 43.276 43.256 43.208 43.113 43.063 43.026 43.001 42.951 42.898 42.866 42.853 42.821 42.793 42.753 42.648 42.613 42.646 42.528 42.453 42.368 42.286 42.253 42.191 42.156 42.173 42.133 41.988 41.876 41.798 41.751 41.713 41.653 41.638 41.576 41.566 41.571 41.603 41.591 41.593 41.483 41.316 41.143 41.043 41.031 41.013 41.113 41.088 41.046 40.956 40.751 40.651 40.623 40.506 40.338 40.256 40.318 40.223 40.188 40.188 40.146 40.126 39.983 39.933 39.811 39.741 39.903 39.928 39.963 40.008 39.988 39.933 39.888 39.933 40.043 40.061 40.038 39.961 39.978 40.018 40.008 39.968 39.988 39.958 39.906 39.998 40.108 40.063 40.093 40.028 40.001 39.983 40.011 39.938 39.838 39.818 39.853 39.841 39.843 39.766 39.733 39.726 39.658 39.653 39.623 39.583 39.546 39.528 39.496 39.436 39.353 39.278 39.191 39.143 39.081 39.066 39.068 39.056 39.023 39.046 39.031 39.073 39.041 39.023 39.023 39.001 38.966 38.961 38.976 38.921 38.933 38.921 38.851 38.803 38.503 38.263 38.591 38.578 38.386 38.326 38.286 38.251 38.208 38.126 38.078 38.048 38.001 37.978 37.976 37.993 37.948 37.951 37.953 37.911 37.861 37.856 37.813 37.771 37.696 37.593 37.491 37.398 37.321 37.253 37.211 37.161 37.101 37.083 37.038 37.008 37.051 37.041 37.113 37.173 37.208 37.266 37.241 37.236 37.181 37.088 37.043
-9999 -9999 -9999 -9999 -9999 -9999 -9999 -9999 -9999 -9999 -9999 -9999 -9999 -9999 -9999 -9999 -9999 -9999 -9999 -9999 -9999 -9999 -9999 -9999 -9999 -9999 -9999 -9999 -9999 -9999 -9999 -9999 -9999 -9999 -9999 -9999 -9999 -9999 -9999 -9999 -9999 -9999 -9999 -9999 -9999 -9999 -9999 -9999 -9999 -9999 -9999 -9999 -9999 -9999 -9999 -9999 -9999 -9999 -9999 -9999 -9999 -9999 -9999 -9999 -9999 -9999 -9999 -9999 -9999 -9999 -9999 -9999 -9999 -9999 -9999 -9999 -9999 -9999 -9999 -9999 -9999 -9999 -9999 -9999 -9999 -9999 -9999 -9999 -9999 -9999 -9999 -9999 -9999 -9999 -9999 -9999 -9999 -9999 -9999 -9999 -9999 -9999 -9999 -9999 -9999 -9999 -9999 -9999 -9999 -9999 -9999 -9999 -9999 -9999 -9999 -9999 -9999 -9999 -9999 -9999 -9999 -9999 -9999 -9999 -9999 -9999 -9999 -9999 -9999 -9999 -9999 -9999 -9999 -9999 -9999 -9999 -9999 -9999 -9999 -9999 -9999 -9999 -9999 -9999 -9999 -9999 -9999 -9999 -9999 -9999 -9999 -9999 -9999 -9999 -9999 -9999 -9999 -9999 -9999 -9999 -9999 -9999 -9999 -9999 -9999 -9999 -9999 -9999 -9999 -9999 -9999 -9999 -9999 -9999 -9999 -9999 -9999 -9999 44.214 44.191 44.199 44.161 44.159 44.121 44.061 44.004 43.986 43.951 43.909 43.879 43.824 43.841 43.809 43.779 43.779 43.744 43.776 43.691 43.616 43.549 43.561 43.541 43.509 43.446 43.424 43.456 43.474 43.509 43.519 43.521 43.476 43.464 43.481 43.421 43.429 43.394 43.399 43.406 43.381 43.333 43.333 43.376 43.356 43.298 43.251 43.326 43.311 43.276 43.273 43.303 43.348 43.343 43.331 43.388 43.411 43.458 43.533 43.611 43.616 43.598 43.546 43.471 43.401 43.363 43.326 43.321 43.301 43.308 43.278 43.258 43.281 43.296 43.276 43.268 43.261 43.251 43.216 43.233 43.213 43.218 43.196 43.186 43.191 43.141 43.173 43.166 43.166 43.193 43.158 43.156 43.106 43.018 42.968 42.973 42.918 42.876 42.821 42.781 42.743 42.708 42.658 42.661 42.578 42.558 42.541 42.473 42.406 42.306 42.243 42.233 42.176 42.113 42.071 42.098 41.996 41.918 41.836 41.788 41.738 41.698 41.701 41.676 41.676 41.686 41.693 41.628 41.521 41.386 41.216 41.093 41.061 41.016 41.011 41.003 40.963 40.933 40.863 40.646 40.581 40.543 40.501 40.371 40.346 40.381 40.376 40.228 40.183 40.106 40.001 39.763 39.651 39.723 39.926 40.051 40.063 40.058 40.008 39.966 39.976 39.941 39.963 40.043 40.071 40.051 39.986 39.958 40.011 39.978 40.001 39.993 39.983 40.021 40.128 40.198 40.126 40.158 40.236 40.111 39.998 40.036 39.911 39.826 39.788 39.908 39.958 39.936 39.851 39.843 39.886 39.873 39.773 39.693 39.653 39.641 39.658 39.586 39.543 39.483 39.396 39.313 39.193 39.143 39.123 39.138 39.133 39.171 39.136 39.083 39.078 39.048 39.046 39.001 38.983 39.016 38.961 38.918 38.886 38.886 38.856 38.828 38.856 38.528 38.183 38.443 38.606 38.393 38.241 38.233 38.193 38.251 38.188 38.086 38.036 37.983 38.031 38.038 38.028 38.013 37.993 37.996 37.958 37.891 37.881 37.866 37.786 37.721 37.636 37.541 37.441 37.371 37.308 37.216 37.128 37.051 37.068 36.991 37.031 37.011 36.981 37.033 37.106 37.156 37.173 37.213 37.208 37.166 37.088 37.003
-9999 -9999 -9999 -9999 -9999 -9999 -9999 -9999 -9999 -9999 -9999 -9999 -9999 -9999 -9999 -9999 -9999 -9999 -9999 -9999 -9999 -9999 -9999 -9999 -9999 -9999 -9999 -9999 -9999 -9999 -9999 -9999 -9999 -9999 -9999 -9999 -9999 -9999 -9999 -9999 -9999 -9999 -9999 -9999 -9999 -9999 -9999 -9999 -9999 -9999 -9999 -9999 -9999 -9999 -9999 -9999 -9999 -9999 -9999 -9999 -9999 -9999 -9999 -9999 -9999 -9999 -9999 -9999 -9999 -9999 -9999 -9999 -9999 -9999 -9999 -9999 -9999 -9999 -9999 -9999 -9999 -9999 -9999 -9999 -9999 -9999 -9999 -9999 -9999 -9999 -9999 -9999 -9999 -9999 -9999 -9999 -9999 -9999 -9999 -9999 -9999 -9999 -9999 -9999 -9999 -9999 -9999 -9999 -9999 -9999 -9999 -9999 -9999 -9999 -9999 -9999 -9999 -9999 -9999 -9999 -9999 -9999 -9999 -9999 -9999 -9999 -9999 -9999 -9999 -9999 -9999 -9999 -9999 -9999 -9999 -9999 -9999 -9999 -9999 -9999 -9999 -9999 -9999 -9999 -9999 -9999 -9999 -9999 -9999 -9999 -9999 -9999 -9999 -9999 -9999 -9999 -9999 -9999 -9999 -9999 -9999 -9999 -9999 -9999 -9999 -9999 -9999 -9999 -9999 -9999 -9999 -9999 -9999 -9999 -9999 -9999 -9999 -9999 44.241 44.209 44.206 44.216 44.201 44.154 44.084 44.071 44.029 43.999 43.974 43.926 43.864 43.869 43.831 43.811 43.804 43.736 43.761 43.776 43.731 43.649 43.674 43.666 43.624 43.574 43.566 43.561 43.581 43.596 43.549 43.519 43.449 43.441 43.441 43.416 43.354 43.334 43.306 43.369 43.359 43.343 43.371 43.381 43.341 43.261 43.208 43.218 43.246 43.213 43.221 43.228 43.246 43.263 43.321 43.326 43.323 43.351 43.413 43.501 43.548 43.568 43.518 43.481 43.446 43.381 43.321 43.266 43.236 43.246 43.248 43.236 43.256 43.223 43.196 43.203 43.201 43.218 43.203 43.208 43.176 43.153 43.128 43.143 43.143 43.123 43.136 43.103 43.088 43.121 43.038 43.028 42.961 42.968 42.901 42.906 42.848 42.801 42.733 42.693 42.638 42.613 42.586 42.566 42.501 42.453 42.411 42.371 42.286 42.201 42.196 42.181 42.173 42.156 42.058 42.023 41.988 41.926 41.886 41.826 41.806 41.793 41.778 41.711 41.683 41.636 41.553 41.341 41.178 41.083 41.061 41.081 41.133 41.106 41.056 40.988 40.826 40.693 40.626 40.538 40.501 40.461 40.453 40.408 40.378 40.373 40.396 40.246 40.071 39.868 39.781 39.816 39.916 40.053 40.116 40.128 40.058 40.051 39.968 39.911 39.936 39.923 39.961 39.981 40.016 40.016 39.993 40.023 40.038 40.041 40.006 39.996 39.981 40.063 40.173 40.231 40.251 40.273 40.318 40.138 40.028 40.046 39.883 39.788 39.826 40.018 40.118 40.063 40.053 39.973 39.973 39.971 39.911 39.853 39.816 39.793 39.728 39.691 39.661 39.591 39.488 39.346 39.301 39.256 39.266 39.278 39.228 39.276 39.241 39.151 39.068 39.066 39.033 39.016 38.988 39.003 38.951 38.956 38.901 38.863 38.808 38.783 38.783 38.593 38.278 38.356 38.493 38.513 38.256 38.283 38.253 38.268 38.221 38.193 38.121 38.081 38.103 38.098 38.068 38.038 38.071 38.058 38.033 37.961 37.926 37.906 37.816 37.766 37.708 37.633 37.528 37.468 37.376 37.271 37.176 37.073 37.026 36.988 36.981 36.996 36.971 36.996 36.983 37.028 37.078 37.118 37.118 37.113 37.043 36.993
-9999 -9999 -9999 -9999 -9999 -9999 -9999 -9999 -9999 -9999 -9999 -9999 -9999 -9999 -9999 -9999 -9999 -9999 -9999 -9999 -9999 -9999 -9999 -9999 -9999 -9999 -9999 -9999 -9999 -9999 -9999 -9999 -9999 -9999 -9999 -9999 -9999 -9999 -9999 -9999 -9999 -9999 -9999 -9999 -9999 -9999 -9999 -9999 -9999 -9999 -9999 -9999 -9999 -9999 -9999 -9999 -9999 -9999 -9999 -9999 -9999 -9999 -9999 -9999 -9999 -9999 -9999 -9999 -9999 -9999 -9999 -9999 -9999 -9999 -9999 -9999 -9999 -9999 -9999 -9999 -9999 -9999 -9999 -9999 -9999 -9999 -9999 -9999 -9999 -9999 -9999 -9999 -9999 -9999 -9999 -9999 -9999 -9999 -9999 -9999 -9999 -9999 -9999 -9999 -9999 -9999 -9999 -9999 -9999 -9999 -9999 -9999 -9999 -9999 -9999 -9999 -9999 -9999 -9999 -9999 -9999 -9999 -9999 -9999 -9999 -9999 -9999 -9999 -9999 -9999 -9999 -9999 -9999 -9999 -9999 -9999 -9999 -9999 -9999 -9999 -9999 -9999 -9999 -9999 -9999 -9999 -9999 -9999 -9999 -9999 -9999 -9999 -9999 -9999 -9999 -9999 -9999 -9999 -9999 -9999 -9999 -9999 -9999 -9999 -9999 -9999 -9999 -9999 -9999 -9999 -9999 -9999 -9999 -9999 -9999 -9999 -9999 -9999 -9999 44.281 44.226 44.249 44.214 44.141 44.101 44.071 44.084 44.029 44.004 43.949 43.931 43.909 43.896 43.871 43.819 43.781 43.796 43.831 43.784 43.734 43.771 43.791 43.741 43.706 43.689 43.616 43.584 43.551 43.514 43.479 43.421 43.426 43.461 43.449 43.354 43.344 43.371 43.414 43.414 43.393 43.411 43.418 43.371 43.286 43.263 43.238 43.241 43.216 43.186 43.171 43.168 43.158 43.233 43.158 43.168 43.206 43.276 43.311 43.361 43.441 43.438 43.453 43.461 43.398 43.321 43.281 43.223 43.213 43.193 43.183 43.198 43.168 43.161 43.146 43.163 43.153 43.143 43.136 43.113 43.078 43.061 43.083 43.051 43.028 43.033 43.018 42.983 42.993 42.961 42.948 42.913 42.861 42.816 42.833 42.791 42.738 42.646 42.618 42.563 42.506 42.478 42.446 42.396 42.351 42.321 42.286 42.241 42.241 42.196 42.198 42.131 42.101 42.033 42.006 41.988 41.986 41.931 41.953 41.928 41.803 41.696 41.548 41.516 41.481 41.446 41.308 41.163 41.046 41.026 41.051 41.088 41.136 41.081 40.978 40.836 40.656 40.471 40.436 40.413 40.376 40.363 40.368 40.331 40.403 40.308 40.063 39.851 39.796 39.901 40.083 40.121 40.136 40.188 40.213 40.108 40.003 39.981 39.956 39.911 39.926 39.953 39.961 39.983 39.978 39.993 40.098 40.068 40.033 40.023 40.023 40.013 40.051 40.151 40.268 40.288 40.323 40.256 40.111 40.061 40.076 40.008 39.963 40.091 40.138 40.178 40.203 40.121 40.188 40.206 40.071 40.041 39.986 39.953 39.926 39.808 39.778 39.763 39.653 39.518 39.431 39.386 39.381 39.393 39.398 39.338 39.266 39.206 39.168 39.151 39.118 39.123 39.053 39.126 39.041 38.936 38.966 38.996 38.878 38.753 38.678 38.673 38.701 38.378 38.223 38.403 38.561 38.416 38.351 38.293 38.288 38.298 38.243 38.218 38.191 38.191 38.188 38.143 38.118 38.136 38.131 38.091 38.031 37.983 37.948 37.898 37.858 37.791 37.718 37.633 37.556 37.416 37.348 37.261 37.143 37.068 37.033 36.961 36.991 37.001 36.983 36.971 37.003 37.036 37.016 37.053 37.063 36.991 36.953
