ncols 429
nrows 31
xllcorner    426040
yllcorner    486420
cellsize     2
NODATA_value -9999
45.316 45.323 45.253 45.211 45.181 45.146 45.133 45.146 45.088 44.961 45.023 44.778 44.501 44.348 44.403 44.638 44.731 44.778 44.993 44.961 44.853 44.758 44.666 44.651 44.561 44.498 44.451 44.398 44.358 44.303 44.291 44.273 44.248 44.231 44.226 44.178 44.158 44.156 44.148 44.133 44.161 44.116 44.076 44.088 44.033 44.006 44.006 43.943 43.918 43.883 43.878 43.863 43.856 43.841 43.851 43.856 43.868 43.908 43.933 43.933 44.001 44.048 44.101 44.161 44.218 44.268 44.326 44.403 44.413 44.438 44.518 44.536 44.561 44.596 44.578 44.583 44.583 44.578 44.581 44.571 44.541 44.486 44.476 44.463 44.456 44.433 44.433 44.418 44.363 44.278 44.301 44.346 44.311 44.308 44.238 44.156 44.038 43.931 43.981 44.091 44.203 44.336 44.368 44.331 44.328 44.328 44.328 44.436 44.406 44.311 44.253 44.341 44.633 44.653 44.626 44.596 44.546 44.511 44.538 44.563 44.566 44.553 44.543 44.561 44.563 44.591 44.563 44.588 44.588 44.561 44.566 44.611 44.581 44.511 44.528 44.523 44.483 44.488 44.476 44.511 44.526 44.513 44.491 44.418 44.398 44.413 44.448 44.456 44.481 44.483 44.433 44.403 44.391 44.351 44.373 44.376 44.416 44.398 44.378 44.331 44.313 44.296 44.326 44.381 44.373 44.353 44.343 44.318 44.346 44.346 44.388 44.411 44.381 44.388 44.376 44.343 44.283 44.306 44.301 44.316 44.331 44.358 44.386 44.381 44.383 44.388 44.371 44.333 44.301 44.321 44.328 44.328 44.346 44.326 44.316 44.303 44.266 44.213 44.198 44.183 44.163 44.141 44.138 44.163 44.143 44.086 44.088 44.038 44.028 43.996 43.958 43.873 43.911 43.951 43.951 44.011 44.038 44.038 44.028 44.051 43.993 43.831 43.716 43.696 43.733 43.646 43.628 43.638 43.593 43.541 43.591 43.553 43.471 43.463 43.473 43.503 43.333 43.241 43.196 43.208 43.193 43.213 43.186 43.201 43.246 43.271 43.288 43.241 43.191 43.166 43.156 43.268 43.236 43.161 43.061 43.026 43.013 42.998 42.991 43.013 43.046 43.063 43.013 42.986 43.043 42.993 42.951 43.066 43.103 43.136 43.156 43.186 43.166 43.208 43.256 43.298 43.371 43.416 43.443 43.476 43.473 43.486 43.526 43.541 43.563 43.611 43.616 43.626 43.638 43.661 43.671 43.711 43.731 43.738 43.738 43.713 43.648 43.628 43.628 43.721 43.816 43.946 44.053 44.061 43.891 43.701 43.488 43.401 43.301 43.193 43.253 43.251 43.258 43.208 43.306 43.433 43.558 43.643 43.471 43.233 43.173 43.168 43.128 43.056 43.018 43.038 43.008 42.998 42.978 42.916 42.846 42.801 42.768 42.713 42.696 42.658 42.606 42.603 42.636 42.633 42.536 42.568 42.576 42.563 42.551 42.538 42.463 42.408 42.336 42.221 42.141 42.116 42.056 42.046 42.036 42.016 42.013 41.941 41.841 41.706 41.596 41.643 41.516 41.373 41.381 41.408 41.436 41.386 41.236 41.001 40.858 40.718 40.576 40.348 40.316 40.296 40.466 40.561 40.626 40.611 40.711 40.796 40.898 40.846 40.696 40.573 40.496 40.373 40.253 40.181 40.123 40.081 40.036 40.008 39.948 39.848 39.771 39.718 39.646 39.628 39.616 39.618 39.613 39.606 39.598 39.593 39.586 39.578 39.573 39.566 39.558 39.536 39.563 39.501 39.471 39.336 39.271 39.306 39.296 39.291 39.288 39.281 39.271 39.256 39.253 39.326 39.306 39.238 39.183
45.291 45.256 45.193 45.126 45.088 45.078 45.048 45.041 45.023 45.036 45.083 45.058 45.018 44.806 44.428 44.246 44.228 44.433 44.563 44.663 44.863 44.718 44.788 44.758 44.688 44.628 44.576 44.513 44.441 44.381 44.333 44.281 44.248 44.213 44.238 44.213 44.166 44.166 44.163 44.136 44.156 44.121 44.086 44.071 44.006 43.998 44.001 43.983 43.933 43.918 43.878 43.853 43.838 43.856 43.821 43.823 43.821 43.851 43.861 43.873 43.908 43.991 43.998 44.091 44.158 44.176 44.241 44.288 44.301 44.376 44.431 44.451 44.513 44.531 44.526 44.558 44.553 44.531 44.541 44.538 44.536 44.521 44.473 44.458 44.448 44.423 44.408 44.348 44.343 44.396 44.421 44.323 44.283 44.198 44.176 44.108 44.041 43.836 43.926 44.041 44.203 44.318 44.306 44.301 44.298 44.316 44.333 44.431 44.478 44.406 44.303 44.263 44.396 44.576 44.613 44.613 44.561 44.531 44.496 44.506 44.546 44.546 44.536 44.526 44.518 44.531 44.476 44.486 44.498 44.478 44.523 44.533 44.541 44.551 44.523 44.498 44.491 44.526 44.523 44.488 44.453 44.448 44.506 44.491 44.468 44.448 44.391 44.388 44.428 44.446 44.468 44.478 44.416 44.373 44.328 44.356 44.373 44.386 44.393 44.381 44.363 44.306 44.288 44.268 44.286 44.298 44.316 44.361 44.358 44.348 44.318 44.343 44.336 44.358 44.393 44.368 44.328 44.321 44.283 44.263 44.236 44.268 44.286 44.341 44.351 44.381 44.358 44.316 44.321 44.321 44.296 44.286 44.281 44.293 44.291 44.296 44.258 44.243 44.226 44.193 44.171 44.156 44.098 44.071 44.038 44.023 43.996 43.968 43.963 43.963 43.891 43.866 43.901 43.953 43.931 43.998 44.048 44.071 44.126 44.121 44.016 43.848 43.698 43.673 43.701 43.626 43.598 43.618 43.578 43.533 43.551 43.566 43.433 43.436 43.471 43.468 43.366 43.241 43.183 43.213 43.216 43.193 43.166 43.171 43.218 43.253 43.266 43.198 43.156 43.108 43.098 43.116 43.256 43.183 43.096 43.006 42.998 42.981 42.986 43.058 43.078 43.023 42.983 42.901 42.881 42.881 42.881 42.981 43.038 43.031 43.101 43.186 43.216 43.238 43.261 43.316 43.328 43.356 43.373 43.371 43.378 43.451 43.478 43.511 43.518 43.578 43.608 43.613 43.636 43.631 43.648 43.706 43.716 43.716 43.698 43.693 43.636 43.631 43.606 43.778 43.828 43.921 43.981 43.991 43.851 43.658 43.461 43.358 43.246 43.196 43.223 43.173 43.151 43.116 43.151 43.281 43.418 43.423 43.281 43.131 43.083 43.073 43.078 42.986 42.938 42.983 42.978 42.928 42.916 42.858 42.811 42.758 42.686 42.673 42.623 42.568 42.543 42.516 42.488 42.481 42.446 42.506 42.516 42.521 42.513 42.496 42.426 42.356 42.223 42.076 42.086 42.096 42.091 42.056 42.016 41.981 41.966 41.916 41.793 41.661 41.571 41.528 41.411 41.301 41.351 41.398 41.428 41.341 41.181 40.888 40.638 40.751 40.616 40.351 40.278 40.323 40.503 40.658 40.703 40.596 40.721 40.843 40.953 40.921 40.761 40.611 40.516 40.428 40.283 40.193 40.111 40.066 40.026 40.033 39.971 39.881 39.773 39.676 39.636 39.606 39.608 39.618 39.641 39.648 39.656 39.648 39.643 39.636 39.628 39.623 39.608 39.596 39.636 39.521 39.388 39.276 39.273 39.293 39.291 39.286 39.281 39.278 39.266 39.256 39.273 39.321 39.278 39.206 39.203
45.296 45.236 45.151 45.098 45.068 45.033 44.988 44.991 44.971 44.971 44.951 44.966 44.943 45.001 44.971 44.871 44.581 44.328 44.383 44.121 44.226 44.238 44.391 44.486 44.658 44.736 44.676 44.641 44.568 44.511 44.463 44.393 44.308 44.268 44.226 44.213 44.173 44.198 44.193 44.156 44.096 44.081 44.061 44.036 44.038 44.011 44.001 43.948 43.936 43.921 43.931 43.896 43.853 43.828 43.828 43.821 43.823 43.831 43.823 43.853 43.881 43.903 43.948 43.971 44.066 44.093 44.148 44.201 44.246 44.281 44.321 44.373 44.413 44.448 44.473 44.493 44.503 44.483 44.496 44.508 44.506 44.476 44.476 44.438 44.408 44.398 44.401 44.428 44.473 44.368 44.258 44.248 44.201 44.123 44.091 44.013 43.978 43.888 43.913 44.111 44.231 44.298 44.233 44.246 44.263 44.261 44.336 44.416 44.611 44.643 44.411 44.296 44.276 44.386 44.496 44.546 44.601 44.556 44.546 44.501 44.461 44.496 44.503 44.493 44.496 44.466 44.453 44.448 44.433 44.438 44.468 44.503 44.506 44.516 44.546 44.556 44.516 44.491 44.498 44.516 44.516 44.463 44.443 44.471 44.496 44.501 44.466 44.441 44.416 44.368 44.368 44.413 44.426 44.403 44.391 44.368 44.351 44.358 44.336 44.351 44.363 44.363 44.338 44.316 44.293 44.253 44.261 44.253 44.321 44.338 44.326 44.338 44.328 44.303 44.326 44.316 44.306 44.308 44.303 44.338 44.311 44.283 44.268 44.256 44.261 44.278 44.271 44.288 44.313 44.321 44.333 44.321 44.323 44.288 44.268 44.238 44.211 44.201 44.196 44.196 44.201 44.183 44.143 44.111 44.068 44.041 43.978 43.951 43.923 43.911 43.853 43.818 43.926 43.923 43.888 43.986 44.013 44.001 44.133 44.113 44.038 43.843 43.681 43.646 43.656 43.646 43.563 43.568 43.563 43.556 43.531 43.536 43.466 43.441 43.456 43.451 43.418 43.243 43.203 43.226 43.221 43.171 43.171 43.173 43.211 43.241 43.256 43.243 43.143 43.111 43.068 43.036 43.073 43.208 43.081 43.006 42.986 42.981 42.961 43.051 43.086 42.958 42.863 42.813 42.823 42.838 42.866 42.923 42.963 43.006 43.078 43.151 43.201 43.261 43.258 43.311 43.353 43.386 43.408 43.431 43.428 43.428 43.428 43.478 43.501 43.546 43.568 43.606 43.651 43.633 43.658 43.683 43.698 43.716 43.741 43.653 43.631 43.611 43.598 43.598 43.716 43.901 43.908 43.901 43.743 43.541 43.361 43.273 43.188 43.128 43.128 43.093 43.076 43.076 43.053 43.163 43.221 43.191 43.106 43.041 43.016 43.001 42.998 42.968 42.941 42.941 42.928 42.891 42.863 42.806 42.758 42.711 42.661 42.623 42.581 42.486 42.456 42.451 42.393 42.393 42.388 42.431 42.516 42.533 42.503 42.421 42.356 42.261 42.111 42.041 42.093 42.141 42.161 42.096 42.068 41.993 41.958 41.873 41.766 41.673 41.608 41.508 41.358 41.371 41.391 41.428 41.423 41.326 41.136 40.926 40.818 40.821 40.656 40.348 40.271 40.343 40.533 40.721 40.748 40.588 40.663 40.808 40.948 40.996 40.811 40.623 40.521 40.426 40.306 40.216 40.136 40.083 40.051 40.001 39.968 39.908 39.776 39.701 39.631 39.603 39.561 39.476 39.561 39.631 39.663 39.668 39.681 39.693 39.686 39.678 39.661 39.681 39.648 39.523 39.408 39.306 39.276 39.286 39.283 39.281 39.276 39.271 39.266 39.253 39.288 39.311 39.251 39.191 39.168
45.248 45.218 45.151 45.091 45.038 44.981 44.941 44.911 44.893 44.891 44.901 44.933 44.906 44.936 44.953 44.916 44.961 44.991 44.908 44.716 44.393 44.146 44.008 43.986 44.123 44.298 44.308 44.441 44.616 44.633 44.621 44.546 44.461 44.388 44.303 44.271 44.211 44.181 44.163 44.133 44.088 44.056 44.048 44.013 44.018 43.973 44.001 43.961 43.941 43.891 43.893 43.878 43.841 43.828 43.836 43.823 43.803 43.818 43.818 43.821 43.851 43.866 43.878 43.908 43.966 44.001 44.036 44.083 44.131 44.203 44.231 44.273 44.336 44.378 44.398 44.426 44.443 44.433 44.393 44.406 44.428 44.423 44.433 44.391 44.393 44.451 44.511 44.461 44.406 44.268 44.188 44.168 44.111 44.041 44.011 43.923 43.891 43.836 43.858 44.011 44.158 44.226 44.228 44.236 44.248 44.253 44.276 44.296 44.616 44.811 44.613 44.376 44.243 44.241 44.356 44.356 44.561 44.621 44.546 44.483 44.458 44.443 44.433 44.458 44.486 44.463 44.418 44.401 44.376 44.401 44.393 44.423 44.471 44.468 44.461 44.481 44.498 44.531 44.523 44.471 44.496 44.471 44.466 44.471 44.473 44.438 44.443 44.461 44.418 44.413 44.381 44.368 44.363 44.361 44.363 44.366 44.396 44.383 44.338 44.313 44.308 44.323 44.286 44.288 44.306 44.278 44.261 44.233 44.226 44.243 44.251 44.293 44.326 44.318 44.333 44.318 44.268 44.253 44.241 44.281 44.281 44.318 44.311 44.306 44.296 44.248 44.216 44.203 44.223 44.231 44.261 44.256 44.276 44.276 44.298 44.288 44.263 44.236 44.173 44.148 44.143 44.128 44.101 44.076 44.068 44.061 44.038 43.991 43.946 43.931 43.846 43.851 43.881 43.858 43.883 43.978 43.963 43.918 44.023 44.066 43.948 43.793 43.658 43.621 43.623 43.611 43.556 43.521 43.511 43.508 43.498 43.481 43.438 43.423 43.456 43.466 43.418 43.236 43.216 43.231 43.216 43.201 43.173 43.158 43.191 43.236 43.243 43.216 43.151 43.101 43.051 42.978 42.983 43.011 42.991 42.991 43.016 43.046 42.971 42.966 43.131 43.011 42.803 42.796 42.821 42.816 42.831 42.896 42.896 42.958 43.028 43.106 43.146 43.178 43.196 43.218 43.271 43.308 43.358 43.413 43.431 43.428 43.468 43.511 43.548 43.568 43.606 43.673 43.753 43.721 43.646 43.678 43.711 43.741 43.763 43.701 43.663 43.618 43.586 43.531 43.681 43.898 43.891 43.861 43.683 43.496 43.346 43.251 43.143 43.021 43.028 43.008 43.008 42.996 43.011 43.068 43.108 43.078 43.066 43.001 42.953 42.911 42.916 42.913 42.913 42.891 42.896 42.878 42.796 42.743 42.693 42.628 42.578 42.581 42.533 42.471 42.423 42.381 42.366 42.356 42.351 42.421 42.471 42.451 42.391 42.351 42.268 42.231 42.156 42.076 42.071 42.158 42.271 42.161 42.013 41.903 41.866 41.776 41.746 41.651 41.538 41.436 41.296 41.323 41.391 41.431 41.331 41.233 41.088 40.948 40.843 40.758 40.701 40.433 40.298 40.293 40.538 40.703 40.658 40.593 40.676 40.771 40.886 40.968 40.798 40.616 40.493 40.428 40.351 40.246 40.183 40.093 40.071 40.006 39.951 39.886 39.771 39.681 39.623 39.586 39.578 39.511 39.486 39.513 39.586 39.651 39.681 39.693 39.701 39.713 39.673 39.648 39.613 39.516 39.413 39.308 39.256 39.276 39.281 39.273 39.271 39.266 39.261 39.253 39.293 39.301 39.226 39.196 39.088
45.253 45.158 45.131 45.093 45.023 44.976 44.928 44.918 44.883 44.876 44.866 44.898 44.836 44.881 44.888 44.828 44.861 44.921 44.926 44.971 44.943 44.781 44.606 44.101 43.866 43.846 43.826 44.001 44.343 44.441 44.608 44.656 44.606 44.533 44.453 44.381 44.293 44.228 44.196 44.136 44.086 44.043 44.021 43.988 44.011 43.951 43.923 43.928 43.891 43.873 43.861 43.853 43.826 43.831 43.823 43.828 43.803 43.806 43.786 43.831 43.823 43.798 43.823 43.848 43.863 43.903 43.948 43.988 44.043 44.091 44.146 44.178 44.221 44.248 44.291 44.333 44.353 44.358 44.376 44.378 44.376 44.368 44.351 44.373 44.451 44.501 44.466 44.331 44.191 44.123 44.093 44.036 43.998 43.853 43.811 43.801 43.811 43.826 43.843 43.998 44.101 44.116 44.178 44.193 44.188 44.226 44.278 44.293 44.426 44.658 44.691 44.531 44.363 44.268 44.313 44.328 44.341 44.548 44.561 44.541 44.471 44.431 44.383 44.401 44.391 44.408 44.418 44.368 44.341 44.383 44.423 44.378 44.353 44.406 44.443 44.461 44.483 44.471 44.496 44.528 44.531 44.486 44.453 44.493 44.498 44.456 44.446 44.463 44.423 44.438 44.456 44.431 44.391 44.346 44.323 44.301 44.331 44.356 44.373 44.371 44.326 44.301 44.276 44.238 44.228 44.276 44.256 44.241 44.266 44.231 44.196 44.213 44.211 44.228 44.271 44.286 44.256 44.238 44.236 44.228 44.228 44.246 44.251 44.286 44.313 44.278 44.253 44.258 44.221 44.221 44.196 44.191 44.201 44.193 44.218 44.231 44.238 44.241 44.196 44.201 44.168 44.151 44.108 44.063 44.036 43.986 43.958 43.941 43.923 43.906 43.846 43.881 43.891 43.863 43.861 43.923 43.976 43.891 43.933 43.976 43.903 43.781 43.641 43.593 43.596 43.556 43.491 43.526 43.503 43.496 43.486 43.478 43.453 43.398 43.436 43.463 43.401 43.288 43.241 43.258 43.238 43.241 43.208 43.183 43.203 43.231 43.216 43.191 43.121 43.081 43.046 42.986 42.943 42.943 42.946 42.951 42.971 42.951 42.896 42.893 43.006 43.011 42.846 42.763 42.811 42.806 42.838 42.841 42.866 42.901 42.948 43.001 43.031 43.068 43.093 43.103 43.151 43.208 43.263 43.276 43.346 43.413 43.443 43.483 43.531 43.576 43.608 43.736 43.693 43.658 43.638 43.653 43.683 43.713 43.753 43.708 43.626 43.598 43.646 43.548 43.641 43.856 43.911 43.761 43.613 43.453 43.313 43.203 43.068 42.981 42.948 42.923 42.886 42.918 42.951 43.021 43.036 43.033 43.023 42.943 42.868 42.856 42.853 42.861 42.843 42.846 42.893 42.863 42.758 42.663 42.616 42.558 42.526 42.538 42.543 42.443 42.401 42.368 42.316 42.338 42.366 42.401 42.388 42.373 42.363 42.293 42.231 42.268 42.206 42.136 42.071 42.043 42.078 42.116 42.073 41.981 41.856 41.708 41.718 41.663 41.543 41.393 41.321 41.201 41.193 41.138 41.121 41.163 41.041 40.956 40.851 40.668 40.588 40.418 40.301 40.288 40.461 40.601 40.633 40.668 40.753 40.878 40.931 40.891 40.726 40.566 40.486 40.436 40.371 40.256 40.176 40.093 40.041 39.973 39.908 39.856 39.753 39.658 39.601 39.596 39.563 39.536 39.546 39.543 39.543 39.568 39.621 39.683 39.653 39.583 39.566 39.528 39.498 39.471 39.391 39.308 39.251 39.248 39.263 39.278 39.273 39.263 39.256 39.261 39.258 39.233 39.193 39.166 39.086
45.276 45.196 45.131 45.068 45.003 44.943 44.906 44.911 44.876 44.843 44.843 44.873 44.848 44.841 44.821 44.813 44.823 44.846 44.876 44.906 44.933 44.961 44.978 44.941 44.733 44.483 44.171 43.918 43.968 43.938 44.208 44.326 44.388 44.521 44.541 44.518 44.438 44.341 44.291 44.216 44.123 44.073 44.023 43.968 43.948 43.933 43.941 43.871 43.851 43.848 43.841 43.801 43.786 43.768 43.768 43.778 43.783 43.798 43.788 43.781 43.823 43.813 43.796 43.796 43.801 43.851 43.878 43.916 43.931 43.951 44.028 44.071 44.101 44.168 44.206 44.236 44.263 44.253 44.298 44.316 44.283 44.286 44.358 44.471 44.508 44.468 44.338 44.178 44.066 44.018 43.956 43.893 43.813 43.731 43.666 43.716 43.733 43.766 43.756 43.868 44.003 44.091 44.171 44.201 44.218 44.273 44.251 44.258 44.326 44.383 44.451 44.546 44.508 44.303 44.286 44.308 44.326 44.311 44.428 44.578 44.511 44.458 44.393 44.346 44.336 44.333 44.316 44.343 44.381 44.348 44.326 44.391 44.391 44.376 44.363 44.408 44.471 44.481 44.491 44.498 44.531 44.551 44.498 44.463 44.471 44.458 44.488 44.493 44.443 44.418 44.436 44.458 44.406 44.411 44.356 44.333 44.301 44.303 44.311 44.306 44.303 44.318 44.328 44.291 44.223 44.188 44.193 44.183 44.238 44.241 44.253 44.248 44.201 44.188 44.158 44.161 44.156 44.173 44.203 44.241 44.258 44.253 44.221 44.208 44.193 44.213 44.221 44.246 44.253 44.261 44.253 44.208 44.216 44.173 44.151 44.093 44.121 44.118 44.128 44.158 44.141 44.151 44.121 44.106 44.083 44.041 43.996 43.931 43.918 43.816 43.823 43.886 43.848 43.838 43.791 43.868 43.908 43.873 43.903 43.906 43.836 43.718 43.591 43.543 43.568 43.558 43.483 43.488 43.483 43.468 43.441 43.461 43.441 43.393 43.441 43.458 43.446 43.311 43.248 43.233 43.243 43.258 43.251 43.241 43.243 43.221 43.246 43.241 43.158 43.066 43.036 42.981 42.948 42.933 42.966 42.931 42.901 42.806 42.721 42.736 42.843 42.901 42.858 42.768 42.778 42.763 42.758 42.778 42.818 42.873 42.913 42.928 42.966 42.986 43.046 43.061 43.103 43.096 43.138 43.186 43.238 43.313 43.376 43.436 43.506 43.563 43.618 43.648 43.691 43.626 43.636 43.663 43.688 43.718 43.736 43.653 43.603 43.538 43.601 43.573 43.633 43.836 43.923 43.633 43.466 43.358 43.261 43.161 43.041 42.968 42.916 42.878 42.861 42.861 42.921 42.981 42.983 42.956 42.933 42.881 42.816 42.791 42.786 42.813 42.793 42.826 42.866 42.871 42.751 42.636 42.588 42.493 42.491 42.496 42.538 42.471 42.373 42.331 42.308 42.333 42.361 42.348 42.321 42.291 42.318 42.348 42.356 42.306 42.246 42.171 42.068 41.966 41.926 42.136 42.041 41.916 41.908 41.756 41.628 41.588 41.421 41.358 41.308 41.198 41.101 41.083 41.096 41.096 41.053 41.121 41.001 40.783 40.671 40.403 40.308 40.253 40.308 40.541 40.703 40.733 40.828 40.978 41.066 40.906 40.668 40.516 40.463 40.421 40.376 40.296 40.151 40.083 40.018 39.968 39.878 39.833 39.753 39.678 39.651 39.618 39.553 39.536 39.536 39.553 39.561 39.573 39.576 39.561 39.531 39.506 39.486 39.426 39.423 39.416 39.363 39.308 39.276 39.246 39.233 39.226 39.251 39.276 39.246 39.226 39.193 39.183 39.163 39.156 39.141
45.266 45.188 45.148 45.131 45.033 45.018 44.966 44.926 44.888 44.868 44.886 44.871 44.836 44.828 44.791 44.806 44.848 44.833 44.853 44.868 44.873 44.878 44.918 44.951 45.011 44.993 44.731 44.366 44.296 44.003 43.821 43.826 43.871 44.023 44.131 44.271 44.341 44.391 44.403 44.331 44.231 44.161 44.106 44.006 43.941 43.926 43.893 43.848 43.823 43.771 43.703 43.678 43.716 43.731 43.713 43.703 43.738 43.766 43.801 43.778 43.768 43.756 43.763 43.761 43.748 43.791 43.788 43.841 43.826 43.823 43.926 43.948 44.016 44.063 44.081 44.113 44.156 44.181 44.173 44.191 44.231 44.351 44.461 44.411 44.361 44.293 44.168 44.041 43.943 43.901 43.836 43.713 43.651 43.566 43.546 43.628 43.653 43.658 43.671 43.766 43.913 44.001 44.093 44.186 44.243 44.303 44.268 44.271 44.343 44.361 44.351 44.456 44.511 44.463 44.298 44.283 44.338 44.306 44.273 44.486 44.531 44.498 44.406 44.313 44.293 44.271 44.243 44.248 44.296 44.328 44.328 44.326 44.368 44.386 44.396 44.376 44.393 44.426 44.476 44.506 44.481 44.493 44.506 44.516 44.548 44.501 44.476 44.476 44.451 44.471 44.428 44.418 44.401 44.401 44.383 44.403 44.361 44.363 44.326 44.283 44.263 44.246 44.261 44.273 44.238 44.253 44.211 44.178 44.176 44.176 44.186 44.211 44.213 44.216 44.208 44.183 44.121 44.108 44.098 44.153 44.151 44.191 44.201 44.228 44.208 44.221 44.208 44.183 44.198 44.173 44.208 44.231 44.218 44.221 44.178 44.158 44.138 44.121 44.083 44.066 44.051 44.038 44.028 44.046 44.053 44.038 44.016 43.981 43.871 43.771 43.796 43.853 43.836 43.808 43.791 43.858 43.876 43.836 43.833 43.833 43.766 43.656 43.543 43.508 43.493 43.551 43.471 43.476 43.493 43.468 43.443 43.431 43.428 43.408 43.441 43.463 43.426 43.331 43.233 43.216 43.216 43.218 43.261 43.301 43.341 43.313 43.316 43.273 43.181 43.091 43.043 43.003 42.931 42.838 42.911 42.953 42.913 42.863 42.818 42.778 42.818 42.783 42.743 42.733 42.728 42.723 42.728 42.748 42.776 42.821 42.861 42.878 42.931 42.946 42.978 43.001 43.008 43.033 43.061 43.126 43.188 43.236 43.311 43.366 43.461 43.536 43.598 43.656 43.656 43.593 43.653 43.703 43.751 43.793 43.801 43.671 43.588 43.568 43.608 43.623 43.683 43.828 43.868 43.576 43.343 43.328 43.266 43.133 43.063 42.901 42.893 42.866 42.833 42.846 42.888 42.936 42.941 42.911 42.893 42.841 42.776 42.701 42.713 42.731 42.766 42.806 42.846 42.861 42.751 42.581 42.506 42.456 42.448 42.461 42.488 42.478 42.371 42.318 42.326 42.378 42.343 42.266 42.243 42.256 42.276 42.298 42.351 42.346 42.276 42.216 42.123 42.043 41.981 42.003 41.868 41.888 41.928 41.776 41.601 41.513 41.473 41.396 41.301 41.191 41.141 41.143 41.173 41.178 41.248 41.131 41.006 40.796 40.688 40.493 40.333 40.281 40.258 40.361 40.553 40.728 40.833 40.918 41.018 40.921 40.703 40.498 40.493 40.436 40.371 40.278 40.196 40.088 39.961 39.906 39.858 39.793 39.706 39.686 39.663 39.651 39.568 39.516 39.528 39.548 39.528 39.493 39.486 39.468 39.431 39.391 39.361 39.361 39.361 39.341 39.318 39.283 39.251 39.226 39.201 39.181 39.183 39.166 39.163 39.161 39.166 39.156 39.116 39.121 39.101
45.273 45.166 45.133 45.098 45.033 45.013 44.978 44.941 44.918 44.898 44.896 44.873 44.863 44.858 44.823 44.818 44.848 44.868 44.868 44.821 44.813 44.798 44.843 44.843 44.856 44.923 44.878 44.771 44.703 44.526 44.291 44.136 44.108 43.966 43.753 43.768 43.746 43.908 44.111 44.336 44.346 44.308 44.193 44.086 44.038 43.941 43.891 43.826 43.796 43.741 43.681 43.688 43.703 43.726 43.701 43.708 43.706 43.756 43.746 43.758 43.748 43.703 43.731 43.728 43.721 43.741 43.703 43.711 43.718 43.733 43.783 43.841 43.878 43.958 44.001 44.036 44.038 44.093 44.096 44.156 44.283 44.343 44.313 44.298 44.251 44.136 44.031 43.951 43.851 43.803 43.736 43.618 43.526 43.473 43.463 43.478 43.541 43.556 43.558 43.641 43.743 43.848 43.953 44.146 44.233 44.316 44.371 44.353 44.341 44.353 44.361 44.378 44.408 44.403 44.363 44.241 44.291 44.261 44.258 44.261 44.403 44.491 44.443 44.348 44.306 44.248 44.218 44.223 44.211 44.231 44.288 44.333 44.308 44.346 44.393 44.426 44.441 44.401 44.403 44.436 44.503 44.511 44.506 44.483 44.521 44.538 44.538 44.506 44.473 44.438 44.451 44.441 44.456 44.411 44.363 44.371 44.331 44.376 44.368 44.343 44.301 44.251 44.231 44.186 44.151 44.191 44.193 44.213 44.226 44.196 44.166 44.123 44.133 44.158 44.173 44.151 44.163 44.118 44.121 44.128 44.093 44.093 44.128 44.138 44.191 44.198 44.216 44.173 44.178 44.171 44.146 44.123 44.126 44.158 44.166 44.188 44.173 44.163 44.151 44.111 44.081 44.031 43.993 43.983 43.948 43.961 43.958 43.938 43.818 43.721 43.791 43.846 43.798 43.798 43.756 43.831 43.876 43.756 43.756 43.786 43.731 43.633 43.536 43.486 43.488 43.511 43.418 43.481 43.451 43.413 43.403 43.401 43.421 43.413 43.421 43.468 43.413 43.321 43.221 43.191 43.221 43.253 43.261 43.298 43.396 43.431 43.403 43.301 43.206 43.113 43.071 43.001 42.843 42.723 42.793 42.948 42.968 42.953 43.013 42.956 42.816 42.706 42.693 42.628 42.646 42.686 42.688 42.718 42.743 42.778 42.806 42.843 42.878 42.908 42.923 42.928 42.948 42.986 43.051 43.106 43.151 43.196 43.223 43.326 43.398 43.498 43.563 43.601 43.596 43.601 43.643 43.688 43.736 43.786 43.796 43.696 43.616 43.571 43.613 43.633 43.683 43.673 43.603 43.486 43.346 43.308 43.243 43.086 43.021 42.916 42.858 42.838 42.828 42.821 42.851 42.918 42.928 42.916 42.888 42.783 42.696 42.671 42.688 42.703 42.743 42.786 42.826 42.853 42.711 42.541 42.471 42.411 42.438 42.468 42.471 42.421 42.393 42.381 42.358 42.328 42.261 42.236 42.271 42.271 42.256 42.266 42.268 42.311 42.258 42.246 42.041 42.053 42.013 41.946 41.993 42.021 41.978 41.751 41.538 41.468 41.436 41.378 41.303 41.258 41.223 41.236 41.266 41.251 41.193 40.996 40.941 40.776 40.581 40.431 40.326 40.333 40.276 40.263 40.331 40.453 40.558 40.606 40.646 40.691 40.616 40.546 40.496 40.413 40.383 40.258 40.168 40.031 39.968 39.881 39.833 39.793 39.763 39.723 39.691 39.643 39.583 39.531 39.518 39.498 39.481 39.441 39.418 39.386 39.376 39.333 39.298 39.281 39.271 39.276 39.273 39.256 39.226 39.208 39.186 39.176 39.143 39.141 39.126 39.133 39.118 39.113 39.078 39.053 39.066
45.261 45.193 45.138 45.086 45.018 45.013 44.993 44.958 44.903 44.921 44.896 44.903 44.893 44.881 44.861 44.851 44.871 44.876 44.866 44.786 44.768 44.791 44.833 44.868 44.878 44.878 44.813 44.763 44.726 44.671 44.621 44.563 44.468 44.328 44.133 43.911 43.603 43.508 43.646 43.973 44.131 44.203 44.183 44.151 44.106 44.013 43.931 43.876 43.798 43.776 43.706 43.696 43.691 43.706 43.701 43.701 43.721 43.696 43.696 43.716 43.723 43.681 43.711 43.683 43.656 43.676 43.611 43.626 43.613 43.606 43.671 43.741 43.783 43.871 43.901 43.958 43.931 43.963 44.086 44.213 44.273 44.196 44.083 44.108 44.061 44.008 43.961 43.921 43.823 43.763 43.656 43.576 43.491 43.401 43.403 43.376 43.403 43.403 43.416 43.496 43.598 43.721 43.876 43.973 44.138 44.248 44.268 44.313 44.336 44.366 44.353 44.351 44.356 44.381 44.351 44.353 44.253 44.226 44.276 44.246 44.178 44.378 44.448 44.411 44.328 44.258 44.228 44.213 44.181 44.183 44.206 44.263 44.313 44.326 44.351 44.378 44.448 44.436 44.413 44.411 44.418 44.463 44.513 44.548 44.508 44.478 44.508 44.538 44.546 44.506 44.471 44.441 44.466 44.438 44.428 44.396 44.356 44.311 44.316 44.326 44.333 44.338 44.278 44.201 44.156 44.091 44.121 44.131 44.158 44.188 44.196 44.176 44.151 44.121 44.118 44.093 44.096 44.073 44.111 44.126 44.088 44.091 44.113 44.063 44.076 44.081 44.106 44.103 44.136 44.148 44.146 44.131 44.148 44.126 44.131 44.121 44.113 44.093 44.093 44.113 44.118 44.081 44.058 44.036 44.016 43.956 43.933 43.923 43.786 43.711 43.783 43.766 43.708 43.666 43.691 43.758 43.808 43.726 43.731 43.736 43.711 43.613 43.468 43.441 43.443 43.463 43.393 43.406 43.436 43.386 43.386 43.406 43.403 43.421 43.401 43.433 43.411 43.293 43.236 43.188 43.203 43.216 43.231 43.263 43.431 43.551 43.398 43.286 43.243 43.148 43.076 42.981 42.746 42.718 42.808 42.896 42.898 42.853 42.883 42.866 42.768 42.658 42.641 42.633 42.646 42.643 42.663 42.676 42.718 42.766 42.821 42.816 42.841 42.861 42.853 42.861 42.908 42.936 43.016 43.033 43.086 43.116 43.171 43.253 43.346 43.451 43.523 43.571 43.608 43.568 43.613 43.671 43.723 43.771 43.766 43.688 43.676 43.611 43.578 43.613 43.591 43.588 43.486 43.423 43.391 43.316 43.216 43.076 42.951 42.928 42.841 42.833 42.811 42.813 42.846 42.871 42.896 42.878 42.878 42.786 42.706 42.678 42.623 42.656 42.703 42.733 42.763 42.746 42.588 42.508 42.458 42.381 42.413 42.391 42.468 42.398 42.413 42.431 42.366 42.288 42.273 42.271 42.291 42.288 42.276 42.241 42.241 42.251 42.181 42.153 42.071 42.081 42.008 41.938 42.036 42.148 41.988 41.753 41.553 41.483 41.408 41.356 41.318 41.361 41.378 41.301 41.358 41.311 41.198 41.088 41.068 40.851 40.601 40.376 40.341 40.341 40.301 40.261 40.243 40.221 40.323 40.341 40.328 40.398 40.418 40.411 40.373 40.308 40.246 40.166 40.123 40.056 39.988 39.941 39.883 39.828 39.798 39.743 39.703 39.678 39.626 39.583 39.546 39.518 39.468 39.443 39.376 39.376 39.361 39.321 39.308 39.258 39.243 39.221 39.191 39.148 39.163 39.166 39.158 39.166 39.138 39.118 39.118 39.106 39.103 39.068 39.008 39.061 39.076
45.243 45.201 45.141 45.106 45.048 45.041 45.008 44.996 44.958 44.951 44.928 44.933 44.961 44.941 44.923 44.911 44.926 44.913 44.888 44.851 44.826 44.868 44.911 44.928 44.888 44.841 44.798 44.756 44.738 44.703 44.656 44.636 44.581 44.491 44.428 44.361 44.151 44.006 43.928 43.641 43.631 43.663 43.746 43.731 43.806 43.921 44.011 43.973 43.886 43.808 43.776 43.746 43.743 43.718 43.683 43.693 43.683 43.681 43.658 43.668 43.683 43.661 43.646 43.638 43.628 43.596 43.553 43.541 43.573 43.558 43.621 43.681 43.731 43.746 43.798 43.836 43.843 43.973 44.098 44.131 44.061 43.951 43.933 43.938 43.891 43.873 43.893 43.831 43.788 43.638 43.583 43.493 43.463 43.403 43.363 43.336 43.336 43.338 43.331 43.366 43.511 43.616 43.768 43.923 44.053 44.096 44.211 44.218 44.256 44.293 44.363 44.353 44.348 44.393 44.376 44.361 44.288 44.203 44.221 44.261 44.121 44.153 44.313 44.403 44.386 44.283 44.213 44.183 44.171 44.173 44.171 44.186 44.253 44.326 44.351 44.341 44.348 44.401 44.431 44.471 44.443 44.428 44.438 44.478 44.516 44.533 44.516 44.523 44.523 44.541 44.548 44.523 44.478 44.451 44.423 44.421 44.411 44.356 44.341 44.288 44.276 44.261 44.266 44.253 44.198 44.143 44.131 44.116 44.081 44.086 44.083 44.091 44.108 44.146 44.126 44.113 44.046 44.026 44.053 44.046 44.046 44.073 44.081 44.108 44.101 44.086 44.063 44.066 44.026 44.013 44.043 44.071 44.116 44.128 44.148 44.116 44.118 44.066 44.068 44.046 44.051 44.036 44.018 44.016 44.003 43.996 43.961 43.888 43.701 43.698 43.778 43.766 43.696 43.678 43.663 43.728 43.778 43.696 43.673 43.708 43.681 43.588 43.436 43.408 43.433 43.441 43.361 43.356 43.381 43.341 43.376 43.393 43.373 43.393 43.391 43.421 43.408 43.288 43.216 43.171 43.181 43.231 43.211 43.206 43.316 43.421 43.358 43.303 43.246 43.173 43.101 42.986 42.703 42.746 42.791 42.853 42.806 42.763 42.698 42.723 42.688 42.623 42.631 42.628 42.611 42.621 42.656 42.721 42.773 42.798 42.813 42.783 42.773 42.801 42.788 42.806 42.851 42.901 42.926 42.963 43.043 43.078 43.143 43.211 43.286 43.413 43.513 43.548 43.566 43.528 43.563 43.631 43.696 43.753 43.743 43.746 43.686 43.611 43.583 43.503 43.593 43.546 43.458 43.423 43.346 43.283 43.201 43.051 42.941 42.903 42.803 42.821 42.793 42.821 42.823 42.848 42.861 42.878 42.878 42.788 42.688 42.651 42.628 42.638 42.631 42.621 42.621 42.583 42.538 42.496 42.441 42.381 42.351 42.371 42.463 42.431 42.471 42.553 42.423 42.311 42.313 42.308 42.323 42.313 42.298 42.256 42.233 42.278 42.206 42.148 42.153 42.103 42.016 41.948 41.968 42.058 41.873 41.673 41.558 41.548 41.376 41.318 41.378 41.396 41.316 41.266 41.346 41.273 41.173 41.093 40.978 40.803 40.588 40.401 40.333 40.348 40.281 40.268 40.248 40.236 40.258 40.323 40.321 40.353 40.358 40.321 40.276 40.226 40.161 40.113 40.076 40.056 40.028 39.981 39.923 39.866 39.823 39.768 39.713 39.683 39.641 39.596 39.566 39.496 39.461 39.471 39.441 39.396 39.381 39.338 39.276 39.266 39.228 39.191 39.163 39.108 39.123 39.123 39.113 39.126 39.133 39.153 39.131 39.111 39.098 39.128 39.093 39.081 39.038
45.248 45.173 45.141 45.106 45.053 45.021 45.033 45.013 45.001 45.008 44.981 44.978 45.001 44.988 44.946 44.958 44.946 44.941 44.906 44.906 44.921 44.983 44.958 44.843 44.768 44.738 44.701 44.741 44.766 44.728 44.668 44.626 44.568 44.521 44.473 44.406 44.361 44.288 44.181 43.936 43.833 43.598 43.508 43.478 43.166 43.321 43.681 43.868 43.896 43.896 43.866 43.823 43.773 43.731 43.686 43.663 43.658 43.643 43.613 43.606 43.611 43.601 43.561 43.568 43.566 43.541 43.508 43.516 43.521 43.548 43.583 43.636 43.666 43.666 43.696 43.761 43.846 43.908 43.958 43.943 43.803 43.761 43.776 43.768 43.746 43.721 43.733 43.708 43.658 43.568 43.481 43.396 43.358 43.293 43.258 43.263 43.256 43.253 43.276 43.306 43.373 43.541 43.663 43.818 43.888 44.036 44.146 44.176 44.191 44.228 44.288 44.288 44.361 44.373 44.401 44.361 44.348 44.216 44.176 44.186 44.148 44.086 44.093 44.281 44.368 44.336 44.256 44.143 44.126 44.121 44.113 44.161 44.188 44.206 44.286 44.338 44.341 44.368 44.378 44.428 44.476 44.486 44.466 44.468 44.463 44.493 44.533 44.558 44.503 44.523 44.518 44.508 44.493 44.483 44.481 44.433 44.391 44.376 44.356 44.318 44.288 44.226 44.193 44.181 44.156 44.143 44.141 44.158 44.106 44.066 44.043 44.023 44.001 44.046 44.053 44.058 44.058 44.063 44.046 44.033 44.001 44.003 44.033 44.041 44.063 44.106 44.098 44.088 44.056 44.043 43.991 44.023 44.028 44.041 44.031 44.063 44.081 44.073 44.066 44.058 44.051 44.018 43.998 43.976 43.973 43.891 43.891 43.816 43.663 43.728 43.788 43.768 43.736 43.728 43.731 43.756 43.761 43.666 43.661 43.686 43.623 43.531 43.393 43.373 43.376 43.401 43.391 43.348 43.373 43.333 43.341 43.376 43.393 43.386 43.388 43.433 43.418 43.293 43.233 43.196 43.198 43.193 43.216 43.208 43.261 43.313 43.311 43.328 43.256 43.166 43.111 42.973 42.706 42.711 42.768 42.788 42.771 42.678 42.628 42.603 42.566 42.548 42.591 42.608 42.601 42.611 42.661 42.726 42.798 42.801 42.801 42.771 42.768 42.741 42.758 42.738 42.746 42.778 42.846 42.881 42.958 43.033 43.071 43.148 43.261 43.388 43.443 43.486 43.518 43.518 43.581 43.638 43.696 43.731 43.746 43.721 43.711 43.701 43.676 43.641 43.648 43.481 43.421 43.448 43.358 43.263 43.178 43.023 42.948 42.898 42.808 42.791 42.778 42.776 42.793 42.811 42.886 42.896 42.881 42.801 42.693 42.616 42.616 42.616 42.628 42.601 42.611 42.611 42.573 42.478 42.433 42.396 42.358 42.436 42.448 42.451 42.463 42.503 42.431 42.338 42.341 42.343 42.356 42.356 42.321 42.301 42.283 42.301 42.191 42.173 42.111 42.061 42.013 41.948 41.921 41.823 41.646 41.493 41.501 41.551 41.396 41.331 41.376 41.318 41.226 41.173 41.196 41.181 41.161 41.001 40.866 40.686 40.511 40.341 40.326 40.306 40.301 40.261 40.226 40.258 40.293 40.386 40.386 40.351 40.346 40.323 40.276 40.216 40.138 40.093 40.071 40.036 39.983 39.941 39.901 39.861 39.846 39.806 39.766 39.736 39.681 39.646 39.588 39.583 39.556 39.513 39.461 39.451 39.443 39.393 39.288 39.271 39.236 39.213 39.141 39.131 39.123 39.113 39.086 39.118 39.133 39.121 39.128 39.123 39.148 39.146 39.076 39.013 38.948
45.231 45.163 45.116 45.073 45.058 45.058 45.031 45.013 45.028 45.056 45.023 45.046 45.028 45.016 44.986 45.003 45.021 44.946 44.918 44.913 44.953 44.976 44.888 44.768 44.718 44.688 44.718 44.748 44.721 44.688 44.643 44.601 44.578 44.511 44.406 44.373 44.308 44.271 44.226 44.168 44.111 44.061 43.951 43.961 43.786 43.478 43.273 43.378 43.558 43.693 43.763 43.803 43.816 43.768 43.753 43.731 43.716 43.668 43.661 43.643 43.573 43.546 43.528 43.513 43.501 43.498 43.508 43.498 43.471 43.546 43.551 43.583 43.591 43.588 43.651 43.731 43.786 43.793 43.791 43.711 43.631 43.616 43.618 43.603 43.583 43.563 43.561 43.521 43.501 43.421 43.346 43.263 43.228 43.123 43.101 43.098 43.141 43.151 43.156 43.191 43.251 43.356 43.531 43.713 43.763 43.848 43.981 44.043 44.128 44.176 44.231 44.216 44.288 44.341 44.386 44.358 44.313 44.308 44.153 44.133 44.116 44.096 44.073 44.106 44.253 44.306 44.273 44.186 44.113 44.083 44.091 44.131 44.168 44.146 44.193 44.253 44.356 44.388 44.386 44.391 44.411 44.483 44.536 44.561 44.491 44.501 44.503 44.481 44.486 44.543 44.553 44.498 44.486 44.488 44.478 44.473 44.428 44.431 44.371 44.323 44.301 44.256 44.223 44.191 44.133 44.111 44.071 44.093 44.103 44.056 44.078 44.026 44.013 44.013 43.978 43.946 43.953 43.983 44.011 44.003 44.001 44.016 44.013 44.021 44.013 44.013 44.023 44.033 44.031 44.073 44.068 44.068 44.046 44.056 44.013 44.003 44.003 43.988 43.986 44.008 44.031 43.998 43.981 44.008 43.991 43.928 43.886 43.796 43.696 43.756 43.766 43.713 43.698 43.673 43.668 43.686 43.703 43.638 43.611 43.643 43.561 43.471 43.368 43.341 43.343 43.358 43.371 43.303 43.358 43.316 43.343 43.366 43.393 43.391 43.381 43.378 43.376 43.258 43.243 43.223 43.231 43.221 43.201 43.193 43.228 43.298 43.351 43.348 43.261 43.143 43.131 43.031 42.781 42.713 42.743 42.768 42.763 42.676 42.591 42.533 42.523 42.503 42.551 42.576 42.593 42.631 42.681 42.753 42.793 42.796 42.761 42.763 42.741 42.721 42.696 42.688 42.713 42.703 42.768 42.823 42.891 42.941 43.018 43.108 43.223 43.318 43.373 43.443 43.453 43.561 43.608 43.636 43.661 43.698 43.706 43.691 43.701 43.701 43.691 43.706 43.736 43.556 43.473 43.448 43.373 43.261 43.143 43.033 42.928 42.863 42.813 42.778 42.806 42.781 42.793 42.821 42.956 43.068 43.013 42.871 42.741 42.663 42.611 42.623 42.641 42.628 42.598 42.621 42.623 42.556 42.466 42.406 42.436 42.433 42.443 42.423 42.421 42.416 42.403 42.343 42.351 42.366 42.378 42.386 42.301 42.311 42.316 42.233 42.158 42.131 42.096 42.033 41.963 41.913 41.858 41.776 41.683 41.583 41.496 41.513 41.428 41.401 41.353 41.251 41.168 41.128 41.078 41.148 41.158 40.978 40.763 40.556 40.421 40.336 40.311 40.303 40.296 40.256 40.253 40.321 40.381 40.483 40.513 40.476 40.463 40.458 40.446 40.293 40.181 40.121 40.081 40.021 39.953 39.916 39.833 39.816 39.818 39.791 39.773 39.766 39.773 39.693 39.696 39.628 39.578 39.531 39.471 39.498 39.468 39.436 39.403 39.381 39.321 39.303 39.213 39.183 39.106 39.093 39.061 39.088 39.086 39.123 39.126 39.178 39.168 39.136 38.986 38.906 38.811
45.218 45.193 45.143 45.098 45.101 45.096 45.073 45.061 45.066 45.098 45.066 45.063 45.066 45.028 45.006 45.006 44.966 44.946 44.938 44.978 44.991 44.861 44.863 44.778 44.733 44.696 44.708 44.708 44.711 44.651 44.648 44.561 44.503 44.458 44.428 44.356 44.296 44.243 44.171 44.126 44.113 44.073 44.068 44.026 43.976 43.951 43.663 43.401 43.231 43.296 43.371 43.411 43.546 43.693 43.743 43.713 43.691 43.723 43.731 43.656 43.626 43.578 43.543 43.528 43.491 43.456 43.478 43.493 43.488 43.488 43.493 43.526 43.523 43.561 43.658 43.663 43.606 43.538 43.571 43.513 43.518 43.458 43.446 43.451 43.453 43.418 43.383 43.373 43.351 43.303 43.226 43.163 43.106 43.003 42.976 42.933 42.958 42.998 43.016 43.046 43.148 43.163 43.328 43.466 43.516 43.668 43.786 43.833 43.918 44.021 44.096 44.086 44.196 44.298 44.308 44.301 44.283 44.253 44.196 44.066 44.051 44.048 44.048 44.091 44.121 44.263 44.298 44.238 44.201 44.096 44.098 44.126 44.108 44.128 44.166 44.206 44.243 44.336 44.398 44.438 44.403 44.438 44.491 44.536 44.538 44.551 44.558 44.523 44.496 44.516 44.513 44.503 44.536 44.508 44.468 44.463 44.441 44.391 44.406 44.358 44.303 44.258 44.206 44.176 44.128 44.101 44.081 44.076 44.021 43.988 44.011 44.008 44.033 44.036 43.991 43.956 43.893 43.893 43.903 43.896 43.916 43.966 44.001 44.028 44.036 44.011 43.993 43.961 43.976 43.968 44.006 44.018 44.013 44.063 44.078 44.068 44.053 44.013 43.998 43.968 43.931 43.893 43.908 43.903 43.908 43.881 43.826 43.703 43.678 43.768 43.738 43.703 43.693 43.633 43.601 43.626 43.673 43.596 43.586 43.598 43.536 43.446 43.343 43.311 43.316 43.346 43.348 43.303 43.341 43.296 43.323 43.378 43.383 43.376 43.373 43.376 43.348 43.261 43.236 43.221 43.211 43.216 43.203 43.196 43.213 43.311 43.341 43.318 43.208 43.156 43.111 43.056 42.896 42.796 42.743 42.783 42.813 42.718 42.641 42.591 42.551 42.503 42.498 42.538 42.548 42.681 42.783 42.818 42.861 42.841 42.776 42.731 42.693 42.653 42.671 42.658 42.656 42.688 42.726 42.761 42.806 42.853 42.943 43.076 43.233 43.341 43.373 43.428 43.466 43.526 43.556 43.591 43.628 43.663 43.676 43.661 43.661 43.661 43.656 43.633 43.606 43.578 43.491 43.468 43.336 43.238 43.146 43.026 42.918 42.848 42.786 42.781 42.843 42.848 42.886 42.941 43.066 43.198 43.161 42.996 42.818 42.716 42.661 42.663 42.648 42.618 42.641 42.628 42.641 42.591 42.538 42.503 42.476 42.423 42.393 42.396 42.381 42.421 42.366 42.318 42.328 42.288 42.311 42.268 42.201 42.241 42.236 42.201 42.098 42.101 42.141 42.083 41.933 41.816 41.783 41.721 41.638 41.581 41.528 41.408 41.386 41.376 41.338 41.278 41.116 41.083 41.108 41.128 41.111 40.956 40.776 40.468 40.383 40.356 40.276 40.271 40.278 40.248 40.253 40.373 40.496 40.578 40.581 40.573 40.606 40.641 40.723 40.731 40.558 40.243 40.053 40.003 39.926 39.903 39.831 39.796 39.816 39.788 39.776 39.841 39.851 39.766 39.666 39.603 39.603 39.551 39.503 39.531 39.493 39.481 39.468 39.428 39.366 39.318 39.268 39.258 39.176 39.126 39.081 39.056 39.051 39.103 39.156 39.226 39.181 39.071 38.958 38.866 38.798
45.196 45.188 45.178 45.121 45.096 45.106 45.101 45.098 45.118 45.126 45.086 45.093 45.056 45.043 45.001 45.006 44.971 44.958 45.043 45.023 44.981 44.848 44.813 44.758 44.713 44.678 44.676 44.676 44.666 44.661 44.598 44.548 44.498 44.438 44.413 44.328 44.231 44.211 44.176 44.103 44.083 44.036 44.056 44.053 44.016 44.008 43.991 43.953 43.763 43.548 43.396 43.111 43.068 43.278 43.333 43.398 43.443 43.576 43.681 43.693 43.673 43.633 43.603 43.551 43.523 43.441 43.451 43.446 43.426 43.433 43.453 43.493 43.551 43.611 43.621 43.533 43.436 43.403 43.436 43.393 43.393 43.386 43.323 43.316 43.321 43.261 43.256 43.241 43.173 43.163 43.138 43.068 43.011 42.928 42.898 42.846 42.813 42.843 42.881 42.911 42.933 42.951 43.063 43.181 43.261 43.351 43.468 43.536 43.648 43.761 43.846 43.978 43.993 44.081 44.108 44.128 44.123 44.201 44.188 43.978 43.948 44.008 44.036 44.063 44.038 44.103 44.203 44.221 44.243 44.186 44.103 44.093 44.118 44.101 44.136 44.193 44.218 44.218 44.321 44.363 44.446 44.468 44.468 44.488 44.506 44.538 44.596 44.586 44.526 44.556 44.511 44.501 44.486 44.508 44.506 44.508 44.461 44.401 44.383 44.368 44.313 44.326 44.278 44.221 44.118 44.081 44.091 44.051 44.058 44.001 43.956 43.946 43.963 43.946 43.973 43.966 43.956 43.948 43.888 43.871 43.881 43.893 43.903 43.936 43.938 43.948 43.981 43.953 43.968 43.948 43.941 43.961 43.956 43.986 43.976 43.978 44.011 44.016 44.016 44.011 43.986 43.953 43.918 43.898 43.853 43.828 43.783 43.683 43.676 43.733 43.718 43.676 43.651 43.618 43.608 43.623 43.656 43.598 43.558 43.586 43.516 43.473 43.348 43.313 43.306 43.323 43.316 43.256 43.341 43.326 43.318 43.341 43.393 43.373 43.358 43.366 43.353 43.286 43.246 43.213 43.208 43.238 43.236 43.213 43.268 43.346 43.333 43.288 43.213 43.141 43.116 43.113 42.991 42.878 42.788 42.813 42.818 42.791 42.816 42.806 42.703 42.566 42.511 42.523 42.576 42.653 42.703 42.798 42.863 42.818 42.721 42.658 42.656 42.646 42.636 42.658 42.636 42.673 42.696 42.693 42.743 42.811 42.911 43.083 43.251 43.326 43.356 43.413 43.488 43.516 43.521 43.553 43.591 43.633 43.636 43.621 43.621 43.621 43.616 43.611 43.578 43.506 43.508 43.458 43.321 43.206 43.106 43.008 42.926 42.868 42.803 42.806 42.878 42.918 43.001 43.058 43.186 43.223 43.156 42.998 42.861 42.761 42.676 42.683 42.698 42.676 42.648 42.683 42.701 42.631 42.591 42.521 42.408 42.348 42.363 42.363 42.348 42.378 42.391 42.333 42.298 42.223 42.231 42.268 42.181 42.138 42.233 42.251 42.086 42.131 42.123 42.053 41.856 41.668 41.686 41.656 41.606 41.568 41.516 41.403 41.316 41.361 41.343 41.288 41.161 41.143 41.141 41.151 41.103 40.888 40.626 40.448 40.388 40.333 40.261 40.241 40.238 40.243 40.373 40.543 40.676 40.728 40.653 40.643 40.698 40.743 40.833 40.916 41.051 40.878 40.231 39.996 39.933 39.906 39.853 39.766 39.776 39.763 39.803 39.818 39.776 39.686 39.608 39.616 39.631 39.601 39.546 39.558 39.521 39.453 39.436 39.426 39.356 39.306 39.293 39.248 39.213 39.198 39.213 39.156 39.048 39.041 39.088 39.193 39.166 39.041 38.948 38.888 38.828
45.193 45.188 45.191 45.148 45.111 45.131 45.141 45.133 45.128 45.138 45.103 45.063 45.031 45.028 45.028 45.018 45.026 45.043 45.053 45.023 44.923 44.866 44.803 44.723 44.678 44.658 44.661 44.653 44.621 44.606 44.588 44.543 44.481 44.431 44.356 44.278 44.253 44.183 44.138 44.091 44.051 44.016 43.986 43.991 44.001 44.018 44.018 44.013 44.041 43.998 43.996 43.906 43.613 43.338 43.166 43.063 43.101 43.143 43.216 43.241 43.263 43.313 43.436 43.583 43.603 43.541 43.471 43.433 43.383 43.421 43.476 43.581 43.636 43.548 43.496 43.446 43.411 43.401 43.416 43.426 43.381 43.383 43.331 43.343 43.308 43.238 43.241 43.248 43.173 43.126 43.111 43.053 42.991 42.933 42.858 42.806 42.756 42.748 42.756 42.751 42.756 42.788 42.858 42.886 42.958 43.006 43.123 43.158 43.308 43.378 43.478 43.573 43.606 43.768 43.801 43.826 43.843 43.931 44.028 43.878 43.821 43.911 43.931 43.976 43.971 44.006 44.078 44.133 44.198 44.166 44.146 44.071 44.058 44.098 44.096 44.143 44.168 44.241 44.258 44.296 44.373 44.453 44.476 44.496 44.486 44.488 44.531 44.581 44.571 44.601 44.591 44.558 44.496 44.478 44.456 44.466 44.461 44.456 44.398 44.346 44.318 44.266 44.276 44.223 44.168 44.098 44.048 44.018 44.001 43.988 43.976 43.971 43.986 43.928 43.901 43.878 43.891 43.883 43.903 43.891 43.911 43.918 43.888 43.876 43.873 43.881 43.878 43.891 43.921 43.928 43.938 43.971 44.001 43.996 44.003 43.963 43.916 43.951 43.943 43.936 43.956 43.963 43.963 43.936 43.898 43.851 43.763 43.638 43.663 43.693 43.653 43.591 43.548 43.528 43.506 43.576 43.636 43.571 43.553 43.576 43.536 43.433 43.281 43.263 43.283 43.296 43.336 43.261 43.323 43.298 43.318 43.321 43.351 43.396 43.348 43.348 43.338 43.313 43.251 43.236 43.231 43.281 43.278 43.288 43.321 43.346 43.318 43.296 43.243 43.201 43.166 43.183 43.051 42.863 42.803 42.813 42.858 42.876 42.956 42.881 42.798 42.626 42.593 42.566 42.588 42.611 42.648 42.696 42.716 42.708 42.683 42.648 42.606 42.623 42.598 42.613 42.626 42.626 42.633 42.636 42.646 42.736 42.841 43.071 43.258 43.346 43.348 43.371 43.453 43.523 43.501 43.521 43.556 43.601 43.606 43.586 43.583 43.581 43.576 43.571 43.561 43.536 43.511 43.446 43.341 43.241 43.136 42.993 42.916 42.878 42.786 42.823 42.881 42.886 43.071 43.178 43.223 43.213 43.146 42.951 42.881 42.798 42.731 42.713 42.731 42.676 42.703 42.741 42.721 42.653 42.578 42.446 42.338 42.303 42.336 42.328 42.323 42.306 42.283 42.258 42.268 42.281 42.243 42.283 42.183 42.081 42.201 42.268 42.101 42.081 42.028 41.958 41.758 41.646 41.581 41.578 41.566 41.528 41.498 41.393 41.368 41.353 41.323 41.253 41.226 41.306 41.296 41.228 41.038 40.761 40.536 40.463 40.401 40.268 40.233 40.213 40.216 40.208 40.346 40.538 40.641 40.688 40.703 40.663 40.741 40.798 40.871 40.968 41.051 41.123 40.611 39.983 39.933 39.903 39.836 39.746 39.741 39.751 39.763 39.766 39.696 39.618 39.621 39.631 39.646 39.648 39.596 39.576 39.556 39.486 39.418 39.386 39.391 39.331 39.331 39.273 39.258 39.238 39.236 39.181 39.096 39.033 39.028 39.116 39.166 39.033 38.993 38.943 38.873
45.183 45.196 45.206 45.168 45.158 45.171 45.196 45.168 45.148 45.151 45.091 45.068 45.046 45.041 45.028 45.031 45.108 45.126 44.978 44.933 44.926 44.863 44.763 44.728 44.703 44.641 44.638 44.608 44.553 44.523 44.476 44.438 44.401 44.386 44.338 44.261 44.211 44.173 44.113 44.061 44.021 44.026 44.038 43.976 43.991 43.998 43.976 44.028 44.038 44.033 44.048 44.008 43.971 43.873 43.763 43.633 43.638 43.563 43.513 43.431 43.116 42.903 42.893 43.161 43.501 43.481 43.506 43.466 43.463 43.463 43.503 43.591 43.621 43.476 43.386 43.328 43.323 43.373 43.376 43.348 43.343 43.391 43.313 43.333 43.291 43.261 43.213 43.223 43.213 43.136 43.108 43.073 43.021 42.931 42.843 42.816 42.773 42.748 42.691 42.706 42.688 42.673 42.658 42.671 42.701 42.703 42.788 42.856 42.908 42.958 43.086 43.136 43.148 43.246 43.346 43.421 43.453 43.501 43.678 43.743 43.696 43.743 43.788 43.896 43.943 43.956 43.991 44.041 44.083 44.123 44.146 44.151 44.101 44.048 44.066 44.123 44.158 44.196 44.251 44.268 44.283 44.356 44.411 44.501 44.513 44.528 44.513 44.513 44.531 44.551 44.591 44.613 44.573 44.543 44.491 44.428 44.376 44.396 44.381 44.393 44.366 44.278 44.216 44.176 44.128 44.111 44.078 44.021 43.978 43.953 43.926 43.923 43.941 43.938 43.936 43.903 43.858 43.836 43.821 43.828 43.858 43.863 43.898 43.908 43.913 43.878 43.868 43.858 43.848 43.851 43.851 43.911 43.933 43.963 43.963 43.976 43.953 43.958 43.948 43.918 43.906 43.881 43.893 43.871 43.841 43.816 43.696 43.603 43.683 43.713 43.678 43.648 43.603 43.546 43.563 43.593 43.656 43.568 43.546 43.543 43.518 43.461 43.271 43.238 43.258 43.256 43.291 43.258 43.313 43.321 43.386 43.378 43.356 43.416 43.378 43.326 43.321 43.338 43.311 43.251 43.251 43.268 43.301 43.348 43.328 43.316 43.331 43.341 43.303 43.266 43.191 43.208 43.116 42.926 42.841 42.846 42.868 42.948 43.006 42.921 42.833 42.731 42.663 42.601 42.548 42.548 42.566 42.603 42.648 42.631 42.643 42.641 42.611 42.583 42.576 42.563 42.563 42.583 42.573 42.571 42.586 42.636 42.741 42.973 43.206 43.313 43.296 43.338 43.383 43.478 43.516 43.488 43.521 43.568 43.566 43.551 43.546 43.541 43.528 43.506 43.483 43.493 43.501 43.431 43.346 43.198 43.098 42.988 42.923 42.868 42.793 42.841 42.868 42.881 43.036 43.211 43.281 43.233 43.103 42.908 42.878 42.811 42.763 42.728 42.738 42.706 42.746 42.751 42.676 42.601 42.496 42.393 42.341 42.368 42.366 42.338 42.313 42.268 42.218 42.266 42.246 42.268 42.263 42.288 42.253 42.196 42.118 42.078 42.033 41.933 41.851 41.803 41.713 41.683 41.621 41.538 41.516 41.476 41.483 41.446 41.371 41.336 41.278 41.238 41.213 41.428 41.423 41.251 41.028 40.673 40.543 40.468 40.366 40.276 40.216 40.211 40.188 40.171 40.311 40.453 40.528 40.643 40.683 40.723 40.781 40.866 40.888 41.008 41.043 41.086 40.613 40.043 39.943 39.866 39.821 39.766 39.723 39.706 39.713 39.701 39.626 39.623 39.636 39.648 39.661 39.673 39.646 39.606 39.591 39.523 39.456 39.426 39.438 39.393 39.321 39.278 39.296 39.236 39.211 39.183 39.133 39.096 39.028 39.023 39.058 39.073 39.003 38.951 38.916
45.253 45.216 45.201 45.188 45.191 45.193 45.193 45.176 45.136 45.126 45.103 45.106 45.078 45.083 45.083 45.113 45.091 45.048 44.968 44.931 44.861 44.798 44.746 44.731 44.676 44.641 44.631 44.583 44.518 44.476 44.411 44.328 44.336 44.316 44.291 44.243 44.201 44.151 44.101 44.033 44.001 44.033 44.053 43.988 43.991 43.996 43.956 43.998 44.028 44.021 44.028 44.068 44.098 44.101 44.083 44.048 43.991 44.003 43.946 43.903 43.588 43.316 43.138 42.941 42.996 42.958 43.231 43.431 43.581 43.531 43.526 43.551 43.496 43.393 43.278 43.308 43.323 43.323 43.298 43.303 43.301 43.296 43.246 43.241 43.221 43.176 43.131 43.146 43.136 43.116 43.118 43.073 43.041 42.943 42.873 42.851 42.818 42.768 42.731 42.743 42.703 42.651 42.611 42.631 42.623 42.638 42.641 42.676 42.651 42.668 42.713 42.726 42.821 42.851 42.868 42.933 42.971 43.048 43.236 43.398 43.418 43.526 43.646 43.813 43.881 43.941 43.988 43.968 43.996 44.083 44.118 44.136 44.161 44.141 44.063 44.098 44.148 44.133 44.183 44.243 44.291 44.311 44.338 44.398 44.466 44.516 44.546 44.548 44.528 44.521 44.513 44.553 44.566 44.558 44.533 44.496 44.468 44.376 44.328 44.311 44.286 44.243 44.236 44.173 44.131 44.093 44.036 44.016 43.973 43.953 43.916 43.921 43.903 43.881 43.828 43.836 43.826 43.818 43.841 43.811 43.821 43.803 43.833 43.838 43.876 43.856 43.836 43.888 43.883 43.888 43.843 43.846 43.856 43.858 43.873 43.898 43.898 43.908 43.913 43.953 43.943 43.926 43.908 43.893 43.866 43.788 43.613 43.568 43.691 43.656 43.613 43.598 43.583 43.538 43.581 43.593 43.646 43.561 43.533 43.571 43.568 43.501 43.313 43.238 43.226 43.253 43.286 43.226 43.296 43.368 43.373 43.371 43.326 43.381 43.368 43.288 43.293 43.346 43.306 43.238 43.233 43.266 43.298 43.311 43.293 43.283 43.348 43.353 43.328 43.298 43.196 43.231 43.203 43.053 42.906 42.878 42.911 42.978 42.971 42.898 42.851 42.751 42.708 42.613 42.533 42.563 42.588 42.558 42.578 42.568 42.646 42.618 42.588 42.571 42.578 42.578 42.573 42.566 42.573 42.571 42.583 42.603 42.636 42.781 43.211 43.281 43.306 43.308 43.328 43.386 43.483 43.476 43.486 43.538 43.536 43.513 43.506 43.493 43.481 43.471 43.448 43.441 43.456 43.406 43.303 43.178 43.088 43.018 42.936 42.848 42.761 42.821 42.881 42.906 42.948 43.096 43.241 43.171 43.031 42.998 42.871 42.818 42.796 42.756 42.736 42.751 42.718 42.676 42.621 42.498 42.381 42.318 42.398 42.481 42.426 42.363 42.271 42.183 42.248 42.298 42.283 42.276 42.273 42.321 42.251 42.121 42.076 42.006 41.976 41.883 41.758 41.716 41.651 41.668 41.686 41.521 41.481 41.446 41.391 41.401 41.351 41.238 41.223 41.206 41.176 41.273 41.323 41.216 40.978 40.651 40.536 40.436 40.358 40.268 40.188 40.123 40.138 40.148 40.238 40.468 40.596 40.668 40.716 40.738 40.801 40.906 40.966 41.008 41.051 41.108 41.088 40.331 39.901 39.848 39.818 39.773 39.741 39.691 39.663 39.636 39.628 39.641 39.651 39.663 39.678 39.691 39.691 39.641 39.626 39.558 39.503 39.491 39.428 39.393 39.351 39.311 39.278 39.241 39.216 39.186 39.121 39.128 39.043 39.013 39.071 39.078 39.003 38.948 38.888
45.266 45.213 45.211 45.216 45.218 45.206 45.186 45.158 45.143 45.136 45.103 45.101 45.096 45.101 45.143 45.153 45.063 44.988 44.933 44.883 44.846 44.768 44.733 44.708 44.683 44.653 44.608 44.528 44.526 44.506 44.441 44.396 44.361 44.286 44.243 44.193 44.136 44.111 44.083 44.053 44.013 43.998 44.011 44.018 44.003 43.991 44.013 44.003 44.033 44.046 44.043 44.078 44.116 44.118 44.158 44.161 44.138 44.123 44.063 44.033 43.981 43.856 43.603 43.461 43.316 43.126 42.838 42.853 43.171 43.298 43.428 43.408 43.411 43.398 43.296 43.316 43.311 43.296 43.313 43.303 43.236 43.248 43.221 43.188 43.208 43.143 43.143 43.128 43.071 43.071 43.081 43.048 42.991 42.923 42.906 42.883 42.836 42.786 42.796 42.726 42.703 42.686 42.691 42.653 42.631 42.606 42.596 42.616 42.611 42.576 42.538 42.538 42.538 42.533 42.586 42.626 42.601 42.668 42.823 43.013 43.168 43.268 43.343 43.641 43.873 43.966 43.931 43.928 43.901 43.923 44.016 44.086 44.126 44.156 44.113 44.086 44.138 44.163 44.158 44.203 44.266 44.271 44.336 44.346 44.371 44.438 44.488 44.518 44.553 44.563 44.538 44.518 44.503 44.513 44.526 44.503 44.486 44.433 44.376 44.306 44.261 44.198 44.143 44.133 44.098 44.061 44.058 43.996 43.918 43.893 43.891 43.901 43.901 43.886 43.883 43.816 43.763 43.741 43.771 43.793 43.786 43.813 43.811 43.808 43.791 43.803 43.796 43.826 43.848 43.873 43.901 43.888 43.888 43.883 43.868 43.821 43.838 43.841 43.836 43.853 43.856 43.868 43.866 43.886 43.836 43.698 43.558 43.623 43.696 43.658 43.631 43.578 43.533 43.521 43.508 43.523 43.593 43.533 43.516 43.576 43.576 43.516 43.318 43.191 43.193 43.236 43.271 43.226 43.326 43.338 43.323 43.341 43.321 43.346 43.356 43.311 43.311 43.331 43.316 43.308 43.326 43.313 43.363 43.313 43.303 43.333 43.321 43.321 43.321 43.351 43.256 43.226 43.208 43.123 42.971 42.878 42.861 42.871 42.951 42.998 42.991 42.881 42.671 42.533 42.528 42.556 42.546 42.581 42.581 42.568 42.596 42.611 42.603 42.561 42.568 42.593 42.586 42.558 42.571 42.588 42.588 42.593 42.588 42.713 43.123 43.276 43.318 43.311 43.343 43.348 43.371 43.396 43.423 43.433 43.456 43.471 43.491 43.508 43.513 43.468 43.443 43.453 43.456 43.373 43.291 43.198 43.113 43.046 42.936 42.768 42.778 42.866 42.903 42.923 42.916 42.943 42.993 43.023 42.993 43.036 42.953 42.866 42.818 42.801 42.783 42.773 42.688 42.606 42.546 42.453 42.338 42.271 42.388 42.463 42.336 42.253 42.168 42.191 42.348 42.248 42.271 42.286 42.268 42.221 42.098 42.036 42.048 41.981 41.921 41.903 41.821 41.816 41.703 41.648 41.641 41.621 41.593 41.513 41.396 41.306 41.243 41.236 41.291 41.266 41.153 41.171 41.241 41.123 40.868 40.618 40.516 40.486 40.428 40.343 40.261 40.181 40.143 40.161 40.161 40.431 40.653 40.731 40.751 40.791 40.811 40.931 40.958 41.016 41.073 41.111 41.188 40.306 39.871 39.851 39.786 39.798 39.743 39.671 39.656 39.633 39.643 39.656 39.668 39.681 39.691 39.706 39.718 39.691 39.661 39.596 39.566 39.498 39.421 39.398 39.393 39.321 39.266 39.238 39.196 39.153 39.136 39.166 39.128 39.006 39.026 39.046 39.008 38.963 38.908
45.221 45.238 45.236 45.236 45.201 45.236 45.198 45.161 45.161 45.158 45.131 45.146 45.156 45.143 45.178 45.128 45.068 45.008 44.931 44.888 44.858 44.796 44.761 44.718 44.688 44.643 44.576 44.543 44.541 44.503 44.476 44.401 44.386 44.336 44.268 44.198 44.103 44.081 44.068 44.046 44.011 44.011 44.011 44.031 44.021 44.031 44.053 44.026 44.043 44.036 44.061 44.108 44.116 44.131 44.141 44.108 44.093 44.123 44.141 44.078 44.061 44.006 43.958 43.898 43.801 43.571 43.296 42.926 42.648 42.558 42.803 42.938 43.303 43.441 43.453 43.376 43.303 43.296 43.286 43.266 43.261 43.233 43.213 43.171 43.123 43.158 43.166 43.168 43.096 43.073 42.998 42.976 42.961 42.901 42.878 42.863 42.873 42.836 42.838 42.756 42.713 42.731 42.651 42.618 42.593 42.571 42.548 42.558 42.556 42.511 42.491 42.496 42.486 42.456 42.483 42.448 42.428 42.426 42.513 42.638 42.821 43.013 43.151 43.408 43.761 43.958 43.911 43.916 43.913 43.901 43.883 43.961 44.056 44.111 44.096 44.151 44.156 44.128 44.141 44.176 44.193 44.243 44.306 44.356 44.383 44.388 44.396 44.441 44.488 44.533 44.523 44.523 44.491 44.468 44.458 44.436 44.418 44.406 44.396 44.351 44.308 44.221 44.163 44.101 44.026 43.996 43.981 43.923 43.931 43.918 43.906 43.863 43.836 43.818 43.801 43.788 43.776 43.761 43.736 43.728 43.723 43.753 43.761 43.756 43.796 43.793 43.791 43.786 43.788 43.786 43.801 43.838 43.848 43.873 43.886 43.888 43.886 43.891 43.881 43.821 43.801 43.803 43.791 43.763 43.768 43.661 43.523 43.666 43.681 43.633 43.613 43.596 43.561 43.508 43.541 43.531 43.556 43.538 43.503 43.531 43.556 43.458 43.273 43.198 43.196 43.188 43.241 43.216 43.283 43.331 43.328 43.296 43.323 43.308 43.211 43.303 43.308 43.308 43.286 43.313 43.303 43.313 43.328 43.316 43.301 43.316 43.326 43.338 43.333 43.356 43.243 43.238 43.248 43.201 43.058 42.898 42.826 42.826 42.903 43.016 43.091 42.971 42.726 42.588 42.556 42.576 42.556 42.548 42.556 42.578 42.596 42.593 42.621 42.606 42.608 42.601 42.576 42.548 42.536 42.551 42.571 42.578 42.581 42.653 42.851 43.191 43.266 43.268 43.303 43.303 43.326 43.323 43.363 43.381 43.388 43.426 43.443 43.443 43.456 43.461 43.441 43.446 43.406 43.316 43.266 43.233 43.153 43.141 42.988 42.746 42.766 42.831 42.851 42.883 42.856 42.888 42.938 42.966 42.963 43.088 43.051 42.891 42.823 42.798 42.763 42.686 42.578 42.491 42.443 42.401 42.371 42.286 42.366 42.353 42.298 42.278 42.191 42.176 42.336 42.286 42.156 42.113 42.168 42.123 42.078 42.046 42.091 42.003 41.956 42.006 41.858 41.846 41.796 41.746 41.688 41.661 41.618 41.523 41.491 41.398 41.341 41.353 41.316 41.243 41.151 41.163 41.211 41.183 40.908 40.628 40.556 40.543 40.471 40.406 40.328 40.263 40.176 40.153 40.203 40.396 40.586 40.643 40.716 40.766 40.823 40.943 40.986 41.048 41.123 41.046 40.871 40.191 39.881 39.858 39.851 39.793 39.743 39.656 39.638 39.678 39.671 39.678 39.686 39.696 39.711 39.721 39.733 39.736 39.691 39.643 39.591 39.463 39.393 39.398 39.396 39.313 39.288 39.266 39.206 39.183 39.146 39.168 39.171 39.028 38.978 39.048 39.031 38.976 38.906
45.248 45.253 45.223 45.263 45.208 45.208 45.203 45.163 45.171 45.173 45.163 45.161 45.206 45.191 45.098 45.091 45.013 44.956 44.923 44.901 44.851 44.813 44.773 44.711 44.656 44.611 44.591 44.568 44.586 44.493 44.458 44.431 44.398 44.343 44.311 44.256 44.193 44.108 44.071 44.041 44.026 44.023 44.033 44.051 44.053 44.078 44.093 44.076 44.076 44.116 44.126 44.141 44.128 44.116 44.108 44.076 44.091 44.121 44.116 44.108 44.106 44.066 44.086 44.038 44.003 43.923 43.758 43.463 43.191 42.978 42.966 42.643 42.768 43.203 43.468 43.458 43.431 43.318 43.306 43.353 43.306 43.281 43.246 43.171 43.133 43.111 43.086 43.093 43.086 43.073 43.006 42.968 42.933 42.901 42.911 42.898 42.883 42.903 42.861 42.763 42.708 42.736 42.668 42.678 42.603 42.568 42.548 42.526 42.563 42.566 42.546 42.498 42.503 42.473 42.461 42.433 42.406 42.368 42.418 42.488 42.596 42.831 42.968 43.151 43.561 43.758 43.758 43.836 43.916 43.883 43.861 43.876 43.933 44.038 44.101 44.176 44.203 44.181 44.123 44.138 44.183 44.203 44.216 44.276 44.323 44.376 44.396 44.383 44.391 44.396 44.451 44.508 44.538 44.521 44.486 44.441 44.386 44.346 44.323 44.303 44.276 44.248 44.183 44.111 44.053 43.981 43.931 43.871 43.843 43.861 43.858 43.861 43.833 43.801 43.758 43.738 43.696 43.716 43.741 43.728 43.738 43.758 43.741 43.751 43.736 43.756 43.731 43.758 43.796 43.808 43.816 43.793 43.776 43.798 43.806 43.826 43.836 43.843 43.856 43.876 43.868 43.841 43.838 43.806 43.753 43.601 43.531 43.633 43.643 43.553 43.523 43.486 43.461 43.443 43.478 43.496 43.538 43.493 43.443 43.456 43.441 43.421 43.276 43.126 43.161 43.203 43.228 43.193 43.238 43.313 43.291 43.273 43.301 43.323 43.291 43.293 43.288 43.311 43.291 43.283 43.301 43.276 43.311 43.303 43.283 43.293 43.306 43.333 43.336 43.351 43.301 43.261 43.241 43.226 43.138 42.983 42.868 42.906 42.956 43.006 43.078 43.093 42.876 42.683 42.638 42.576 42.516 42.501 42.483 42.526 42.551 42.581 42.606 42.593 42.608 42.578 42.571 42.551 42.543 42.551 42.518 42.538 42.548 42.641 42.711 42.893 43.088 42.998 43.146 43.173 43.186 43.263 43.288 43.306 43.346 43.378 43.361 43.386 43.428 43.436 43.436 43.396 43.323 43.241 43.201 43.196 43.161 43.091 43.033 42.763 42.698 42.743 42.791 42.803 42.821 42.826 42.831 42.926 42.943 43.026 43.018 42.858 42.788 42.711 42.633 42.561 42.498 42.436 42.401 42.361 42.328 42.273 42.281 42.256 42.238 42.283 42.303 42.383 42.406 42.283 42.111 42.071 42.173 42.168 42.096 42.088 42.106 42.048 41.963 41.873 41.803 41.801 41.856 41.788 41.711 41.621 41.548 41.548 41.553 41.406 41.378 41.331 41.276 41.233 41.176 41.148 41.146 41.178 40.911 40.626 40.568 40.618 40.538 40.446 40.361 40.241 40.158 40.258 40.308 40.403 40.556 40.583 40.636 40.691 40.816 40.868 40.803 40.786 40.841 40.781 40.558 40.158 39.893 39.871 39.823 39.773 39.733 39.676 39.661 39.698 39.706 39.711 39.718 39.723 39.733 39.743 39.751 39.761 39.733 39.673 39.606 39.423 39.438 39.441 39.408 39.361 39.313 39.268 39.201 39.168 39.141 39.128 39.136 39.086 38.973 38.983 39.016 38.991 38.933
45.233 45.238 45.256 45.243 45.236 45.206 45.188 45.188 45.193 45.188 45.233 45.236 45.243 45.176 45.086 45.056 45.003 44.923 44.918 44.901 44.871 44.813 44.773 44.726 44.673 44.668 44.653 44.628 44.603 44.498 44.468 44.421 44.406 44.383 44.311 44.263 44.231 44.183 44.148 44.108 44.066 44.051 44.033 44.063 44.098 44.153 44.136 44.136 44.148 44.183 44.156 44.151 44.171 44.158 44.128 44.101 44.103 44.126 44.133 44.106 44.083 44.113 44.146 44.108 44.068 44.026 43.976 43.898 43.793 43.696 43.481 43.083 42.611 42.561 42.738 43.031 43.343 43.258 43.181 43.226 43.391 43.371 43.271 43.226 43.116 43.016 43.041 43.058 43.088 43.056 43.008 42.981 42.933 42.906 42.938 42.903 42.898 42.861 42.793 42.738 42.683 42.703 42.681 42.661 42.633 42.603 42.593 42.578 42.588 42.541 42.521 42.511 42.498 42.476 42.448 42.416 42.393 42.383 42.356 42.388 42.581 42.728 42.778 42.913 43.233 43.408 43.581 43.718 43.831 43.908 43.943 43.913 43.886 43.891 44.036 44.151 44.208 44.261 44.226 44.173 44.166 44.171 44.208 44.246 44.271 44.326 44.358 44.408 44.388 44.401 44.383 44.391 44.446 44.468 44.468 44.438 44.411 44.378 44.361 44.281 44.258 44.191 44.128 44.081 44.056 44.018 43.948 43.911 43.843 43.788 43.761 43.748 43.758 43.741 43.721 43.731 43.698 43.718 43.696 43.688 43.686 43.718 43.736 43.738 43.773 43.778 43.746 43.751 43.746 43.756 43.748 43.748 43.778 43.806 43.841 43.821 43.813 43.793 43.778 43.803 43.803 43.823 43.808 43.771 43.703 43.528 43.548 43.593 43.618 43.548 43.518 43.463 43.436 43.401 43.393 43.448 43.493 43.456 43.408 43.411 43.426 43.406 43.238 43.118 43.143 43.171 43.223 43.213 43.203 43.271 43.261 43.256 43.276 43.291 43.293 43.291 43.281 43.283 43.283 43.283 43.273 43.281 43.318 43.281 43.231 43.286 43.333 43.336 43.346 43.363 43.311 43.261 43.246 43.196 43.131 43.033 42.991 42.936 42.951 42.996 43.006 43.011 42.848 42.688 42.676 42.608 42.498 42.498 42.476 42.463 42.513 42.558 42.586 42.591 42.606 42.568 42.553 42.523 42.506 42.528 42.511 42.516 42.483 42.611 42.633 42.616 42.686 42.683 42.731 42.696 42.748 42.798 42.906 43.153 43.321 43.371 43.316 43.288 43.361 43.463 43.398 43.356 43.261 43.228 43.206 43.053 42.926 42.866 42.876 42.736 42.686 42.648 42.681 42.703 42.748 42.741 42.793 42.843 42.818 42.803 42.786 42.761 42.656 42.586 42.561 42.533 42.486 42.428 42.371 42.281 42.211 42.221 42.241 42.183 42.163 42.116 42.196 42.316 42.373 42.236 42.118 42.003 42.073 42.151 42.043 42.073 42.076 42.126 41.961 41.731 41.678 41.666 41.723 41.703 41.636 41.553 41.521 41.473 41.463 41.348 41.328 41.308 41.241 41.206 41.158 41.036 40.981 40.946 40.781 40.633 40.581 40.721 40.696 40.656 40.598 40.318 40.158 40.228 40.313 40.413 40.471 40.491 40.546 40.678 40.781 40.756 40.696 40.618 40.533 40.556 40.428 40.086 39.866 39.893 39.848 39.791 39.728 39.696 39.658 39.681 39.726 39.743 39.751 39.758 39.763 39.773 39.773 39.776 39.756 39.681 39.643 39.558 39.486 39.448 39.401 39.351 39.311 39.256 39.216 39.146 39.113 39.103 39.103 39.071 38.988 38.906 38.958 38.978 38.931
45.223 45.203 45.233 45.228 45.198 45.198 45.218 45.183 45.203 45.196 45.286 45.288 45.206 45.123 45.061 45.038 44.988 44.956 44.941 44.921 44.871 44.841 44.766 44.728 44.746 44.716 44.668 44.608 44.571 44.541 44.496 44.421 44.423 44.388 44.311 44.281 44.266 44.228 44.193 44.151 44.098 44.131 44.138 44.168 44.151 44.166 44.181 44.181 44.208 44.233 44.213 44.191 44.196 44.203 44.161 44.148 44.116 44.131 44.133 44.121 44.101 44.138 44.128 44.111 44.111 44.076 44.038 43.986 43.921 43.836 43.783 43.583 43.411 43.081 42.791 42.473 42.763 43.076 42.918 42.771 42.996 43.343 43.378 43.296 43.218 43.111 43.086 43.078 43.058 43.041 43.001 42.958 42.938 42.893 42.901 42.926 42.863 42.811 42.776 42.751 42.726 42.681 42.666 42.666 42.638 42.651 42.601 42.593 42.551 42.503 42.501 42.471 42.413 42.468 42.491 42.483 42.408 42.346 42.338 42.353 42.413 42.556 42.678 42.726 42.893 42.981 43.278 43.523 43.633 43.788 43.938 43.936 43.901 43.908 43.926 44.028 44.116 44.176 44.218 44.256 44.223 44.173 44.181 44.248 44.258 44.271 44.298 44.353 44.388 44.426 44.428 44.408 44.411 44.388 44.401 44.393 44.373 44.371 44.351 44.328 44.271 44.188 44.113 44.053 43.986 43.918 43.918 43.898 43.868 43.833 43.776 43.751 43.728 43.671 43.641 43.638 43.661 43.666 43.651 43.681 43.686 43.688 43.671 43.663 43.691 43.706 43.753 43.751 43.748 43.786 43.776 43.748 43.753 43.758 43.768 43.791 43.813 43.796 43.773 43.776 43.811 43.778 43.778 43.731 43.608 43.543 43.583 43.633 43.608 43.563 43.558 43.526 43.493 43.441 43.426 43.436 43.486 43.421 43.376 43.363 43.381 43.353 43.216 43.101 43.108 43.143 43.236 43.231 43.176 43.208 43.221 43.213 43.246 43.236 43.223 43.278 43.238 43.263 43.301 43.266 43.236 43.288 43.326 43.293 43.233 43.263 43.326 43.363 43.361 43.353 43.268 43.241 43.258 43.198 43.148 43.111 43.068 42.986 42.943 42.991 42.988 42.888 42.786 42.683 42.636 42.593 42.513 42.471 42.478 42.456 42.501 42.556 42.588 42.541 42.581 42.563 42.543 42.546 42.528 42.513 42.513 42.508 42.548 42.628 42.631 42.591 42.561 42.561 42.573 42.573 42.578 42.598 42.588 42.643 43.141 43.273 43.136 42.841 42.956 43.071 43.128 43.113 43.126 43.236 43.143 42.748 42.686 42.691 42.696 42.683 42.648 42.641 42.623 42.613 42.686 42.686 42.708 42.781 42.806 42.741 42.723 42.663 42.623 42.593 42.513 42.481 42.426 42.366 42.261 42.181 42.156 42.136 42.111 42.078 42.063 42.123 42.008 42.003 42.141 42.001 41.916 41.901 41.923 41.976 41.858 41.893 41.888 41.873 41.771 41.603 41.578 41.538 41.523 41.486 41.446 41.431 41.428 41.358 41.298 41.256 41.263 41.188 41.173 41.128 40.998 40.891 40.836 40.778 40.726 40.651 40.596 40.753 41.053 41.056 40.723 40.411 40.183 40.173 40.233 40.316 40.391 40.406 40.543 40.646 40.706 40.646 40.581 40.521 40.451 40.331 40.273 40.083 39.848 39.871 39.808 39.791 39.716 39.728 39.708 39.733 39.751 39.776 39.778 39.778 39.776 39.771 39.768 39.758 39.756 39.711 39.648 39.613 39.498 39.458 39.413 39.341 39.278 39.231 39.191 39.106 39.063 39.096 39.108 39.048 38.953 38.883 38.951 38.981 38.923
45.201 45.223 45.196 45.191 45.193 45.213 45.206 45.218 45.246 45.198 45.238 45.198 45.161 45.091 45.051 45.018 44.998 44.971 44.941 44.923 44.918 44.828 44.788 44.763 44.723 44.676 44.671 44.626 44.583 44.541 44.511 44.453 44.431 44.408 44.373 44.311 44.331 44.276 44.241 44.176 44.163 44.186 44.268 44.291 44.253 44.251 44.261 44.258 44.248 44.248 44.271 44.261 44.246 44.226 44.196 44.198 44.191 44.178 44.171 44.158 44.146 44.161 44.156 44.116 44.078 44.036 44.063 44.048 44.008 43.961 43.891 43.826 43.793 43.696 43.551 43.213 43.028 43.348 43.053 42.616 42.526 42.706 42.998 43.181 43.353 43.368 43.296 43.233 43.101 43.006 42.946 42.941 42.906 42.873 42.878 42.868 42.843 42.838 42.781 42.728 42.721 42.733 42.636 42.636 42.618 42.611 42.578 42.606 42.563 42.541 42.506 42.473 42.433 42.401 42.428 42.431 42.368 42.333 42.288 42.343 42.346 42.401 42.591 42.593 42.633 42.751 42.883 43.173 43.421 43.593 43.803 43.896 43.988 43.983 43.931 43.913 43.978 44.083 44.186 44.266 44.258 44.221 44.243 44.258 44.313 44.318 44.333 44.336 44.333 44.343 44.388 44.406 44.431 44.406 44.388 44.318 44.291 44.288 44.268 44.286 44.248 44.216 44.166 44.078 44.001 43.908 43.863 43.831 43.806 43.813 43.781 43.761 43.751 43.713 43.648 43.653 43.616 43.606 43.571 43.573 43.611 43.638 43.686 43.701 43.688 43.696 43.713 43.706 43.703 43.723 43.753 43.778 43.798 43.806 43.818 43.793 43.781 43.753 43.748 43.761 43.753 43.778 43.733 43.683 43.546 43.536 43.581 43.621 43.573 43.516 43.486 43.448 43.423 43.386 43.383 43.406 43.443 43.406 43.363 43.338 43.333 43.338 43.193 43.088 43.086 43.146 43.248 43.216 43.186 43.203 43.181 43.156 43.183 43.173 43.186 43.228 43.238 43.276 43.281 43.208 43.238 43.253 43.276 43.271 43.241 43.271 43.303 43.351 43.346 43.338 43.293 43.208 43.243 43.176 43.141 43.116 43.083 43.076 43.001 43.038 42.986 42.928 42.823 42.698 42.653 42.598 42.501 42.486 42.496 42.528 42.551 42.563 42.546 42.573 42.541 42.563 42.558 42.563 42.546 42.516 42.516 42.528 42.593 42.636 42.666 42.601 42.566 42.576 42.561 42.578 42.578 42.566 42.571 42.546 42.861 43.078 42.726 42.541 42.493 42.561 42.648 42.661 42.666 42.823 42.896 42.571 42.576 42.603 42.608 42.601 42.608 42.596 42.566 42.558 42.593 42.588 42.606 42.623 42.661 42.673 42.661 42.576 42.496 42.496 42.423 42.356 42.301 42.233 42.156 42.126 42.213 42.143 42.051 42.011 42.003 42.111 42.008 41.893 41.811 41.781 41.741 41.761 41.778 41.713 41.653 41.658 41.671 41.641 41.591 41.541 41.528 41.483 41.486 41.451 41.408 41.388 41.363 41.331 41.321 41.271 41.226 41.176 41.116 41.031 40.921 40.848 40.798 40.748 40.723 40.643 40.601 40.721 41.021 41.106 40.783 40.436 40.158 40.146 40.168 40.228 40.311 40.391 40.506 40.611 40.591 40.531 40.468 40.406 40.346 40.281 40.161 40.026 39.851 39.851 39.838 39.816 39.746 39.741 39.751 39.808 39.786 39.828 39.798 39.793 39.788 39.783 39.776 39.773 39.768 39.731 39.671 39.631 39.533 39.476 39.428 39.358 39.286 39.218 39.161 39.088 39.023 39.076 39.108 39.056 39.068 38.908 38.873 38.911 38.916
45.198 45.213 45.193 45.188 45.166 45.178 45.208 45.253 45.291 45.228 45.186 45.176 45.116 45.086 45.051 45.038 44.956 44.963 44.966 44.928 44.876 44.838 44.803 44.763 44.751 44.683 44.681 44.641 44.611 44.581 44.571 44.508 44.471 44.421 44.378 44.343 44.326 44.308 44.293 44.243 44.251 44.263 44.283 44.306 44.328 44.308 44.313 44.318 44.311 44.313 44.308 44.271 44.243 44.223 44.263 44.281 44.228 44.191 44.231 44.223 44.161 44.166 44.173 44.131 44.086 44.073 44.076 44.053 44.036 43.998 43.973 43.921 43.901 43.856 43.816 43.743 43.633 43.641 43.481 43.208 42.818 42.673 42.458 42.346 42.608 43.018 43.203 43.258 43.213 43.156 43.073 43.031 42.978 42.911 42.881 42.876 42.838 42.828 42.796 42.748 42.736 42.721 42.676 42.641 42.648 42.638 42.613 42.633 42.608 42.626 42.586 42.546 42.486 42.461 42.456 42.413 42.351 42.321 42.326 42.341 42.321 42.343 42.478 42.511 42.491 42.496 42.636 42.816 43.088 43.386 43.601 43.781 43.911 44.006 44.008 43.971 43.948 43.966 44.046 44.161 44.198 44.266 44.343 44.361 44.331 44.288 44.293 44.343 44.331 44.291 44.296 44.328 44.343 44.373 44.361 44.326 44.288 44.271 44.258 44.186 44.141 44.118 44.093 44.076 44.003 43.946 43.891 43.841 43.788 43.721 43.718 43.706 43.691 43.703 43.673 43.683 43.651 43.621 43.596 43.588 43.538 43.543 43.573 43.593 43.651 43.681 43.701 43.726 43.728 43.728 43.723 43.726 43.731 43.746 43.746 43.763 43.781 43.788 43.778 43.758 43.783 43.741 43.718 43.681 43.548 43.551 43.628 43.598 43.558 43.521 43.488 43.458 43.416 43.408 43.386 43.416 43.461 43.416 43.368 43.353 43.326 43.318 43.183 43.053 43.058 43.103 43.221 43.256 43.146 43.156 43.176 43.148 43.166 43.181 43.161 43.188 43.223 43.278 43.248 43.213 43.196 43.138 43.081 43.243 43.233 43.258 43.306 43.351 43.373 43.391 43.293 43.246 43.241 43.221 43.173 43.128 43.076 43.041 43.051 43.031 42.993 42.926 42.856 42.723 42.661 42.558 42.458 42.496 42.441 42.418 42.458 42.538 42.583 42.578 42.563 42.573 42.568 42.556 42.543 42.546 42.526 42.538 42.608 42.686 42.621 42.566 42.563 42.563 42.548 42.551 42.568 42.531 42.551 42.538 42.706 42.721 42.518 42.513 42.516 42.556 42.563 42.588 42.601 42.593 42.596 42.578 42.561 42.541 42.511 42.501 42.563 42.528 42.448 42.451 42.511 42.493 42.538 42.536 42.523 42.571 42.573 42.518 42.411 42.393 42.343 42.293 42.241 42.161 42.131 42.158 42.126 42.088 42.021 41.978 42.006 42.076 42.023 41.933 41.863 41.806 41.721 41.668 41.656 41.631 41.598 41.658 41.663 41.613 41.518 41.501 41.528 41.506 41.453 41.453 41.426 41.338 41.303 41.316 41.331 41.328 41.296 41.236 41.061 40.941 40.798 40.761 40.746 40.723 40.731 40.673 40.651 40.763 41.066 41.056 40.881 40.446 40.226 40.108 40.111 40.176 40.303 40.366 40.471 40.541 40.476 40.416 40.356 40.296 40.236 40.176 40.111 40.001 39.896 39.893 39.858 39.783 39.753 39.681 39.781 39.786 39.818 39.841 39.858 39.856 39.811 39.796 39.788 39.786 39.781 39.746 39.693 39.643 39.561 39.488 39.446 39.373 39.303 39.231 39.161 39.083 39.041 39.061 39.111 39.111 39.093 38.943 38.893 38.923 38.926
45.191 45.183 45.216 45.218 45.188 45.186 45.256 45.298 45.316 45.236 45.153 45.116 45.058 45.053 45.061 45.038 44.986 44.983 44.941 44.871 44.851 44.843 44.808 44.776 44.748 44.706 44.673 44.653 44.623 44.596 44.566 44.533 44.471 44.463 44.421 44.393 44.363 44.326 44.326 44.286 44.321 44.331 44.336 44.341 44.356 44.366 44.368 44.338 44.391 44.366 44.328 44.311 44.316 44.288 44.286 44.323 44.288 44.273 44.271 44.271 44.206 44.173 44.211 44.178 44.153 44.116 44.073 44.083 44.046 44.016 43.993 43.953 43.926 43.906 43.916 43.851 43.801 43.756 43.701 43.638 43.528 43.366 43.086 42.776 42.443 42.268 42.368 42.706 43.023 43.136 43.113 43.121 43.106 43.041 43.038 43.036 42.988 42.908 42.831 42.766 42.688 42.701 42.668 42.683 42.618 42.596 42.591 42.631 42.648 42.636 42.621 42.583 42.566 42.503 42.496 42.448 42.396 42.386 42.353 42.331 42.331 42.348 42.461 42.438 42.448 42.398 42.433 42.578 42.758 43.013 43.303 43.556 43.738 43.863 44.038 44.101 44.061 44.016 44.008 44.058 44.156 44.291 44.411 44.391 44.358 44.313 44.296 44.301 44.278 44.296 44.293 44.291 44.268 44.321 44.301 44.283 44.286 44.281 44.246 44.161 44.113 44.061 43.991 43.948 43.936 43.906 43.873 43.821 43.791 43.753 43.723 43.688 43.661 43.616 43.616 43.601 43.603 43.588 43.596 43.586 43.541 43.568 43.598 43.586 43.566 43.583 43.588 43.633 43.676 43.726 43.728 43.771 43.761 43.726 43.726 43.733 43.748 43.748 43.736 43.741 43.741 43.743 43.706 43.613 43.513 43.603 43.643 43.583 43.508 43.466 43.423 43.421 43.383 43.368 43.376 43.413 43.468 43.398 43.356 43.346 43.356 43.341 43.193 43.038 43.043 43.073 43.116 43.138 43.041 43.126 43.131 43.143 43.173 43.183 43.173 43.178 43.248 43.253 43.248 43.171 43.153 43.146 43.156 43.181 43.196 43.233 43.298 43.388 43.476 43.453 43.296 43.218 43.211 43.211 43.193 43.118 43.066 43.051 43.013 42.983 42.938 42.891 42.868 42.756 42.681 42.543 42.436 42.441 42.303 42.318 42.373 42.451 42.536 42.563 42.553 42.583 42.578 42.548 42.531 42.558 42.566 42.536 42.536 42.553 42.511 42.596 42.601 42.556 42.523 42.548 42.553 42.536 42.558 42.411 42.453 42.553 42.571 42.518 42.531 42.526 42.556 42.563 42.563 42.588 42.596 42.598 42.571 42.511 42.431 42.396 42.478 42.358 42.336 42.338 42.373 42.331 42.401 42.381 42.398 42.438 42.453 42.423 42.336 42.296 42.206 42.196 42.191 42.101 42.156 42.163 42.096 42.038 41.976 41.981 42.023 42.028 42.008 41.983 41.881 41.768 41.673 41.618 41.618 41.596 41.638 41.621 41.636 41.558 41.498 41.513 41.528 41.518 41.441 41.393 41.408 41.326 41.278 41.286 41.286 41.276 41.226 41.136 40.991 40.833 40.778 40.751 40.723 40.711 40.696 40.693 40.648 40.783 41.048 40.961 40.866 40.643 40.426 40.241 40.173 40.186 40.313 40.348 40.443 40.426 40.366 40.306 40.246 40.181 40.121 40.061 40.001 39.946 39.911 39.893 39.856 39.791 39.751 39.648 39.733 39.783 39.838 39.876 39.898 39.956 39.931 39.851 39.803 39.796 39.791 39.761 39.716 39.661 39.593 39.503 39.461 39.391 39.318 39.248 39.178 39.146 39.083 39.081 39.086 39.096 39.083 38.938 38.881 38.903 38.903
45.161 45.178 45.186 45.216 45.206 45.236 45.231 45.286 45.233 45.196 45.103 45.066 45.051 45.048 45.073 45.018 44.993 44.951 44.908 44.843 44.846 44.846 44.808 44.778 44.746 44.726 44.693 44.673 44.623 44.588 44.581 44.548 44.503 44.486 44.448 44.453 44.416 44.376 44.346 44.366 44.356 44.366 44.403 44.388 44.398 44.463 44.453 44.408 44.398 44.418 44.383 44.356 44.366 44.358 44.373 44.358 44.301 44.308 44.263 44.251 44.261 44.223 44.226 44.208 44.193 44.183 44.111 44.113 44.061 44.038 44.006 43.986 43.978 43.948 43.913 43.876 43.838 43.818 43.783 43.718 43.663 43.606 43.556 43.401 43.131 42.723 42.368 42.428 42.278 42.413 42.723 42.946 42.916 42.956 43.048 43.096 43.051 43.061 42.956 42.848 42.691 42.653 42.601 42.578 42.548 42.566 42.603 42.678 42.636 42.616 42.621 42.591 42.591 42.568 42.591 42.533 42.463 42.406 42.361 42.306 42.321 42.351 42.448 42.408 42.376 42.348 42.293 42.356 42.468 42.636 42.903 43.268 43.551 43.748 43.871 44.036 44.106 44.101 44.081 44.038 44.043 44.201 44.393 44.328 44.313 44.346 44.338 44.261 44.258 44.261 44.263 44.293 44.276 44.276 44.251 44.233 44.243 44.213 44.223 44.186 44.133 44.118 44.016 43.941 43.886 43.833 43.783 43.736 43.716 43.721 43.741 43.698 43.691 43.636 43.628 43.571 43.536 43.541 43.548 43.528 43.543 43.548 43.593 43.593 43.611 43.651 43.636 43.638 43.621 43.593 43.636 43.696 43.688 43.693 43.723 43.731 43.766 43.763 43.771 43.748 43.698 43.688 43.706 43.611 43.508 43.611 43.633 43.571 43.528 43.506 43.433 43.421 43.393 43.378 43.381 43.391 43.473 43.418 43.328 43.361 43.368 43.363 43.183 43.053 43.063 43.011 43.026 43.083 43.053 43.061 43.106 43.106 43.138 43.166 43.161 43.183 43.208 43.251 43.203 43.111 43.113 43.106 43.096 43.131 43.203 43.221 43.288 43.448 43.628 43.551 43.363 43.211 43.196 43.173 43.191 43.126 43.041 43.018 42.998 42.938 42.853 42.783 42.858 42.721 42.556 42.478 42.393 42.231 42.183 42.228 42.283 42.368 42.401 42.323 42.333 42.511 42.586 42.566 42.546 42.553 42.546 42.513 42.441 42.413 42.461 42.561 42.603 42.553 42.536 42.551 42.526 42.493 42.296 41.898 41.978 42.111 42.193 42.363 42.556 42.548 42.526 42.551 42.548 42.538 42.548 42.581 42.581 42.616 42.501 42.373 42.326 42.278 42.263 42.233 42.261 42.241 42.223 42.273 42.248 42.251 42.306 42.286 42.231 42.196 42.138 42.158 42.088 42.038 42.018 42.093 42.033 42.036 41.981 41.981 42.008 42.008 41.956 41.991 41.901 41.761 41.613 41.558 41.603 41.616 41.606 41.611 41.593 41.526 41.463 41.496 41.523 41.511 41.341 41.321 41.328 41.273 41.213 41.218 41.163 41.078 40.983 40.886 40.803 40.763 40.731 40.731 40.716 40.696 40.711 40.728 40.691 40.768 40.891 40.861 40.771 40.601 40.408 40.228 40.168 40.231 40.306 40.356 40.391 40.336 40.278 40.226 40.176 40.126 40.076 40.026 39.976 39.936 39.918 39.868 39.813 39.773 39.736 39.668 39.723 39.808 39.846 39.883 39.951 40.001 39.933 39.856 39.831 39.808 39.803 39.778 39.731 39.671 39.611 39.526 39.473 39.406 39.336 39.263 39.208 39.178 39.131 39.098 39.053 39.078 39.011 38.908 38.853 38.903 38.941
45.161 45.211 45.211 45.221 45.261 45.301 45.256 45.253 45.191 45.126 45.081 45.078 45.078 45.036 45.008 45.006 44.956 44.936 44.911 44.868 44.858 44.861 44.833 44.808 44.776 44.708 44.686 44.671 44.668 44.628 44.603 44.588 44.573 44.521 44.481 44.456 44.453 44.431 44.408 44.416 44.438 44.421 44.471 44.476 44.478 44.501 44.508 44.498 44.486 44.491 44.428 44.433 44.428 44.398 44.411 44.408 44.396 44.386 44.353 44.308 44.281 44.278 44.268 44.263 44.256 44.213 44.171 44.141 44.113 44.101 44.038 44.031 44.018 43.976 43.928 43.858 43.858 43.831 43.796 43.778 43.741 43.676 43.628 43.556 43.483 43.403 43.121 43.193 42.896 42.408 42.286 42.221 42.388 42.588 42.618 42.866 42.826 42.936 42.958 42.981 42.931 42.786 42.658 42.593 42.571 42.613 42.643 42.651 42.641 42.623 42.596 42.543 42.536 42.553 42.543 42.551 42.526 42.463 42.413 42.336 42.366 42.411 42.463 42.403 42.348 42.328 42.238 42.228 42.283 42.328 42.476 42.751 43.148 43.551 43.733 43.898 44.013 44.148 44.193 44.153 44.103 44.131 44.241 44.298 44.291 44.343 44.338 44.306 44.326 44.248 44.251 44.253 44.236 44.248 44.233 44.223 44.193 44.176 44.141 44.106 44.086 44.068 43.991 43.923 43.888 43.843 43.788 43.731 43.681 43.641 43.618 43.601 43.611 43.593 43.593 43.576 43.566 43.538 43.518 43.521 43.496 43.496 43.521 43.538 43.578 43.616 43.641 43.638 43.646 43.613 43.666 43.678 43.628 43.641 43.641 43.641 43.651 43.696 43.703 43.691 43.703 43.688 43.671 43.556 43.523 43.653 43.603 43.546 43.491 43.458 43.393 43.358 43.358 43.366 43.361 43.353 43.396 43.371 43.391 43.428 43.416 43.351 43.193 43.051 42.996 42.958 43.046 43.048 43.023 43.033 43.098 43.108 43.141 43.146 43.166 43.146 43.183 43.203 43.116 43.043 43.078 43.111 43.123 43.126 43.166 43.188 43.218 43.383 43.478 43.456 43.348 43.271 43.218 43.148 43.136 43.106 43.056 43.013 42.998 42.961 42.808 42.648 42.663 42.643 42.491 42.356 42.223 42.121 42.096 42.141 42.193 42.231 42.168 41.973 41.896 41.956 42.088 42.366 42.356 42.401 42.411 42.371 42.246 42.131 42.253 42.371 42.353 42.548 42.548 42.543 42.523 42.196 41.766 41.763 41.721 41.761 41.803 41.908 42.491 42.556 42.528 42.543 42.541 42.563 42.556 42.541 42.538 42.496 42.416 42.358 42.296 42.278 42.226 42.191 42.151 42.138 42.153 42.126 42.136 42.121 42.136 42.143 42.101 42.103 42.051 42.043 42.001 42.018 41.998 42.013 42.011 42.038 41.913 41.878 41.941 41.966 41.931 41.988 41.958 41.811 41.658 41.568 41.611 41.593 41.571 41.566 41.548 41.511 41.438 41.456 41.506 41.426 41.248 41.253 41.251 41.211 41.196 41.156 41.041 40.931 40.818 40.716 40.696 40.723 40.721 40.721 40.686 40.666 40.688 40.698 40.686 40.688 40.693 40.683 40.666 40.508 40.296 40.181 40.216 40.211 40.211 40.291 40.371 40.323 40.276 40.226 40.176 40.126 40.078 40.028 39.981 39.971 39.926 39.843 39.806 39.766 39.758 39.691 39.766 39.846 39.858 39.886 39.938 39.963 39.901 39.893 39.863 39.833 39.813 39.798 39.751 39.686 39.623 39.548 39.491 39.423 39.351 39.281 39.241 39.188 39.186 39.151 39.106 39.088 38.993 38.856 38.788 38.838 38.888
45.193 45.196 45.268 45.323 45.398 45.368 45.286 45.231 45.148 45.101 45.061 45.063 45.071 45.041 45.008 45.036 44.963 44.926 44.911 44.886 44.881 44.856 44.828 44.798 44.781 44.731 44.711 44.711 44.706 44.658 44.641 44.633 44.618 44.573 44.516 44.511 44.536 44.486 44.456 44.503 44.506 44.511 44.541 44.573 44.558 44.528 44.551 44.556 44.513 44.526 44.506 44.491 44.491 44.468 44.466 44.463 44.453 44.466 44.388 44.381 44.381 44.356 44.338 44.276 44.236 44.246 44.203 44.141 44.143 44.136 44.108 44.053 44.046 44.023 43.963 43.943 43.933 43.871 43.831 43.803 43.778 43.723 43.691 43.658 43.638 43.576 43.526 43.438 43.351 43.086 42.956 42.768 42.883 42.893 42.578 42.341 42.113 42.163 42.453 42.691 42.853 42.936 42.886 42.781 42.728 42.673 42.693 42.666 42.621 42.603 42.561 42.531 42.513 42.463 42.518 42.548 42.536 42.498 42.468 42.358 42.346 42.366 42.421 42.386 42.303 42.311 42.206 42.181 42.183 42.216 42.288 42.433 42.711 43.156 43.491 43.738 43.903 44.021 44.171 44.236 44.233 44.201 44.186 44.166 44.183 44.261 44.278 44.288 44.338 44.351 44.326 44.278 44.243 44.221 44.231 44.226 44.181 44.186 44.136 44.093 44.058 43.996 43.968 43.903 43.828 43.798 43.798 43.758 43.711 43.686 43.613 43.556 43.531 43.516 43.498 43.506 43.488 43.476 43.493 43.511 43.531 43.521 43.526 43.513 43.533 43.553 43.568 43.576 43.631 43.631 43.688 43.698 43.703 43.688 43.661 43.673 43.641 43.631 43.623 43.601 43.631 43.608 43.538 43.481 43.568 43.626 43.556 43.543 43.523 43.488 43.418 43.408 43.356 43.358 43.363 43.318 43.393 43.351 43.393 43.433 43.386 43.333 43.176 43.096 43.021 43.016 43.016 43.006 42.988 42.976 43.061 43.013 43.076 43.101 43.136 43.148 43.136 43.118 43.083 43.081 43.036 43.078 43.081 43.098 43.081 43.141 43.178 43.283 43.363 43.348 43.331 43.293 43.211 43.143 43.113 43.091 43.063 43.016 42.981 42.938 42.818 42.588 42.483 42.458 42.463 42.276 42.128 42.023 41.958 42.061 42.133 42.101 41.926 41.773 41.773 41.691 41.696 41.736 41.636 41.708 41.796 41.813 41.921 41.781 41.766 41.796 41.773 41.981 42.316 42.466 42.471 42.316 41.848 41.763 41.691 41.741 41.781 41.866 42.461 42.548 42.533 42.531 42.536 42.548 42.538 42.541 42.526 42.451 42.378 42.288 42.278 42.233 42.118 42.096 42.081 42.101 42.153 41.961 42.048 42.083 42.028 42.003 41.996 41.988 41.951 41.853 41.931 42.063 42.046 42.021 42.031 42.018 41.821 41.816 41.833 41.898 41.903 41.956 41.866 41.746 41.631 41.553 41.568 41.553 41.563 41.563 41.516 41.508 41.441 41.428 41.471 41.336 41.141 41.151 41.143 41.103 41.116 41.086 40.968 40.853 40.768 40.683 40.673 40.698 40.703 40.786 40.776 40.701 40.681 40.688 40.693 40.673 40.646 40.608 40.563 40.473 40.233 40.163 40.181 40.171 40.081 40.283 40.371 40.318 40.278 40.231 40.181 40.131 40.081 40.031 40.011 39.993 39.911 39.866 39.811 39.791 39.761 39.751 39.803 39.838 39.873 39.883 39.938 39.941 39.948 39.928 39.898 39.866 39.833 39.813 39.761 39.701 39.641 39.573 39.506 39.438 39.366 39.308 39.256 39.221 39.201 39.153 39.141 39.138 39.016 38.923 38.791 38.763 38.818
45.211 45.276 45.308 45.321 45.336 45.318 45.208 45.156 45.143 45.116 45.101 45.053 45.053 45.061 45.018 44.991 44.968 44.938 44.926 44.916 44.876 44.843 44.808 44.823 44.798 44.768 44.743 44.748 44.736 44.728 44.698 44.676 44.646 44.621 44.561 44.546 44.586 44.563 44.538 44.556 44.573 44.568 44.581 44.593 44.593 44.596 44.601 44.596 44.571 44.563 44.581 44.571 44.556 44.526 44.536 44.543 44.528 44.503 44.486 44.486 44.478 44.443 44.391 44.353 44.328 44.218 44.231 44.166 44.148 44.156 44.128 44.088 44.066 44.033 44.031 43.978 43.961 43.898 43.853 43.873 43.833 43.788 43.768 43.723 43.678 43.633 43.628 43.646 43.586 43.493 43.411 43.301 43.281 43.218 42.973 42.628 42.623 42.516 42.198 42.081 42.088 42.433 42.568 42.771 42.871 42.863 42.838 42.763 42.703 42.663 42.601 42.543 42.541 42.466 42.468 42.481 42.483 42.461 42.471 42.403 42.376 42.426 42.411 42.388 42.291 42.288 42.203 42.196 42.188 42.173 42.183 42.286 42.368 42.623 43.063 43.471 43.841 43.943 44.026 44.138 44.213 44.273 44.246 44.186 44.136 44.183 44.238 44.268 44.288 44.338 44.351 44.368 44.348 44.326 44.261 44.191 44.163 44.146 44.108 44.111 44.058 44.023 43.968 43.918 43.836 43.788 43.753 43.711 43.686 43.668 43.591 43.568 43.548 43.521 43.498 43.463 43.443 43.443 43.421 43.423 43.461 43.461 43.481 43.533 43.546 43.571 43.558 43.571 43.581 43.601 43.618 43.638 43.643 43.668 43.656 43.683 43.656 43.641 43.661 43.668 43.631 43.596 43.471 43.423 43.548 43.578 43.518 43.478 43.411 43.426 43.383 43.356 43.316 43.313 43.358 43.353 43.433 43.353 43.311 43.346 43.348 43.301 43.186 43.088 43.018 42.981 42.966 42.988 42.971 42.948 42.983 42.963 43.023 43.056 43.076 43.103 43.066 43.058 43.106 43.066 43.046 43.016 43.061 43.086 43.103 43.106 43.151 43.223 43.281 43.326 43.356 43.368 43.248 43.161 43.143 43.061 42.991 42.971 42.936 42.918 42.816 42.621 42.341 42.263 42.273 42.141 42.013 41.911 41.851 41.878 42.001 41.873 41.723 41.596 41.568 41.583 41.573 41.566 41.531 41.556 41.558 41.566 41.616 41.631 41.596 41.633 41.688 41.733 41.816 41.988 42.181 42.423 42.111 41.806 41.731 41.763 41.953 42.428 42.513 42.533 42.508 42.511 42.556 42.563 42.551 42.538 42.503 42.436 42.351 42.308 42.271 42.186 42.121 42.108 42.113 42.153 42.143 41.978 42.023 42.038 42.018 41.928 41.871 41.858 41.833 41.778 41.863 41.993 42.153 42.128 42.078 41.916 41.773 41.763 41.766 41.766 41.796 41.871 41.868 41.758 41.641 41.531 41.536 41.566 41.536 41.563 41.528 41.486 41.448 41.373 41.346 41.176 41.066 41.086 41.041 41.006 41.026 40.996 40.946 40.911 40.876 40.781 40.816 40.701 40.843 40.966 40.926 40.841 40.761 40.728 40.668 40.638 40.683 40.671 40.648 40.561 40.218 40.126 40.158 40.113 40.046 40.288 40.371 40.316 40.253 40.228 40.181 40.131 40.081 40.046 40.051 39.983 39.911 39.866 39.831 39.791 39.783 39.796 39.816 39.858 39.853 39.841 39.916 39.988 39.993 39.961 39.928 39.896 39.861 39.821 39.773 39.713 39.651 39.591 39.521 39.456 39.383 39.326 39.271 39.268 39.191 39.163 39.123 39.081 38.993 38.933 38.793 38.726 38.806
45.276 45.216 45.336 45.356 45.328 45.253 45.178 45.146 45.136 45.126 45.098 45.078 45.051 45.038 45.001 44.988 44.976 44.941 44.956 44.926 44.901 44.873 44.818 44.823 44.838 44.816 44.771 44.786 44.753 44.766 44.741 44.711 44.673 44.673 44.646 44.641 44.641 44.641 44.601 44.651 44.638 44.623 44.608 44.621 44.653 44.668 44.643 44.636 44.631 44.626 44.616 44.588 44.588 44.583 44.578 44.593 44.608 44.583 44.551 44.566 44.543 44.523 44.511 44.423 44.351 44.308 44.276 44.256 44.193 44.183 44.153 44.141 44.123 44.086 44.068 43.998 43.973 43.921 43.923 43.913 43.896 43.806 43.793 43.786 43.731 43.668 43.663 43.613 43.593 43.576 43.541 43.473 43.436 43.353 43.291 43.178 43.128 43.093 42.858 42.643 42.436 42.278 42.128 42.223 42.526 42.898 42.918 42.896 42.896 42.913 42.838 42.771 42.671 42.581 42.513 42.466 42.466 42.468 42.483 42.441 42.391 42.426 42.416 42.373 42.283 42.253 42.253 42.171 42.146 42.143 42.136 42.168 42.198 42.248 42.466 42.888 43.353 43.741 43.966 44.018 44.143 44.196 44.261 44.253 44.218 44.173 44.133 44.176 44.228 44.293 44.303 44.313 44.346 44.386 44.336 44.266 44.241 44.176 44.121 44.083 44.038 44.003 43.958 43.911 43.856 43.826 43.763 43.691 43.673 43.633 43.566 43.551 43.533 43.506 43.491 43.468 43.433 43.436 43.411 43.388 43.381 43.386 43.406 43.448 43.476 43.513 43.536 43.603 43.613 43.613 43.633 43.613 43.633 43.608 43.621 43.611 43.638 43.621 43.628 43.633 43.598 43.563 43.476 43.456 43.563 43.566 43.531 43.491 43.413 43.386 43.363 43.308 43.286 43.228 43.261 43.336 43.401 43.366 43.316 43.283 43.296 43.263 43.098 43.043 42.991 42.958 42.933 42.948 42.918 42.901 42.941 42.961 43.028 42.981 42.988 43.021 43.018 43.026 43.073 43.033 43.011 42.978 42.993 43.033 43.061 43.078 43.091 43.151 43.218 43.266 43.303 43.246 43.216 43.183 43.113 43.063 42.983 42.946 42.908 42.853 42.788 42.601 42.293 42.181 42.146 42.036 41.931 41.911 41.783 41.698 41.733 41.631 41.573 41.566 41.538 41.546 41.516 41.516 41.496 41.476 41.501 41.486 41.528 41.566 41.606 41.606 41.638 41.701 41.716 41.731 41.828 41.866 41.826 41.803 41.678 41.718 41.971 42.251 42.478 42.506 42.296 42.286 42.421 42.541 42.561 42.573 42.471 42.388 42.291 42.243 42.263 42.201 42.153 42.136 42.106 42.003 42.016 41.976 41.933 41.886 41.878 41.918 41.816 41.776 41.763 41.721 41.796 41.893 42.071 42.091 42.033 41.823 41.743 41.726 41.666 41.616 41.781 41.841 41.861 41.818 41.728 41.548 41.516 41.518 41.493 41.498 41.481 41.481 41.396 41.248 41.141 41.101 41.061 41.041 40.986 40.951 40.951 40.973 41.031 41.046 41.021 41.121 41.108 41.008 41.096 41.143 41.063 40.963 40.863 40.748 40.648 40.663 40.781 40.838 40.801 40.571 40.236 40.093 40.143 40.108 40.053 40.288 40.366 40.308 40.261 40.201 40.176 40.131 40.086 40.098 40.058 39.988 39.913 39.873 39.841 39.836 39.856 39.806 39.826 39.853 39.871 39.868 39.938 39.993 39.986 39.946 39.906 39.866 39.826 39.743 39.701 39.646 39.628 39.596 39.541 39.471 39.388 39.311 39.281 39.248 39.148 39.101 39.053 39.021 38.946 38.876 38.776 38.693 38.781
45.401 45.021 45.173 45.346 45.296 45.233 45.193 45.181 45.173 45.151 45.118 45.103 45.063 45.033 45.001 45.006 44.968 44.963 44.958 44.923 44.886 44.873 44.823 44.816 44.848 44.848 44.831 44.823 44.848 44.801 44.771 44.763 44.738 44.713 44.731 44.716 44.706 44.668 44.641 44.648 44.656 44.686 44.651 44.658 44.701 44.668 44.661 44.673 44.668 44.673 44.671 44.686 44.683 44.656 44.658 44.673 44.651 44.651 44.641 44.641 44.618 44.596 44.566 44.488 44.438 44.396 44.376 44.313 44.291 44.243 44.228 44.188 44.158 44.118 44.111 44.083 44.033 44.016 43.946 43.913 43.913 43.868 43.818 43.826 43.793 43.701 43.691 43.658 43.628 43.603 43.561 43.508 43.446 43.403 43.341 43.306 43.281 43.236 43.198 43.061 42.808 42.676 42.546 42.328 41.963 42.133 42.618 42.846 42.956 43.006 42.961 42.983 42.958 42.838 42.741 42.641 42.546 42.503 42.443 42.406 42.416 42.433 42.436 42.353 42.303 42.198 42.181 42.138 42.121 42.086 42.078 42.103 42.111 42.113 42.191 42.426 42.811 43.298 43.763 43.951 44.033 44.103 44.131 44.211 44.238 44.241 44.198 44.181 44.166 44.193 44.286 44.338 44.311 44.353 44.343 44.273 44.271 44.253 44.236 44.178 44.088 44.026 43.961 43.893 43.831 43.766 43.753 43.708 43.678 43.646 43.601 43.578 43.538 43.503 43.458 43.423 43.406 43.403 43.401 43.381 43.396 43.388 43.418 43.426 43.403 43.451 43.456 43.461 43.496 43.541 43.583 43.623 43.651 43.661 43.648 43.638 43.633 43.613 43.591 43.563 43.566 43.523 43.483 43.493 43.561 43.546 43.511 43.486 43.448 43.403 43.366 43.326 43.326 43.306 43.281 43.333 43.366 43.306 43.318 43.251 43.281 43.198 43.076 43.008 42.943 42.948 42.903 42.898 42.883 42.863 42.931 42.978 42.983 42.971 42.943 42.958 42.968 42.953 42.943 42.908 42.918 42.946 42.951 42.973 43.018 43.006 43.048 43.051 43.148 43.188 43.226 43.176 43.168 43.173 43.113 43.041 42.998 42.926 42.866 42.848 42.791 42.563 42.241 42.103 42.048 41.958 41.863 41.853 41.758 41.643 41.613 41.553 41.528 41.508 41.476 41.463 41.446 41.436 41.436 41.418 41.436 41.426 41.463 41.508 41.526 41.573 41.581 41.638 41.713 41.716 41.713 41.686 41.788 41.768 41.646 41.718 41.763 41.876 42.258 42.158 41.873 41.891 41.913 42.036 42.243 42.333 42.331 42.236 42.188 42.168 42.141 42.141 42.101 42.081 42.051 41.956 41.943 41.908 41.953 41.883 41.803 41.856 41.778 41.723 41.716 41.633 41.701 41.796 41.926 42.001 41.941 41.716 41.593 41.643 41.661 41.621 41.711 41.771 41.751 41.743 41.698 41.586 41.501 41.473 41.513 41.471 41.446 41.413 41.351 41.198 41.111 41.071 41.026 40.993 40.953 40.946 40.941 40.983 41.068 41.116 41.233 41.196 41.128 41.063 41.133 41.138 41.026 40.911 40.796 40.671 40.621 40.686 40.851 41.006 40.936 40.521 40.203 40.071 40.138 40.088 40.038 40.236 40.346 40.306 40.256 40.198 40.143 40.131 40.123 40.123 40.068 39.983 39.941 39.931 39.881 39.841 39.841 39.821 39.853 39.868 39.848 39.868 39.916 39.973 39.908 39.893 39.856 39.816 39.768 39.631 39.608 39.563 39.511 39.486 39.458 39.336 39.311 39.241 39.208 39.108 39.093 39.056 39.018 38.966 38.888 38.813 38.763 38.696 38.708
