ncols 444
nrows 32
xllcorner    426064
yllcorner    487032
cellsize     2
NODATA_value -9999
48.235 48.205 48.21 48.16 48.085 48.098 47.853 47.618 47.688 47.755 47.775 47.723 47.565 47.31 47.315 47.32 47.288 47.198 47.125 47.095 46.978 46.91 46.895 46.895 46.835 46.823 46.813 46.83 46.855 46.885 46.888 46.88 46.87 46.885 46.905 46.923 46.903 46.903 46.96 46.948 46.938 46.97 46.985 46.998 47.02 47.045 47.018 46.995 47.023 47 47.035 47.02 47.018 47.055 47.05 47.098 47.12 47.078 47.073 47.065 47.04 47.058 47.053 47.025 47.038 47.065 47.04 47.045 47.045 47.05 47.045 47.12 47.108 47.07 47.045 47.095 47.045 47.025 47.053 47.048 47.01 46.953 47.015 47.025 46.995 46.963 46.978 46.97 46.938 46.928 46.91 46.915 46.908 46.948 46.868 46.878 46.888 46.858 46.843 46.823 46.745 46.79 46.79 46.78 46.765 46.758 46.785 46.75 46.758 46.798 46.78 46.748 46.728 46.728 46.76 46.725 46.683 46.713 46.728 46.713 46.695 46.648 46.648 46.63 46.64 46.645 46.625 46.64 46.653 46.615 46.623 46.64 46.658 46.645 46.645 46.595 46.585 46.6 46.573 46.568 46.573 46.533 46.53 46.48 46.538 46.543 46.53 46.558 46.548 46.523 46.538 46.555 46.54 46.57 46.603 46.618 46.635 46.673 46.71 46.76 46.86 46.945 47.028 46.94 47.005 47.023 46.988 46.878 46.825 46.793 46.753 46.683 46.593 46.53 46.485 46.455 46.443 46.438 46.415 46.38 46.368 46.355 46.335 46.328 46.328 46.323 46.325 46.283 46.255 46.29 46.25 46.213 46.188 46.205 46.168 46.165 46.183 46.125 46.14 46.123 46.103 46.068 46.053 46.058 46.045 46.028 46.03 45.985 45.945 45.958 45.91 45.908 45.878 45.825 45.77 45.76 45.76 45.72 45.718 45.7 45.628 45.618 45.59 45.588 45.53 45.495 45.428 45.408 45.338 45.323 45.275 45.245 45.223 45.173 45.133 45.08 45.083 45.008 44.985 44.973 44.898 44.875 44.86 44.848 44.8 44.765 44.703 44.653 44.57 44.513 44.473 44.395 44.37 44.33 44.293 44.253 44.235 44.2 44.15 44.155 44.135 44.17 44.168 44.17 44.16 44.153 44.183 44.205 44.203 44.19 44.205 44.19 44.173 44.14 44.03 43.858 43.755 43.783 43.743 43.723 43.648 43.593 43.563 43.515 43.443 43.415 43.403 43.265 43.175 43.15 43.135 43.135 43.123 43.108 43.06 43.005 43.048 43.073 42.99 42.953 42.968 42.9 42.903 42.828 42.778 42.713 42.648 42.558 42.49 42.393 42.325 42.208 42.133 42.055 42.008 41.953 41.905 41.94 41.895 41.855 41.83 41.818 41.818 41.803 41.708 41.768 41.718 41.655 41.62 41.52 41.523 41.485 41.505 41.445 41.445 41.408 41.38 41.38 41.353 41.27 41.255 41.245 41.228 41.2 41.158 41.173 41.175 41.155 41.115 41.11 41.083 41.055 41.02 40.995 40.97 40.948 40.915 40.84 40.855 40.85 40.863 40.835 40.778 40.775 40.8 40.77 40.703 40.68 40.64 40.595 40.535 40.555 40.58 40.563 40.578 40.553 40.56 40.61 40.61 40.623 40.635 40.665 40.673 40.68 40.67 40.708 40.748 40.773 40.81 40.78 40.695 40.733 40.76 40.745 40.733 40.7 40.678 40.63 40.605 40.585 40.533 40.483 40.468 40.495 40.54 40.71 40.838 40.818 40.7 40.578 40.528 40.54 40.555 40.505 40.538 40.55 40.593 40.598 40.6 40.57 40.593 40.593 40.568 40.6 40.598 40.6 40.635 40.65 40.633 40.605 40.618 40.628 40.63 40.603 40.57 40.575 40.585 40.62 40.635 40.638 40.648 40.633 40.66 40.628
48.25 48.26 48.215 48.2 48.135 48.153 47.903 47.618 47.715 47.785 47.825 47.723 47.538 47.305 47.355 47.328 47.298 47.193 47.1 47.058 46.988 46.925 46.89 46.875 46.835 46.823 46.843 46.853 46.878 46.865 46.88 46.863 46.86 46.85 46.87 46.908 46.875 46.9 46.94 46.953 46.928 46.938 46.983 47 47.015 47.02 47 47.003 46.993 47.003 47.018 47.038 47.048 47.05 47.06 47.088 47.105 47.085 47.073 47.058 47.055 47.048 47.038 47.048 47.078 47.053 47.048 47.105 47.11 47.078 47.043 47.078 47.085 47.06 47.08 47.103 47.068 47.045 47.078 47.04 47.035 47.033 47.058 47.01 46.965 46.945 46.915 46.863 46.858 46.85 46.873 46.888 46.873 46.855 46.848 46.815 46.795 46.793 46.76 46.803 46.82 46.835 46.785 46.755 46.745 46.713 46.795 46.76 46.693 46.728 46.695 46.685 46.7 46.7 46.728 46.675 46.678 46.705 46.693 46.65 46.603 46.633 46.603 46.575 46.63 46.595 46.585 46.613 46.62 46.605 46.608 46.623 46.638 46.608 46.61 46.6 46.603 46.608 46.578 46.583 46.53 46.518 46.5 46.488 46.508 46.488 46.5 46.488 46.52 46.515 46.523 46.558 46.56 46.57 46.575 46.6 46.608 46.673 46.675 46.71 46.81 46.895 47.05 47.015 46.978 47.023 46.943 46.865 46.803 46.783 46.758 46.673 46.603 46.548 46.463 46.45 46.443 46.445 46.405 46.41 46.373 46.33 46.348 46.358 46.345 46.343 46.323 46.28 46.285 46.258 46.235 46.23 46.208 46.2 46.175 46.17 46.17 46.138 46.12 46.128 46.115 46.103 46.058 46.05 46.058 46.065 46.033 46.01 45.965 45.963 45.923 45.915 45.908 45.853 45.768 45.788 45.793 45.738 45.728 45.728 45.675 45.638 45.61 45.57 45.52 45.488 45.45 45.4 45.33 45.335 45.28 45.248 45.235 45.168 45.13 45.08 45.075 45.068 44.995 44.98 44.918 44.92 44.875 44.858 44.833 44.753 44.71 44.645 44.608 44.545 44.48 44.425 44.378 44.323 44.3 44.25 44.245 44.208 44.16 44.123 44.145 44.145 44.17 44.185 44.13 44.125 44.16 44.188 44.203 44.178 44.215 44.215 44.165 44.14 44.083 43.96 43.855 43.835 43.843 43.79 43.708 43.653 43.56 43.513 43.42 43.435 43.495 43.388 43.238 43.243 43.19 43.18 43.165 43.163 43.155 43.063 43.033 43.038 42.97 42.948 42.96 42.95 42.918 42.868 42.845 42.788 42.713 42.663 42.635 42.628 42.49 42.423 42.355 42.233 42.11 42.08 42.048 42.058 42.013 41.993 41.963 41.958 41.878 41.848 41.848 41.835 41.823 41.758 41.703 41.62 41.568 41.49 41.458 41.485 41.465 41.455 41.348 41.365 41.353 41.303 41.273 41.268 41.24 41.215 41.208 41.188 41.17 41.13 41.09 41.1 41.058 41.053 40.988 40.97 40.95 40.883 40.843 40.828 40.835 40.835 40.81 40.785 40.78 40.745 40.75 40.753 40.7 40.668 40.628 40.555 40.543 40.495 40.498 40.455 40.448 40.463 40.448 40.485 40.468 40.47 40.525 40.503 40.5 40.498 40.57 40.588 40.64 40.64 40.678 40.683 40.645 40.64 40.655 40.628 40.603 40.578 40.55 40.5 40.548 40.483 40.415 40.373 40.32 40.3 40.328 40.39 40.583 40.715 40.743 40.665 40.573 40.5 40.453 40.483 40.495 40.495 40.533 40.52 40.555 40.54 40.523 40.5 40.533 40.55 40.585 40.6 40.583 40.61 40.62 40.598 40.605 40.603 40.608 40.605 40.555 40.545 40.545 40.6 40.615 40.6 40.573 40.613 40.655 40.638
48.295 48.28 48.238 48.22 48.165 48.163 47.903 47.673 47.73 47.85 47.913 47.875 47.57 47.268 47.333 47.338 47.28 47.18 47.073 47.043 47.003 46.948 46.878 46.868 46.845 46.82 46.848 46.845 46.865 46.87 46.88 46.86 46.848 46.833 46.86 46.873 46.885 46.875 46.888 46.885 46.938 46.96 46.988 47 46.973 46.988 47.003 46.998 46.998 46.985 46.998 47.028 47.058 47.058 47.088 47.105 47.1 47.105 47.08 47.058 47.063 47.078 47.128 47.108 47.08 47.085 47.093 47.06 47.09 47.06 47.043 47.058 47.078 47.068 47.08 47.065 47.078 47.07 47.048 47.035 47.02 47.03 47.018 46.943 46.923 46.923 46.89 46.858 46.828 46.84 46.838 46.81 46.81 46.765 46.77 46.763 46.783 46.78 46.773 46.765 46.78 46.755 46.715 46.71 46.698 46.663 46.7 46.665 46.683 46.655 46.67 46.623 46.643 46.63 46.648 46.618 46.623 46.58 46.598 46.61 46.605 46.573 46.573 46.585 46.585 46.553 46.525 46.558 46.605 46.568 46.568 46.553 46.573 46.563 46.593 46.6 46.555 46.583 46.54 46.515 46.493 46.51 46.505 46.45 46.465 46.43 46.438 46.485 46.495 46.52 46.515 46.535 46.533 46.558 46.563 46.545 46.595 46.635 46.678 46.69 46.77 46.885 47.005 47.04 46.965 46.995 46.975 46.878 46.805 46.758 46.72 46.685 46.593 46.543 46.475 46.438 46.448 46.458 46.435 46.408 46.37 46.348 46.35 46.368 46.348 46.305 46.308 46.278 46.27 46.268 46.233 46.225 46.213 46.185 46.173 46.153 46.173 46.153 46.133 46.12 46.113 46.09 46.063 46.088 46.1 46.09 46.048 46.025 45.99 45.973 45.94 45.905 45.883 45.87 45.813 45.79 45.773 45.775 45.745 45.708 45.668 45.643 45.625 45.595 45.533 45.495 45.468 45.418 45.345 45.325 45.288 45.255 45.235 45.173 45.118 45.085 45.08 45.07 45.005 44.983 44.93 44.915 44.925 44.865 44.838 44.8 44.725 44.655 44.613 44.573 44.533 44.44 44.383 44.338 44.318 44.285 44.235 44.223 44.168 44.14 44.135 44.115 44.148 44.183 44.163 44.133 44.128 44.125 44.173 44.168 44.19 44.21 44.183 44.135 44.135 44.088 43.913 43.855 43.89 43.873 43.8 43.728 43.613 43.518 43.445 43.438 43.463 43.47 43.363 43.275 43.27 43.208 43.168 43.16 43.155 43.095 43.058 43.025 42.988 42.95 42.965 42.948 42.94 42.875 42.87 42.848 42.735 42.738 42.745 42.705 42.625 42.563 42.445 42.378 42.308 42.218 42.21 42.15 42.165 42.128 42.118 42.115 42.078 42.06 42.063 42.013 41.975 41.91 41.84 41.758 41.673 41.648 41.553 41.525 41.498 41.455 41.433 41.443 41.375 41.313 41.308 41.305 41.288 41.243 41.21 41.178 41.175 41.103 41.08 41.055 41.058 41.03 40.983 40.935 40.923 40.875 40.79 40.808 40.788 40.798 40.783 40.798 40.805 40.763 40.735 40.73 40.73 40.67 40.62 40.54 40.508 40.463 40.423 40.388 40.4 40.383 40.383 40.368 40.353 40.375 40.43 40.373 40.405 40.41 40.48 40.465 40.508 40.533 40.535 40.565 40.575 40.475 40.533 40.553 40.455 40.448 40.418 40.403 40.418 40.383 40.295 40.29 40.215 40.183 40.138 40.143 40.278 40.46 40.715 40.7 40.63 40.543 40.493 40.463 40.408 40.385 40.398 40.395 40.485 40.463 40.475 40.46 40.428 40.48 40.508 40.523 40.538 40.565 40.6 40.588 40.578 40.573 40.59 40.59 40.56 40.535 40.553 40.563 40.583 40.563 40.555 40.565 40.62 40.618
48.295 48.29 48.248 48.253 48.25 48.168 47.938 47.693 47.783 47.795 47.915 47.868 47.595 47.31 47.29 47.318 47.29 47.23 47.158 47.138 46.993 46.955 46.858 46.845 46.898 46.89 46.888 46.86 46.873 46.853 46.855 46.865 46.82 46.833 46.845 46.873 46.878 46.883 46.908 46.89 46.933 46.963 46.97 46.948 46.95 46.963 46.975 47 47.023 47.018 47.033 47.028 47.06 47.085 47.068 47.125 47.123 47.12 47.11 47.098 47.103 47.118 47.133 47.078 47.083 47.078 47.113 47.078 47.1 47.128 47.133 47.103 47.07 47.078 47.058 47.048 47.07 47 46.973 47.013 47.005 47.003 46.96 46.923 46.903 46.878 46.848 46.828 46.795 46.805 46.743 46.755 46.785 46.775 46.795 46.783 46.79 46.768 46.748 46.72 46.733 46.73 46.69 46.643 46.658 46.628 46.633 46.655 46.635 46.595 46.625 46.593 46.6 46.56 46.565 46.613 46.595 46.588 46.573 46.53 46.515 46.525 46.548 46.52 46.513 46.508 46.498 46.515 46.528 46.528 46.54 46.528 46.535 46.535 46.54 46.585 46.548 46.548 46.538 46.495 46.475 46.5 46.493 46.44 46.458 46.443 46.443 46.45 46.463 46.458 46.508 46.513 46.558 46.543 46.528 46.533 46.603 46.603 46.633 46.653 46.74 46.838 46.97 47.055 47.02 46.94 46.94 46.895 46.838 46.785 46.725 46.685 46.625 46.553 46.5 46.468 46.44 46.458 46.43 46.385 46.365 46.338 46.343 46.33 46.32 46.315 46.315 46.298 46.293 46.268 46.243 46.23 46.213 46.163 46.158 46.14 46.123 46.148 46.138 46.16 46.13 46.08 46.088 46.085 46.083 46.098 46.048 46.063 45.965 45.993 45.953 45.903 45.883 45.873 45.808 45.795 45.775 45.768 45.733 45.698 45.66 45.65 45.655 45.593 45.55 45.515 45.465 45.415 45.39 45.32 45.293 45.27 45.228 45.188 45.12 45.113 45.103 45.08 45.028 44.988 44.933 44.928 44.913 44.903 44.875 44.84 44.743 44.7 44.64 44.55 44.53 44.47 44.393 44.328 44.318 44.288 44.248 44.19 44.17 44.133 44.133 44.138 44.138 44.135 44.153 44.125 44.103 44.123 44.145 44.185 44.175 44.17 44.195 44.143 44.198 44.145 44.043 43.863 43.87 43.905 43.86 43.775 43.718 43.59 43.468 43.388 43.383 43.448 43.37 43.275 43.29 43.255 43.203 43.168 43.08 43.08 43.035 42.98 42.998 43.035 42.998 42.975 42.928 42.913 42.898 42.863 42.82 42.818 42.803 42.768 42.695 42.653 42.583 42.52 42.425 42.378 42.333 42.243 42.278 42.268 42.27 42.298 42.29 42.243 42.283 42.275 42.19 42.143 42.008 41.938 41.84 41.76 41.688 41.563 41.535 41.503 41.543 41.503 41.44 41.338 41.363 41.345 41.283 41.25 41.198 41.175 41.168 41.07 41.065 41.035 41.015 41.015 40.958 40.938 40.913 40.88 40.818 40.808 40.803 40.765 40.775 40.803 40.778 40.75 40.74 40.71 40.673 40.625 40.543 40.503 40.473 40.423 40.363 40.345 40.335 40.305 40.3 40.325 40.273 40.273 40.318 40.29 40.278 40.318 40.32 40.333 40.388 40.42 40.423 40.415 40.455 40.41 40.388 40.423 40.35 40.343 40.323 40.268 40.245 40.23 40.2 40.18 40.1 40.073 40.045 39.998 40.023 40.16 40.503 40.643 40.63 40.595 40.518 40.46 40.35 40.348 40.318 40.333 40.345 40.378 40.415 40.425 40.388 40.388 40.403 40.42 40.483 40.53 40.54 40.575 40.535 40.555 40.563 40.535 40.538 40.538 40.525 40.52 40.548 40.568 40.53 40.535 40.578 40.558
48.318 48.308 48.283 48.278 48.293 48.245 47.978 47.693 47.795 47.87 47.965 47.853 47.58 47.345 47.303 47.303 47.298 47.208 47.18 47.16 47.025 46.943 46.85 46.838 46.858 46.878 46.86 46.845 46.863 46.843 46.845 46.825 46.835 46.855 46.848 46.875 46.88 46.898 46.883 46.898 46.938 46.925 46.948 46.968 46.985 46.98 47 47.04 47.043 47.018 47.058 47.073 47.07 47.065 47.105 47.105 47.105 47.1 47.105 47.08 47.073 47.085 47.13 47.16 47.095 47.095 47.088 47.123 47.07 47.095 47.093 47.06 47.093 47.043 47.008 46.955 46.988 46.99 47.033 46.97 46.945 46.933 46.873 46.858 46.84 46.835 46.798 46.823 46.785 46.748 46.733 46.728 46.755 46.78 46.78 46.745 46.773 46.788 46.718 46.693 46.703 46.69 46.635 46.605 46.593 46.605 46.553 46.595 46.565 46.538 46.523 46.538 46.553 46.54 46.51 46.525 46.545 46.538 46.528 46.465 46.455 46.483 46.485 46.478 46.478 46.458 46.48 46.503 46.52 46.5 46.503 46.49 46.513 46.53 46.505 46.528 46.533 46.533 46.52 46.473 46.5 46.448 46.438 46.465 46.438 46.438 46.435 46.45 46.455 46.433 46.48 46.473 46.498 46.515 46.53 46.508 46.558 46.583 46.605 46.635 46.693 46.823 46.923 47.043 47.105 46.965 46.973 46.923 46.843 46.768 46.743 46.675 46.618 46.555 46.535 46.475 46.438 46.43 46.428 46.388 46.39 46.388 46.323 46.328 46.31 46.313 46.325 46.31 46.28 46.245 46.228 46.223 46.22 46.17 46.17 46.163 46.17 46.165 46.173 46.16 46.135 46.113 46.113 46.1 46.055 46.07 46.07 46.048 46.023 45.985 45.938 45.923 45.89 45.878 45.84 45.8 45.798 45.763 45.75 45.725 45.668 45.635 45.64 45.578 45.585 45.518 45.453 45.42 45.403 45.338 45.303 45.253 45.243 45.225 45.155 45.115 45.088 45.053 45.04 45.01 44.968 44.938 44.955 44.943 44.893 44.853 44.78 44.73 44.668 44.565 44.53 44.488 44.418 44.325 44.313 44.293 44.263 44.205 44.19 44.158 44.138 44.123 44.11 44.13 44.14 44.118 44.098 44.133 44.13 44.133 44.14 44.13 44.15 44.188 44.175 44.195 44.113 44.01 43.938 43.925 44.003 43.97 43.923 43.648 43.56 43.475 43.403 43.39 43.38 43.333 43.308 43.273 43.205 43.178 43.105 43.093 43.093 43.035 42.968 42.993 43.015 42.975 42.985 42.943 42.93 42.868 42.895 42.873 42.868 42.815 42.763 42.743 42.66 42.615 42.575 42.575 42.51 42.405 42.395 42.443 42.465 42.485 42.48 42.47 42.455 42.413 42.368 42.313 42.233 42.15 42.045 41.89 41.833 41.685 41.683 41.625 41.615 41.575 41.533 41.43 41.383 41.345 41.303 41.288 41.203 41.183 41.145 41.093 41.108 41.04 41.005 40.988 40.95 40.935 40.918 40.895 40.838 40.833 40.808 40.74 40.745 40.75 40.718 40.713 40.688 40.653 40.665 40.605 40.513 40.455 40.455 40.373 40.353 40.328 40.325 40.258 40.278 40.273 40.205 40.173 40.208 40.213 40.205 40.185 40.218 40.263 40.283 40.285 40.3 40.278 40.3 40.298 40.273 40.25 40.228 40.21 40.205 40.168 40.118 40.108 40.11 40.053 40.02 39.98 39.923 39.905 39.878 39.895 40.018 40.19 40.57 40.61 40.578 40.513 40.42 40.348 40.328 40.288 40.263 40.275 40.31 40.325 40.328 40.325 40.343 40.348 40.37 40.425 40.475 40.518 40.538 40.53 40.51 40.515 40.533 40.508 40.45 40.455 40.498 40.503 40.483 40.485 40.483 40.483
48.363 48.325 48.32 48.293 48.318 48.265 48.025 47.73 47.845 47.903 47.905 47.863 47.565 47.315 47.25 47.248 47.23 47.175 47.088 47.065 46.983 46.913 46.868 46.845 46.855 46.86 46.85 46.855 46.845 46.838 46.833 46.835 46.863 46.863 46.875 46.89 46.87 46.898 46.89 46.91 46.928 46.928 46.955 46.975 46.975 47.018 47.028 47.03 47.053 47.015 47.038 47.075 47.07 47.05 47.09 47.085 47.075 47.105 47.13 47.09 47.083 47.123 47.153 47.158 47.118 47.1 47.1 47.098 47.043 47 47.015 47.005 47.028 47.045 47.02 46.975 47.038 46.99 47.003 46.915 46.925 46.905 46.828 46.83 46.835 46.858 46.82 46.818 46.765 46.738 46.745 46.72 46.72 46.728 46.698 46.698 46.735 46.708 46.658 46.673 46.645 46.608 46.61 46.6 46.565 46.54 46.535 46.543 46.515 46.48 46.478 46.533 46.498 46.508 46.515 46.505 46.498 46.508 46.478 46.495 46.478 46.493 46.443 46.42 46.44 46.413 46.425 46.453 46.458 46.49 46.508 46.48 46.493 46.503 46.495 46.503 46.533 46.51 46.47 46.465 46.468 46.413 46.47 46.45 46.41 46.418 46.433 46.405 46.405 46.418 46.435 46.443 46.45 46.48 46.48 46.51 46.54 46.56 46.553 46.62 46.65 46.778 46.878 47.02 47.065 46.995 46.968 46.903 46.813 46.733 46.713 46.703 46.623 46.598 46.52 46.49 46.445 46.408 46.395 46.39 46.373 46.373 46.34 46.348 46.31 46.31 46.293 46.288 46.278 46.255 46.238 46.238 46.21 46.205 46.173 46.18 46.195 46.16 46.173 46.145 46.135 46.123 46.12 46.123 46.06 46.09 46.083 46.063 46.013 45.983 45.945 45.913 45.895 45.888 45.85 45.805 45.775 45.748 45.735 45.703 45.663 45.65 45.62 45.598 45.558 45.51 45.473 45.415 45.39 45.373 45.313 45.285 45.258 45.248 45.173 45.14 45.1 45.088 45.078 45.04 44.998 44.99 44.955 44.948 44.888 44.853 44.823 44.743 44.69 44.62 44.583 44.49 44.443 44.365 44.31 44.293 44.293 44.23 44.21 44.18 44.15 44.138 44.12 44.093 44.148 44.1 44.063 44.093 44.108 44.123 44.125 44.118 44.15 44.175 44.123 44.175 44.11 44.048 44.003 43.945 43.985 43.97 43.92 43.785 43.625 43.483 43.38 43.355 43.365 43.395 43.288 43.215 43.215 43.168 43.123 43.095 43.113 43.055 42.995 42.98 43.005 42.985 42.958 42.935 42.93 42.908 42.858 42.85 42.845 42.85 42.82 42.778 42.71 42.708 42.668 42.653 42.658 42.595 42.57 42.588 42.583 42.598 42.595 42.563 42.578 42.535 42.488 42.415 42.37 42.33 42.188 42.075 41.995 41.918 41.85 41.79 41.713 41.675 41.603 41.535 41.458 41.393 41.32 41.27 41.24 41.19 41.163 41.098 41.063 41.033 41.008 40.983 40.958 40.933 40.94 40.855 40.815 40.823 40.773 40.73 40.69 40.72 40.688 40.693 40.658 40.625 40.598 40.56 40.488 40.428 40.418 40.36 40.335 40.29 40.265 40.233 40.22 40.188 40.158 40.125 40.16 40.148 40.15 40.128 40.133 40.148 40.173 40.16 40.18 40.153 40.178 40.183 40.148 40.105 40.085 40.078 40.053 40.063 40 39.955 39.918 39.89 39.885 39.865 39.828 39.795 39.785 39.743 39.75 39.85 40.038 40.305 40.505 40.52 40.445 40.405 40.353 40.31 40.268 40.218 40.218 40.213 40.25 40.278 40.278 40.268 40.29 40.325 40.37 40.413 40.465 40.51 40.503 40.48 40.465 40.473 40.453 40.415 40.46 40.47 40.455 40.465 40.468 40.475
48.365 48.318 48.315 48.29 48.33 48.275 47.953 47.735 47.82 47.873 47.955 47.89 47.58 47.33 47.268 47.235 47.228 47.15 47.06 47.018 46.898 46.895 46.913 46.89 46.87 46.863 46.853 46.885 46.878 46.87 46.88 46.86 46.87 46.878 46.878 46.888 46.925 46.925 46.928 46.928 46.928 46.963 46.988 46.993 46.995 47.028 47.003 46.998 47.035 47.003 46.995 47 47.01 47.045 47.075 47.083 47.095 47.12 47.143 47.105 47.125 47.125 47.148 47.185 47.11 47.09 47.048 47.033 47.05 47.048 46.98 46.98 47.018 47.013 47.015 47.015 47.003 46.943 46.93 46.878 46.853 46.903 46.855 46.84 46.82 46.8 46.79 46.785 46.745 46.735 46.718 46.73 46.708 46.685 46.668 46.698 46.68 46.665 46.638 46.635 46.608 46.54 46.568 46.53 46.535 46.508 46.483 46.483 46.485 46.5 46.453 46.478 46.465 46.435 46.473 46.478 46.488 46.445 46.425 46.445 46.46 46.423 46.405 46.398 46.39 46.38 46.4 46.423 46.42 46.478 46.49 46.44 46.45 46.473 46.485 46.495 46.495 46.485 46.475 46.465 46.465 46.423 46.433 46.413 46.4 46.37 46.383 46.388 46.38 46.408 46.4 46.428 46.443 46.48 46.478 46.48 46.5 46.553 46.545 46.595 46.63 46.743 46.81 46.95 47.023 47.003 46.948 46.86 46.803 46.755 46.718 46.723 46.655 46.605 46.535 46.495 46.455 46.413 46.39 46.42 46.35 46.37 46.36 46.305 46.32 46.325 46.313 46.288 46.278 46.265 46.243 46.24 46.238 46.243 46.21 46.168 46.168 46.138 46.16 46.153 46.12 46.17 46.163 46.11 46.088 46.058 46.078 46.068 46.025 45.985 45.975 45.938 45.9 45.865 45.86 45.808 45.755 45.718 45.715 45.69 45.698 45.633 45.603 45.59 45.573 45.538 45.49 45.468 45.435 45.343 45.31 45.32 45.255 45.245 45.183 45.163 45.133 45.073 45.078 45.065 45.028 44.99 44.975 44.955 44.938 44.878 44.833 44.785 44.705 44.623 44.563 44.488 44.443 44.405 44.35 44.308 44.265 44.258 44.243 44.183 44.135 44.118 44.148 44.12 44.16 44.133 44.078 44.085 44.085 44.108 44.11 44.105 44.118 44.14 44.12 44.095 44.098 44.048 44.023 43.898 43.928 43.968 44.013 43.833 43.69 43.543 43.473 43.385 43.353 43.375 43.308 43.26 43.245 43.195 43.105 43.108 43.11 43.06 43.013 42.988 43.02 42.97 42.948 42.933 42.935 42.935 42.885 42.873 42.858 42.825 42.825 42.805 42.755 42.765 42.718 42.713 42.73 42.698 42.708 42.715 42.675 42.673 42.638 42.628 42.628 42.585 42.563 42.57 42.498 42.408 42.318 42.218 42.113 42.038 41.975 41.863 41.823 41.75 41.668 41.563 41.498 41.405 41.325 41.273 41.278 41.183 41.148 41.1 41.035 41.018 40.995 40.923 40.92 40.905 40.868 40.855 40.798 40.765 40.743 40.71 40.68 40.7 40.673 40.66 40.605 40.575 40.545 40.54 40.46 40.4 40.405 40.35 40.308 40.258 40.215 40.208 40.168 40.16 40.145 40.078 40.073 40.103 40.14 40.093 40.063 40.068 40.09 40.078 40.068 40.058 40.055 40.068 40.018 39.968 39.94 39.943 39.895 39.898 39.893 39.83 39.803 39.745 39.73 39.753 39.743 39.7 39.683 39.668 39.628 39.683 39.745 39.858 40.09 40.21 40.375 40.415 40.395 40.335 40.238 40.21 40.218 40.2 40.158 40.185 40.168 40.2 40.25 40.278 40.288 40.325 40.36 40.425 40.43 40.448 40.423 40.448 40.443 40.423 40.395 40.408 40.418 40.42 40.458 40.438
48.363 48.355 48.368 48.335 48.31 48.188 47.875 47.758 47.863 47.91 47.923 47.89 47.568 47.29 47.19 47.228 47.22 47.105 47.05 47.03 46.945 46.905 46.883 46.898 46.883 46.9 46.88 46.898 46.915 46.89 46.89 46.903 46.898 46.88 46.9 46.915 46.945 46.973 46.968 46.958 46.995 46.98 46.958 46.978 47.005 47 46.993 47.025 47.01 47 46.978 46.973 47.003 47.015 47.068 47.05 47.068 47.113 47.115 47.143 47.155 47.13 47.063 47.07 47.078 47.065 47.048 47.053 47.06 47.068 47.03 47.018 47.005 46.98 46.988 46.99 46.953 46.94 46.908 46.915 46.87 46.858 46.853 46.825 46.803 46.775 46.763 46.76 46.723 46.708 46.703 46.703 46.668 46.638 46.658 46.678 46.648 46.61 46.603 46.625 46.58 46.508 46.515 46.503 46.465 46.463 46.445 46.418 46.47 46.458 46.445 46.443 46.448 46.415 46.44 46.438 46.44 46.443 46.368 46.395 46.398 46.375 46.395 46.37 46.338 46.333 46.37 46.4 46.403 46.418 46.433 46.423 46.44 46.458 46.425 46.418 46.445 46.48 46.438 46.433 46.428 46.425 46.423 46.4 46.4 46.35 46.323 46.373 46.373 46.385 46.393 46.395 46.415 46.41 46.43 46.485 46.48 46.53 46.548 46.563 46.605 46.673 46.773 46.903 47.02 47.055 47.003 46.87 46.81 46.765 46.708 46.688 46.67 46.623 46.555 46.495 46.438 46.433 46.388 46.405 46.368 46.37 46.355 46.338 46.358 46.308 46.28 46.273 46.26 46.268 46.278 46.243 46.235 46.208 46.223 46.2 46.193 46.178 46.153 46.175 46.15 46.158 46.135 46.133 46.1 46.058 46.05 46.038 46.018 45.993 45.948 45.94 45.888 45.873 45.85 45.813 45.768 45.74 45.75 45.713 45.693 45.668 45.618 45.59 45.583 45.553 45.518 45.465 45.423 45.373 45.313 45.303 45.29 45.248 45.208 45.2 45.165 45.128 45.095 45.065 45.043 45.008 44.955 44.938 44.948 44.888 44.838 44.783 44.703 44.655 44.565 44.505 44.473 44.413 44.37 44.338 44.29 44.3 44.24 44.225 44.143 44.09 44.163 44.12 44.12 44.148 44.09 44.085 44.073 44.038 44.063 44.07 44.063 44.098 44.083 44.05 44.025 44.02 44.055 43.983 43.923 43.94 44.018 43.895 43.775 43.61 43.485 43.428 43.353 43.285 43.328 43.348 43.265 43.198 43.133 43.11 43.088 43.043 43.04 43.018 42.948 42.955 42.965 42.968 42.94 42.923 42.935 42.848 42.868 42.87 42.863 42.795 42.785 42.783 42.73 42.75 42.78 42.768 42.738 42.73 42.715 42.718 42.67 42.668 42.665 42.615 42.6 42.58 42.563 42.453 42.39 42.293 42.213 42.135 42.058 41.98 41.89 41.818 41.73 41.63 41.533 41.45 41.358 41.325 41.238 41.188 41.175 41.103 41.048 41.025 40.995 40.955 40.905 40.893 40.87 40.795 40.765 40.763 40.728 40.685 40.668 40.653 40.618 40.605 40.59 40.568 40.52 40.515 40.453 40.393 40.383 40.363 40.275 40.205 40.208 40.178 40.12 40.11 40.103 40.073 40.063 40.073 40.053 40.055 40.025 39.988 39.983 40 39.973 39.98 39.965 39.948 39.893 39.838 39.805 39.813 39.793 39.745 39.74 39.7 39.67 39.628 39.625 39.635 39.655 39.635 39.615 39.57 39.575 39.6 39.61 39.623 39.69 39.838 40.058 40.308 40.368 40.355 40.328 40.253 40.23 40.183 40.175 40.155 40.123 40.118 40.16 40.253 40.265 40.28 40.313 40.345 40.36 40.415 40.425 40.443 40.44 40.4 40.37 40.375 40.363 40.383 40.4 40.408
48.38 48.38 48.34 48.318 48.295 48.168 47.835 47.79 47.908 47.953 48.068 47.87 47.543 47.295 47.185 47.225 47.195 47.103 47.043 47.06 46.988 46.945 46.91 46.933 46.913 46.928 46.94 46.918 46.915 46.908 46.928 46.92 46.935 46.943 46.95 46.97 46.988 46.983 46.94 46.985 47.023 46.97 46.948 46.935 46.943 46.983 46.963 46.99 46.95 46.973 46.983 46.988 46.978 47.033 47.083 47.038 47.06 47.098 47.105 47.068 47.065 47.048 47.038 47.04 47.06 47.038 47.043 47.035 47.05 47.028 47.005 47.015 47.003 46.995 46.96 46.948 46.95 46.925 46.92 46.828 46.808 46.855 46.798 46.783 46.75 46.723 46.758 46.733 46.695 46.703 46.725 46.68 46.65 46.615 46.628 46.608 46.62 46.59 46.565 46.563 46.548 46.518 46.5 46.48 46.43 46.423 46.38 46.403 46.42 46.433 46.423 46.373 46.403 46.393 46.413 46.378 46.375 46.37 46.34 46.333 46.35 46.333 46.33 46.345 46.343 46.295 46.353 46.358 46.368 46.383 46.39 46.368 46.388 46.415 46.433 46.41 46.435 46.433 46.38 46.4 46.403 46.4 46.368 46.345 46.348 46.318 46.343 46.333 46.353 46.343 46.345 46.368 46.4 46.383 46.408 46.453 46.463 46.503 46.525 46.553 46.598 46.645 46.743 46.85 46.948 47.083 47.058 46.935 46.838 46.793 46.708 46.665 46.66 46.63 46.57 46.538 46.438 46.413 46.388 46.393 46.37 46.363 46.345 46.33 46.318 46.303 46.285 46.273 46.27 46.278 46.263 46.235 46.243 46.225 46.198 46.215 46.19 46.188 46.168 46.168 46.158 46.11 46.143 46.14 46.088 46.063 46.055 46.048 46.028 45.995 45.96 45.948 45.905 45.863 45.815 45.79 45.79 45.768 45.74 45.715 45.688 45.65 45.653 45.608 45.598 45.553 45.533 45.468 45.413 45.395 45.358 45.33 45.3 45.25 45.22 45.19 45.185 45.145 45.118 45.08 45.068 45.02 44.983 44.945 44.963 44.91 44.838 44.803 44.723 44.645 44.563 44.498 44.485 44.42 44.378 44.345 44.325 44.293 44.273 44.24 44.14 44.108 44.133 44.138 44.123 44.155 44.103 44.06 44.05 44.055 44.063 44.04 44.003 44.043 44.053 44.015 43.998 43.995 44.013 44.033 43.928 43.963 44.025 43.995 43.925 43.783 43.603 43.463 43.398 43.315 43.34 43.338 43.27 43.185 43.175 43.138 43.1 43.058 43.013 42.993 42.95 42.928 42.99 42.945 42.915 42.933 42.933 42.908 42.913 42.898 42.885 42.835 42.808 42.775 42.8 42.773 42.775 42.773 42.793 42.738 42.735 42.74 42.698 42.683 42.685 42.64 42.61 42.605 42.568 42.495 42.458 42.38 42.268 42.23 42.105 42.015 41.91 41.843 41.768 41.665 41.565 41.465 41.375 41.333 41.273 41.228 41.163 41.118 41.073 41.038 40.958 40.923 40.91 40.888 40.845 40.783 40.733 40.67 40.67 40.635 40.643 40.613 40.58 40.588 40.548 40.53 40.538 40.498 40.49 40.423 40.39 40.345 40.298 40.198 40.17 40.128 40.115 40.11 40.09 40.058 40.058 40.043 40.003 40.005 39.99 39.945 39.908 39.915 39.913 39.888 39.883 39.818 39.795 39.795 39.705 39.663 39.64 39.623 39.6 39.59 39.573 39.565 39.543 39.52 39.515 39.573 39.523 39.525 39.503 39.518 39.528 39.5 39.513 39.55 39.708 39.938 40.083 40.318 40.318 40.293 40.253 40.238 40.205 40.178 40.178 40.14 40.148 40.138 40.188 40.243 40.285 40.323 40.325 40.343 40.363 40.353 40.388 40.383 40.338 40.355 40.34 40.338 40.358 40.34
48.403 48.425 48.333 48.318 48.3 48.095 47.828 47.768 47.898 47.955 48.033 47.748 47.458 47.258 47.163 47.153 47.163 47.118 47.068 47.115 47.06 46.988 46.943 46.928 46.95 46.955 46.94 46.935 46.918 46.938 46.975 46.96 46.938 46.955 47.003 47.025 46.985 46.943 46.923 46.933 46.908 46.925 46.893 46.935 46.963 46.968 46.96 46.998 46.99 46.975 46.95 46.985 47.005 46.998 47.01 47.035 47.023 47.05 47.07 47.078 47.073 47.06 47.043 47.053 47.033 47.003 47.008 47 47.003 46.968 46.968 46.965 46.955 46.943 46.93 46.913 46.885 46.893 46.898 46.825 46.815 46.833 46.778 46.75 46.713 46.688 46.698 46.715 46.703 46.68 46.675 46.61 46.62 46.598 46.585 46.59 46.573 46.57 46.543 46.528 46.493 46.458 46.493 46.438 46.42 46.43 46.385 46.375 46.365 46.375 46.365 46.343 46.36 46.36 46.368 46.378 46.35 46.338 46.333 46.313 46.335 46.333 46.325 46.32 46.32 46.293 46.318 46.318 46.36 46.323 46.355 46.318 46.365 46.355 46.39 46.388 46.43 46.405 46.385 46.34 46.338 46.348 46.338 46.34 46.368 46.355 46.305 46.295 46.303 46.313 46.34 46.365 46.373 46.4 46.393 46.415 46.443 46.52 46.515 46.52 46.575 46.643 46.698 46.775 46.88 47.038 47.083 46.97 46.835 46.753 46.72 46.648 46.668 46.625 46.583 46.538 46.43 46.395 46.393 46.365 46.395 46.358 46.323 46.325 46.323 46.305 46.288 46.298 46.278 46.248 46.245 46.228 46.23 46.225 46.208 46.17 46.208 46.198 46.145 46.158 46.148 46.11 46.118 46.133 46.113 46.088 46.045 46.04 46.003 45.993 45.998 45.935 45.893 45.87 45.84 45.833 45.82 45.778 45.73 45.72 45.708 45.658 45.67 45.648 45.623 45.535 45.52 45.458 45.423 45.395 45.38 45.328 45.293 45.273 45.19 45.198 45.18 45.143 45.095 45.118 45.06 45.013 44.998 44.983 44.945 44.908 44.855 44.805 44.758 44.683 44.623 44.553 44.513 44.465 44.435 44.398 44.345 44.315 44.288 44.233 44.198 44.175 44.135 44.11 44.085 44.125 44.105 44.06 44.043 44.013 44.018 44.02 44 44.015 44.043 44.005 43.998 44.013 43.98 43.993 43.97 43.93 43.99 43.998 44.043 43.895 43.79 43.553 43.41 43.35 43.348 43.235 43.24 43.185 43.188 43.133 43.088 43.078 43.018 43.025 43.02 42.953 42.995 42.98 42.935 42.933 42.965 42.945 42.87 42.888 42.825 42.823 42.82 42.793 42.823 42.793 42.798 42.788 42.805 42.755 42.78 42.783 42.783 42.703 42.733 42.69 42.65 42.618 42.563 42.51 42.4 42.38 42.29 42.22 42.155 42.06 41.993 41.88 41.815 41.683 41.645 41.52 41.435 41.358 41.285 41.205 41.175 41.14 41.088 41.07 40.97 40.91 40.875 40.863 40.84 40.768 40.73 40.725 40.643 40.625 40.593 40.568 40.56 40.555 40.545 40.528 40.51 40.483 40.455 40.395 40.373 40.34 40.275 40.188 40.13 40.128 40.123 40.095 40.078 40.033 40.04 40.008 39.988 39.953 39.945 39.92 39.84 39.87 39.84 39.81 39.76 39.738 39.73 39.685 39.635 39.61 39.553 39.523 39.493 39.495 39.505 39.47 39.448 39.458 39.43 39.423 39.445 39.485 39.44 39.425 39.41 39.395 39.42 39.425 39.44 39.543 39.665 39.905 40.11 40.213 40.305 40.293 40.29 40.22 40.2 40.195 40.148 40.138 40.105 40.118 40.185 40.26 40.298 40.3 40.318 40.308 40.345 40.345 40.318 40.32 40.3 40.298 40.3 40.285
48.415 48.4 48.345 48.35 48.325 48.095 47.813 47.805 47.865 47.888 47.78 47.59 47.428 47.243 47.163 47.163 47.1 47.11 47.108 47.138 47.105 47.028 46.965 46.975 47 46.98 46.978 46.943 46.95 46.938 47.01 46.983 46.915 46.958 46.965 46.913 46.91 46.928 46.915 46.923 46.935 46.93 46.943 46.933 46.93 46.933 46.935 46.98 46.965 46.925 46.965 46.97 46.933 46.938 46.98 46.978 46.98 47.015 47.003 47.033 47.045 47.023 46.993 47.01 46.998 46.978 46.928 46.96 46.96 46.938 46.92 46.935 46.93 46.898 46.848 46.863 46.85 46.848 46.835 46.785 46.79 46.783 46.738 46.73 46.713 46.728 46.738 46.703 46.685 46.655 46.658 46.635 46.585 46.575 46.563 46.548 46.523 46.523 46.483 46.498 46.46 46.435 46.44 46.438 46.425 46.403 46.35 46.328 46.33 46.358 46.318 46.35 46.373 46.355 46.328 46.313 46.283 46.293 46.278 46.25 46.28 46.318 46.28 46.285 46.268 46.265 46.268 46.298 46.315 46.278 46.333 46.305 46.32 46.328 46.305 46.333 46.385 46.378 46.36 46.33 46.343 46.338 46.318 46.325 46.335 46.338 46.29 46.285 46.305 46.313 46.318 46.33 46.315 46.355 46.36 46.403 46.44 46.475 46.48 46.523 46.573 46.643 46.643 46.72 46.828 46.96 47.083 47.02 46.833 46.758 46.703 46.653 46.653 46.64 46.595 46.533 46.473 46.433 46.388 46.355 46.36 46.36 46.32 46.34 46.325 46.283 46.285 46.305 46.253 46.23 46.243 46.268 46.253 46.223 46.208 46.193 46.175 46.185 46.153 46.128 46.16 46.125 46.128 46.135 46.105 46.085 46.05 46.015 46 46.008 45.978 45.945 45.908 45.883 45.85 45.858 45.808 45.775 45.723 45.745 45.72 45.695 45.65 45.635 45.59 45.548 45.503 45.518 45.455 45.428 45.415 45.315 45.288 45.265 45.238 45.225 45.175 45.135 45.113 45.11 45.045 45.04 45.023 44.98 44.943 44.913 44.868 44.805 44.763 44.718 44.613 44.58 44.543 44.49 44.428 44.39 44.353 44.32 44.313 44.26 44.223 44.17 44.145 44.13 44.1 44.12 44.098 44.085 44.013 43.978 43.998 43.978 43.985 43.975 43.97 43.97 43.988 43.965 43.92 43.933 43.968 43.923 43.918 43.945 44 43.928 43.85 43.69 43.47 43.365 43.318 43.27 43.278 43.265 43.21 43.148 43.145 43.095 43.053 43.023 43.025 42.993 42.94 43 42.99 42.965 42.895 42.945 42.915 42.905 42.845 42.833 42.803 42.8 42.808 42.768 42.788 42.793 42.815 42.788 42.793 42.778 42.788 42.758 42.725 42.713 42.673 42.623 42.56 42.51 42.428 42.373 42.32 42.203 42.165 42.03 42.028 41.928 41.868 41.763 41.67 41.59 41.5 41.4 41.333 41.243 41.21 41.145 41.098 41.073 41.03 40.95 40.903 40.838 40.83 40.773 40.713 40.68 40.613 40.638 40.6 40.555 40.565 40.545 40.51 40.515 40.493 40.445 40.433 40.4 40.353 40.315 40.243 40.203 40.165 40.148 40.093 40.1 40.08 39.988 39.978 39.983 39.94 39.923 39.9 39.883 39.825 39.755 39.753 39.763 39.698 39.658 39.633 39.578 39.578 39.53 39.52 39.465 39.428 39.445 39.455 39.415 39.408 39.43 39.368 39.313 39.343 39.35 39.355 39.345 39.353 39.333 39.393 39.358 39.34 39.338 39.403 39.443 39.63 39.873 40.108 40.16 40.195 40.208 40.243 40.21 40.215 40.208 40.133 40.123 40.11 40.163 40.228 40.268 40.298 40.29 40.285 40.295 40.293 40.28 40.268 40.26 40.255 40.26
48.448 48.365 48.33 48.34 48.235 47.945 47.808 47.84 47.845 47.813 47.663 47.53 47.448 47.32 47.245 47.173 47.138 47.12 47.123 47.138 47.098 47.035 47.008 47.005 47.005 47.008 47.02 46.985 46.955 46.995 46.97 46.923 46.9 46.915 46.878 46.88 46.885 46.88 46.915 46.915 46.923 46.933 46.958 46.938 46.92 46.913 46.925 46.918 46.925 46.943 46.983 46.968 46.925 46.933 46.94 46.953 46.935 46.95 46.938 46.943 47.013 46.98 46.955 46.958 46.993 46.935 46.885 46.92 46.928 46.923 46.915 46.9 46.878 46.88 46.828 46.82 46.835 46.805 46.785 46.805 46.778 46.783 46.74 46.74 46.733 46.695 46.683 46.725 46.655 46.643 46.625 46.595 46.615 46.585 46.545 46.548 46.493 46.463 46.475 46.473 46.468 46.435 46.423 46.385 46.35 46.37 46.35 46.35 46.34 46.318 46.32 46.308 46.225 46.293 46.268 46.29 46.253 46.238 46.245 46.21 46.198 46.243 46.258 46.233 46.248 46.238 46.21 46.24 46.24 46.225 46.283 46.313 46.29 46.283 46.283 46.318 46.34 46.35 46.333 46.323 46.33 46.323 46.313 46.308 46.315 46.31 46.273 46.285 46.283 46.273 46.305 46.318 46.345 46.373 46.395 46.39 46.428 46.46 46.478 46.478 46.565 46.593 46.613 46.658 46.763 46.885 47.015 47 46.868 46.798 46.743 46.693 46.635 46.658 46.59 46.533 46.47 46.435 46.408 46.37 46.34 46.345 46.325 46.32 46.313 46.275 46.26 46.26 46.263 46.24 46.265 46.25 46.213 46.205 46.21 46.19 46.158 46.165 46.165 46.15 46.128 46.12 46.118 46.133 46.093 46.085 46.06 46.01 46.018 46.01 45.96 45.95 45.913 45.893 45.853 45.865 45.835 45.793 45.718 45.745 45.735 45.7 45.643 45.633 45.605 45.575 45.553 45.548 45.503 45.44 45.413 45.345 45.328 45.29 45.243 45.213 45.2 45.178 45.143 45.093 45.065 45.07 45.018 44.978 44.955 44.94 44.908 44.843 44.765 44.703 44.64 44.573 44.538 44.488 44.435 44.375 44.343 44.308 44.298 44.28 44.24 44.18 44.173 44.118 44.095 44.085 44.098 44.088 43.995 43.998 43.963 43.953 43.968 43.938 43.928 43.955 43.948 43.925 43.915 43.89 43.92 43.943 43.895 43.92 43.973 43.95 43.91 43.75 43.61 43.473 43.363 43.293 43.26 43.293 43.243 43.133 43.115 43.078 43.055 43.025 43.045 43.015 42.955 42.975 42.988 42.928 42.905 42.918 42.92 42.913 42.87 42.85 42.865 42.835 42.853 42.838 42.84 42.838 42.81 42.798 42.778 42.738 42.753 42.773 42.715 42.665 42.63 42.58 42.525 42.51 42.45 42.405 42.348 42.26 42.178 42.095 42.03 41.965 41.913 41.815 41.698 41.615 41.585 41.458 41.38 41.335 41.288 41.203 41.135 41.068 41.018 40.968 40.903 40.838 40.805 40.75 40.688 40.703 40.643 40.61 40.595 40.563 40.535 40.545 40.52 40.503 40.483 40.445 40.445 40.4 40.323 40.288 40.248 40.235 40.18 40.148 40.093 40.068 40.025 39.985 39.955 39.975 39.913 39.88 39.875 39.853 39.773 39.695 39.693 39.69 39.68 39.595 39.585 39.548 39.518 39.478 39.46 39.403 39.42 39.408 39.378 39.36 39.303 39.358 39.31 39.268 39.273 39.278 39.273 39.283 39.305 39.33 39.313 39.273 39.295 39.273 39.245 39.198 39.238 39.4 39.61 39.683 39.713 39.878 40.013 40.138 40.265 40.273 40.233 40.188 40.14 40.125 40.133 40.185 40.21 40.263 40.243 40.225 40.265 40.31 40.258 40.245 40.25 40.258
48.468 48.415 48.368 48.345 48.233 47.943 47.818 47.848 47.913 47.908 47.733 47.558 47.455 47.323 47.24 47.223 47.193 47.183 47.138 47.12 47.078 47.073 47.02 46.983 47.035 47.055 46.988 46.973 46.945 46.9 46.873 46.87 46.863 46.868 46.89 46.905 46.895 46.888 46.888 46.905 46.923 46.938 46.91 46.9 46.925 46.9 46.93 46.92 46.955 46.96 46.928 46.915 46.918 46.9 46.91 46.885 46.878 46.873 46.915 46.93 46.903 46.91 46.953 46.925 46.905 46.873 46.895 46.903 46.858 46.85 46.84 46.815 46.8 46.833 46.81 46.833 46.823 46.798 46.785 46.788 46.76 46.765 46.758 46.713 46.72 46.728 46.703 46.69 46.645 46.643 46.61 46.563 46.555 46.523 46.493 46.508 46.49 46.453 46.46 46.453 46.43 46.41 46.358 46.348 46.323 46.34 46.32 46.295 46.285 46.27 46.285 46.28 46.263 46.228 46.258 46.238 46.175 46.175 46.173 46.165 46.19 46.208 46.218 46.223 46.223 46.213 46.22 46.22 46.203 46.205 46.218 46.235 46.245 46.255 46.273 46.273 46.293 46.3 46.313 46.3 46.28 46.308 46.3 46.273 46.278 46.293 46.288 46.283 46.22 46.288 46.308 46.3 46.313 46.358 46.368 46.398 46.405 46.4 46.43 46.47 46.5 46.538 46.573 46.61 46.708 46.783 46.928 47.038 46.995 46.793 46.73 46.72 46.648 46.63 46.603 46.54 46.48 46.443 46.39 46.355 46.33 46.355 46.318 46.323 46.323 46.29 46.245 46.248 46.26 46.245 46.268 46.265 46.23 46.19 46.19 46.163 46.185 46.128 46.15 46.138 46.118 46.11 46.125 46.108 46.108 46.105 46.085 46.035 46.02 46 45.988 45.97 45.928 45.905 45.893 45.83 45.845 45.805 45.748 45.73 45.715 45.698 45.665 45.668 45.625 45.598 45.548 45.53 45.488 45.455 45.41 45.385 45.335 45.293 45.25 45.223 45.205 45.193 45.153 45.13 45.118 45.098 45.04 45.01 44.983 44.955 44.9 44.858 44.78 44.735 44.66 44.608 44.538 44.478 44.445 44.383 44.348 44.31 44.258 44.255 44.238 44.195 44.143 44.118 44.09 44.063 44.07 44.098 44.03 44.01 43.955 43.94 43.925 43.91 43.9 43.903 43.885 43.89 43.88 43.838 43.855 43.953 43.92 43.86 43.908 43.93 43.928 43.805 43.705 43.523 43.373 43.243 43.195 43.275 43.195 43.14 43.108 43.078 43.075 43.015 43.03 43.048 43 42.963 42.97 42.96 42.965 42.95 42.92 42.89 42.855 42.865 42.86 42.86 42.86 42.843 42.858 42.838 42.813 42.778 42.783 42.75 42.743 42.72 42.7 42.653 42.598 42.57 42.533 42.513 42.463 42.425 42.355 42.288 42.188 42.165 42.093 42.015 41.955 41.91 41.81 41.68 41.625 41.538 41.46 41.42 41.325 41.248 41.195 41.123 41.075 41.02 40.953 40.895 40.825 40.78 40.69 40.663 40.66 40.583 40.543 40.535 40.518 40.528 40.5 40.455 40.455 40.425 40.4 40.358 40.29 40.265 40.263 40.24 40.203 40.158 40.055 40.018 40.01 39.99 39.943 39.92 39.895 39.868 39.835 39.793 39.725 39.69 39.653 39.595 39.615 39.58 39.515 39.523 39.475 39.433 39.38 39.383 39.37 39.348 39.298 39.323 39.27 39.288 39.265 39.208 39.223 39.225 39.19 39.22 39.218 39.235 39.248 39.2 39.215 39.218 39.18 39.108 39.113 39.175 39.25 39.218 39.178 39.29 39.395 39.718 39.96 40.278 40.248 40.23 40.223 40.14 40.088 40.09 40.143 40.203 40.21 40.213 40.235 40.23 40.238 40.21 40.2 40.218
48.483 48.463 48.373 48.388 48.175 47.903 47.845 47.905 47.938 47.843 47.67 47.505 47.4 47.31 47.25 47.26 47.215 47.183 47.175 47.173 47.17 47.125 47.04 47.013 46.978 46.915 46.935 46.935 46.895 46.88 46.875 46.89 46.888 46.888 46.903 46.92 46.925 46.928 46.915 46.9 46.905 46.915 46.913 46.885 46.91 46.908 46.915 46.903 46.908 46.878 46.878 46.865 46.875 46.815 46.848 46.845 46.863 46.853 46.89 46.915 46.888 46.868 46.913 46.91 46.87 46.85 46.858 46.815 46.79 46.785 46.808 46.788 46.778 46.813 46.795 46.805 46.78 46.795 46.8 46.765 46.758 46.743 46.73 46.708 46.708 46.708 46.655 46.643 46.625 46.613 46.605 46.613 46.535 46.505 46.483 46.495 46.44 46.443 46.398 46.403 46.405 46.363 46.355 46.343 46.293 46.303 46.248 46.278 46.263 46.248 46.233 46.23 46.225 46.198 46.205 46.18 46.158 46.155 46.108 46.118 46.178 46.17 46.175 46.18 46.195 46.183 46.185 46.203 46.178 46.195 46.23 46.225 46.25 46.25 46.263 46.263 46.283 46.285 46.258 46.283 46.288 46.25 46.275 46.295 46.258 46.235 46.24 46.258 46.245 46.265 46.285 46.265 46.305 46.355 46.355 46.36 46.41 46.41 46.405 46.423 46.443 46.503 46.548 46.55 46.668 46.723 46.803 47.008 47.073 46.873 46.81 46.738 46.67 46.598 46.603 46.553 46.5 46.455 46.398 46.363 46.33 46.345 46.32 46.3 46.295 46.27 46.235 46.233 46.238 46.225 46.27 46.225 46.258 46.215 46.188 46.16 46.165 46.143 46.15 46.1 46.118 46.11 46.118 46.09 46.085 46.09 46.063 46.01 46.015 46.005 45.995 45.988 45.948 45.923 45.885 45.833 45.843 45.808 45.768 45.723 45.685 45.713 45.705 45.638 45.605 45.595 45.568 45.548 45.498 45.448 45.385 45.368 45.33 45.28 45.26 45.225 45.21 45.198 45.155 45.138 45.135 45.133 45.055 45.033 45.02 44.98 44.915 44.875 44.808 44.74 44.665 44.62 44.54 44.463 44.44 44.395 44.355 44.325 44.275 44.27 44.24 44.19 44.158 44.113 44.065 44.1 44.09 44.06 44.058 43.993 43.985 43.958 43.93 43.943 43.9 43.838 43.888 43.895 43.873 43.865 43.87 43.868 43.863 43.875 43.878 43.868 43.898 43.873 43.743 43.598 43.44 43.24 43.238 43.318 43.293 43.25 43.133 43.038 43.068 42.985 43.003 42.975 42.923 42.873 42.918 42.98 42.963 42.953 42.915 42.92 42.875 42.875 42.873 42.878 42.863 42.863 42.858 42.84 42.803 42.778 42.788 42.723 42.708 42.713 42.663 42.658 42.635 42.55 42.545 42.493 42.438 42.428 42.36 42.293 42.235 42.178 42.113 42.055 42.003 41.938 41.883 41.803 41.718 41.613 41.523 41.513 41.42 41.315 41.26 41.17 41.108 41.038 40.993 40.915 40.853 40.833 40.733 40.675 40.635 40.608 40.553 40.53 40.475 40.505 40.465 40.435 40.445 40.43 40.37 40.333 40.298 40.27 40.258 40.215 40.17 40.13 40.058 40.005 39.983 39.98 39.93 39.895 39.868 39.873 39.833 39.783 39.74 39.698 39.633 39.568 39.578 39.545 39.485 39.465 39.44 39.38 39.328 39.343 39.34 39.318 39.283 39.278 39.278 39.255 39.22 39.158 39.173 39.18 39.15 39.15 39.128 39.165 39.175 39.158 39.1 39.105 39.108 39.085 39.065 39.145 39.158 39.028 38.925 38.928 39.033 39.183 39.445 39.75 39.97 40.235 40.258 40.18 40.103 40.06 40.085 40.133 40.16 40.198 40.213 40.183 40.19 40.173 40.168 40.175
48.553 48.493 48.355 48.32 48.09 47.868 47.858 47.883 47.943 47.788 47.518 47.37 47.348 47.278 47.175 47.275 47.258 47.24 47.223 47.185 47.105 47.06 47.023 46.973 46.97 46.908 46.903 46.905 46.91 46.94 46.928 46.925 46.888 46.91 46.918 46.883 46.888 46.883 46.895 46.893 46.895 46.883 46.9 46.915 46.92 46.898 46.913 46.883 46.84 46.818 46.84 46.838 46.83 46.838 46.815 46.778 46.808 46.813 46.81 46.843 46.828 46.825 46.84 46.878 46.828 46.778 46.788 46.778 46.793 46.798 46.793 46.773 46.788 46.775 46.748 46.745 46.723 46.773 46.798 46.75 46.733 46.715 46.715 46.723 46.66 46.648 46.65 46.62 46.59 46.575 46.598 46.588 46.543 46.483 46.458 46.47 46.385 46.438 46.403 46.388 46.355 46.348 46.33 46.298 46.298 46.233 46.25 46.255 46.195 46.215 46.225 46.188 46.168 46.178 46.16 46.185 46.16 46.148 46.125 46.113 46.138 46.138 46.145 46.13 46.17 46.175 46.17 46.18 46.16 46.155 46.2 46.17 46.205 46.245 46.23 46.278 46.265 46.27 46.263 46.285 46.27 46.238 46.24 46.253 46.238 46.22 46.218 46.253 46.233 46.273 46.24 46.258 46.26 46.303 46.315 46.313 46.335 46.358 46.378 46.403 46.403 46.45 46.463 46.523 46.6 46.675 46.748 46.92 47.083 46.935 46.778 46.723 46.718 46.653 46.613 46.578 46.51 46.473 46.383 46.373 46.32 46.303 46.318 46.3 46.27 46.258 46.233 46.205 46.223 46.238 46.24 46.22 46.23 46.188 46.168 46.16 46.148 46.133 46.115 46.113 46.113 46.095 46.11 46.095 46.088 46.105 46.085 46.048 46.028 46.013 46.018 45.978 45.958 45.92 45.915 45.875 45.838 45.813 45.77 45.728 45.655 45.655 45.703 45.625 45.628 45.625 45.558 45.505 45.49 45.468 45.425 45.363 45.363 45.288 45.283 45.265 45.24 45.215 45.185 45.145 45.135 45.105 45.053 45.018 45.018 44.965 44.905 44.865 44.813 44.728 44.675 44.61 44.555 44.493 44.448 44.425 44.405 44.36 44.3 44.255 44.26 44.21 44.168 44.115 44.095 44.093 44.088 44.048 44.03 44.005 43.965 43.925 43.92 43.923 43.878 43.82 43.838 43.875 43.84 43.843 43.788 43.788 43.838 43.863 43.805 43.828 43.858 43.888 43.843 43.715 43.548 43.338 43.283 43.353 43.358 43.208 43.21 43.128 43.015 42.963 43.008 42.888 42.82 42.823 42.935 42.93 42.943 42.943 42.953 42.95 42.893 42.913 42.883 42.883 42.875 42.858 42.865 42.835 42.825 42.768 42.73 42.698 42.71 42.668 42.655 42.65 42.638 42.653 42.573 42.54 42.475 42.45 42.405 42.308 42.27 42.205 42.168 42.113 42.043 41.975 41.91 41.848 41.765 41.703 41.62 41.553 41.488 41.425 41.328 41.258 41.198 41.108 41.05 40.97 40.845 40.825 40.77 40.738 40.635 40.605 40.558 40.51 40.475 40.48 40.458 40.433 40.398 40.38 40.355 40.348 40.305 40.285 40.205 40.19 40.158 40.103 40.078 40.023 39.965 39.955 39.925 39.893 39.83 39.828 39.81 39.745 39.728 39.68 39.583 39.545 39.538 39.505 39.473 39.433 39.418 39.37 39.315 39.315 39.328 39.315 39.283 39.243 39.208 39.21 39.19 39.13 39.143 39.138 39.09 39.083 39.083 39.078 39.085 39.103 39.05 39.053 39.058 39.058 39.043 39.203 39.11 38.898 38.815 38.813 38.91 39 39.033 39.21 39.555 40.105 40.225 40.223 40.155 40.09 40.02 39.998 40.068 40.13 40.173 40.13 40.118 40.145 40.14 40.138
48.585 48.475 48.338 48.213 47.885 47.825 47.883 47.883 47.99 47.815 47.443 47.318 47.303 47.265 47.145 47.248 47.275 47.145 47.17 47.09 47.063 47.005 46.995 46.98 46.965 46.968 46.938 46.948 46.943 46.945 46.933 46.928 46.908 46.913 46.9 46.888 46.863 46.88 46.893 46.895 46.895 46.888 46.875 46.868 46.843 46.84 46.818 46.863 46.848 46.82 46.81 46.838 46.798 46.765 46.768 46.74 46.73 46.763 46.755 46.773 46.715 46.77 46.798 46.803 46.83 46.785 46.793 46.783 46.748 46.743 46.73 46.745 46.733 46.733 46.755 46.743 46.748 46.73 46.733 46.74 46.708 46.728 46.708 46.703 46.653 46.633 46.613 46.598 46.558 46.538 46.573 46.555 46.505 46.483 46.448 46.44 46.405 46.41 46.393 46.348 46.303 46.293 46.26 46.258 46.29 46.23 46.213 46.188 46.183 46.168 46.163 46.17 46.158 46.153 46.153 46.168 46.175 46.125 46.098 46.115 46.118 46.12 46.115 46.128 46.123 46.173 46.15 46.153 46.148 46.135 46.195 46.14 46.203 46.238 46.218 46.235 46.215 46.238 46.275 46.288 46.263 46.24 46.228 46.238 46.208 46.213 46.23 46.21 46.225 46.218 46.213 46.228 46.22 46.23 46.27 46.278 46.28 46.33 46.333 46.37 46.358 46.373 46.435 46.443 46.535 46.623 46.705 46.825 47 47.025 46.843 46.745 46.708 46.655 46.568 46.563 46.515 46.455 46.4 46.365 46.33 46.283 46.268 46.25 46.25 46.215 46.213 46.213 46.235 46.208 46.21 46.188 46.208 46.205 46.178 46.173 46.148 46.115 46.12 46.113 46.12 46.12 46.14 46.118 46.098 46.095 46.045 46.088 46.043 45.993 46.013 45.978 45.968 45.908 45.893 45.86 45.823 45.84 45.795 45.765 45.698 45.66 45.695 45.645 45.643 45.593 45.558 45.545 45.48 45.458 45.458 45.39 45.353 45.323 45.285 45.27 45.238 45.21 45.2 45.18 45.158 45.098 45.055 45.038 44.993 44.98 44.913 44.865 44.82 44.743 44.68 44.625 44.518 44.498 44.485 44.448 44.4 44.378 44.335 44.298 44.275 44.223 44.203 44.17 44.118 44.085 44.073 44.055 44.043 44.03 43.945 43.933 43.9 43.888 43.873 43.848 43.828 43.853 43.858 43.848 43.838 43.775 43.773 43.828 43.843 43.815 43.84 43.915 43.848 43.75 43.675 43.523 43.143 43.173 43.33 43.27 43.28 43.258 42.948 42.975 43.073 42.89 42.778 42.71 42.84 42.918 42.965 42.953 42.935 42.933 42.923 42.928 42.878 42.823 42.87 42.89 42.853 42.81 42.795 42.798 42.74 42.695 42.728 42.67 42.655 42.655 42.645 42.628 42.525 42.53 42.51 42.458 42.4 42.348 42.293 42.29 42.203 42.13 42.06 42.03 41.965 41.875 41.818 41.755 41.728 41.575 41.545 41.495 41.413 41.323 41.25 41.2 41.058 41.023 40.913 40.858 40.79 40.743 40.668 40.603 40.533 40.485 40.445 40.428 40.413 40.408 40.363 40.335 40.33 40.328 40.263 40.245 40.17 40.113 40.103 40.078 40.068 40.013 39.945 39.903 39.895 39.88 39.855 39.815 39.803 39.738 39.71 39.683 39.58 39.535 39.523 39.478 39.43 39.413 39.4 39.338 39.325 39.333 39.34 39.305 39.278 39.243 39.205 39.193 39.18 39.135 39.118 39.065 39.038 39.043 39.028 39.025 39.025 39.045 39 38.988 39.038 39.028 39.02 39.198 39.08 38.865 38.84 38.808 38.9 39.018 39.015 38.97 39.125 39.855 39.983 40.083 40.178 40.115 39.995 39.945 39.975 40.013 40.045 40.068 40.073 40.078 40.093 40.073
48.628 48.55 48.408 48.178 47.868 47.828 47.888 47.928 48.023 47.71 47.408 47.29 47.263 47.178 47.103 47.128 47.123 47.093 47.103 47.098 47.075 47.045 47.04 47.038 47.008 46.983 46.955 46.965 46.933 46.953 46.935 46.938 46.895 46.945 46.948 46.94 46.875 46.858 46.88 46.865 46.853 46.858 46.835 46.843 46.848 46.86 46.828 46.815 46.81 46.82 46.78 46.763 46.735 46.725 46.713 46.665 46.66 46.65 46.698 46.713 46.768 46.76 46.775 46.795 46.785 46.733 46.775 46.75 46.728 46.738 46.693 46.708 46.713 46.705 46.718 46.7 46.695 46.708 46.678 46.708 46.69 46.688 46.635 46.69 46.65 46.568 46.585 46.59 46.553 46.525 46.545 46.535 46.478 46.448 46.45 46.42 46.403 46.395 46.335 46.318 46.33 46.3 46.29 46.268 46.23 46.213 46.178 46.18 46.145 46.15 46.173 46.165 46.158 46.145 46.145 46.105 46.143 46.075 46.068 46.083 46.098 46.063 46.093 46.11 46.103 46.12 46.138 46.155 46.123 46.13 46.14 46.125 46.183 46.2 46.21 46.215 46.2 46.198 46.23 46.22 46.253 46.238 46.208 46.198 46.18 46.188 46.165 46.163 46.19 46.188 46.175 46.195 46.218 46.218 46.258 46.268 46.255 46.275 46.32 46.358 46.35 46.375 46.43 46.423 46.48 46.523 46.63 46.75 46.875 47 46.868 46.76 46.693 46.668 46.61 46.575 46.528 46.485 46.398 46.345 46.295 46.233 46.245 46.253 46.205 46.2 46.223 46.185 46.218 46.198 46.19 46.168 46.19 46.2 46.2 46.168 46.16 46.158 46.115 46.125 46.123 46.108 46.125 46.148 46.125 46.058 46.04 46.058 46.045 46.028 45.99 45.983 45.96 45.918 45.89 45.9 45.868 45.825 45.793 45.733 45.73 45.638 45.673 45.653 45.628 45.58 45.548 45.545 45.498 45.478 45.425 45.408 45.358 45.34 45.303 45.248 45.223 45.23 45.185 45.17 45.128 45.098 45.078 45.08 45.02 44.965 44.918 44.88 44.803 44.733 44.703 44.628 44.565 44.498 44.47 44.453 44.438 44.388 44.348 44.313 44.258 44.243 44.2 44.17 44.13 44.063 44.06 44.043 44.05 44.033 43.958 43.933 43.888 43.878 43.873 43.835 43.793 43.82 43.863 43.815 43.833 43.783 43.76 43.778 43.865 43.848 43.778 43.873 43.883 43.895 43.845 43.738 43.27 43.153 43.275 43.343 43.38 43.35 43.04 43.075 43.103 43.08 42.9 42.59 42.78 42.908 42.92 42.96 42.943 42.91 42.908 42.938 42.878 42.795 42.86 42.858 42.855 42.803 42.773 42.733 42.718 42.685 42.678 42.673 42.653 42.673 42.625 42.6 42.553 42.535 42.51 42.485 42.42 42.38 42.345 42.308 42.218 42.153 42.113 42.073 42.01 41.945 41.855 41.83 41.76 41.655 41.62 41.548 41.493 41.39 41.32 41.205 41.11 41.038 40.968 40.893 40.808 40.768 40.71 40.633 40.533 40.535 40.485 40.43 40.36 40.365 40.355 40.378 40.33 40.26 40.198 40.225 40.17 40.088 40.085 40.075 40.015 39.975 39.925 39.91 39.878 39.83 39.828 39.778 39.803 39.75 39.683 39.655 39.61 39.57 39.523 39.448 39.405 39.433 39.385 39.323 39.325 39.338 39.33 39.3 39.273 39.215 39.18 39.163 39.125 39.108 39.065 39.02 38.99 38.998 38.988 39.015 39.01 39.008 38.97 38.94 38.975 39.005 39.01 39.023 38.968 38.793 38.785 38.858 38.918 38.98 39.008 38.963 38.89 38.975 39.315 39.695 40.03 40.083 40.03 39.975 39.933 39.918 39.943 39.955 40.03 40.04 40.013 40.02
48.828 48.718 48.503 48.213 47.948 47.885 47.863 47.818 47.705 47.52 47.368 47.303 47.248 47.165 47.133 47.073 47.11 47.153 47.128 47.105 47.09 47.038 47.008 47.01 46.968 46.94 46.963 46.975 46.993 47 47.01 46.943 46.935 46.933 46.908 46.91 46.853 46.868 46.833 46.818 46.823 46.823 46.813 46.813 46.81 46.838 46.775 46.78 46.79 46.755 46.738 46.685 46.648 46.698 46.675 46.648 46.668 46.688 46.705 46.69 46.728 46.733 46.753 46.755 46.758 46.718 46.718 46.72 46.725 46.703 46.673 46.693 46.665 46.635 46.655 46.63 46.66 46.645 46.65 46.67 46.63 46.625 46.608 46.625 46.61 46.573 46.573 46.598 46.525 46.463 46.525 46.515 46.465 46.433 46.435 46.41 46.385 46.365 46.333 46.323 46.303 46.285 46.233 46.213 46.248 46.193 46.188 46.135 46.17 46.138 46.118 46.148 46.135 46.133 46.113 46.083 46.113 46.093 46.068 46.068 46.04 46.05 46.078 46.11 46.115 46.09 46.133 46.093 46.103 46.098 46.08 46.103 46.145 46.17 46.175 46.183 46.188 46.19 46.208 46.208 46.208 46.205 46.173 46.165 46.16 46.18 46.148 46.133 46.168 46.16 46.175 46.2 46.165 46.18 46.21 46.23 46.245 46.25 46.268 46.325 46.343 46.368 46.425 46.428 46.435 46.478 46.593 46.67 46.793 46.963 46.928 46.758 46.73 46.703 46.615 46.568 46.523 46.485 46.403 46.368 46.298 46.258 46.238 46.208 46.178 46.205 46.205 46.183 46.2 46.183 46.198 46.208 46.178 46.18 46.178 46.13 46.17 46.145 46.123 46.125 46.118 46.1 46.11 46.113 46.133 46.083 46.08 46.068 46.048 46.043 46.04 45.995 45.91 45.885 45.883 45.9 45.863 45.83 45.818 45.78 45.738 45.693 45.66 45.645 45.623 45.578 45.568 45.55 45.51 45.438 45.413 45.403 45.345 45.328 45.273 45.238 45.228 45.18 45.205 45.165 45.143 45.1 45.078 45.04 45.033 44.97 44.935 44.868 44.8 44.755 44.683 44.628 44.578 44.545 44.513 44.458 44.43 44.405 44.37 44.325 44.265 44.215 44.19 44.155 44.135 44.098 44.02 44.023 44.025 43.998 43.978 43.968 43.945 43.883 43.863 43.863 43.81 43.8 43.833 43.82 43.823 43.79 43.735 43.713 43.805 43.873 43.83 43.808 43.85 43.89 43.855 43.765 43.44 43.295 43.36 43.345 43.395 43.358 43.138 43.025 43.125 43.125 43.108 42.778 42.78 42.805 42.913 43.02 43 42.97 42.885 42.883 42.94 42.873 42.88 42.823 42.848 42.8 42.758 42.74 42.73 42.675 42.663 42.658 42.628 42.658 42.63 42.61 42.578 42.525 42.488 42.49 42.4 42.403 42.368 42.3 42.228 42.168 42.098 42.065 42.053 41.995 41.94 41.853 41.825 41.72 41.675 41.618 41.533 41.445 41.33 41.258 41.18 41.063 41.013 40.95 40.853 40.79 40.72 40.655 40.57 40.53 40.45 40.395 40.363 40.338 40.353 40.328 40.28 40.243 40.215 40.193 40.16 40.11 40.045 40.03 39.978 39.975 39.92 39.853 39.838 39.823 39.818 39.77 39.783 39.735 39.703 39.658 39.573 39.55 39.51 39.475 39.44 39.433 39.393 39.348 39.308 39.283 39.293 39.253 39.248 39.218 39.188 39.178 39.12 39.065 39.008 38.995 38.95 38.953 38.975 38.948 38.965 38.873 38.895 38.943 38.943 38.963 38.9 38.88 38.808 38.713 38.73 38.778 38.845 38.925 38.938 38.933 38.893 38.843 38.955 39.33 39.678 39.973 40.063 40.003 39.893 39.883 39.86 39.895 39.943 39.948 39.953 39.963
49.005 48.743 48.485 48.22 47.893 47.935 47.895 47.783 47.615 47.425 47.365 47.273 47.215 47.178 47.153 47.108 47.13 47.155 47.09 47.045 47.025 47.03 46.985 47.018 47.008 46.988 47.01 47.03 46.985 46.968 46.995 46.915 46.928 46.923 46.878 46.85 46.845 46.828 46.82 46.803 46.813 46.843 46.81 46.803 46.76 46.743 46.74 46.7 46.673 46.695 46.693 46.678 46.688 46.7 46.683 46.665 46.643 46.653 46.643 46.645 46.688 46.695 46.715 46.713 46.71 46.72 46.678 46.678 46.685 46.643 46.643 46.615 46.63 46.635 46.638 46.623 46.63 46.625 46.615 46.615 46.625 46.61 46.61 46.578 46.623 46.575 46.54 46.553 46.55 46.503 46.498 46.493 46.485 46.415 46.418 46.4 46.365 46.333 46.338 46.295 46.258 46.24 46.195 46.188 46.19 46.188 46.178 46.143 46.11 46.098 46.063 46.12 46.115 46.118 46.09 46.063 46.07 46.118 46.073 46.058 46.008 46.025 46.045 46.065 46.083 46.09 46.065 46.063 46.083 46.065 46.055 46.083 46.093 46.098 46.128 46.15 46.143 46.173 46.193 46.185 46.193 46.203 46.173 46.14 46.17 46.173 46.13 46.108 46.135 46.113 46.123 46.13 46.138 46.165 46.15 46.188 46.178 46.198 46.238 46.28 46.275 46.355 46.338 46.403 46.435 46.483 46.548 46.635 46.77 46.908 46.935 46.813 46.688 46.69 46.638 46.573 46.535 46.458 46.383 46.33 46.273 46.24 46.215 46.183 46.205 46.183 46.203 46.228 46.193 46.183 46.183 46.2 46.198 46.17 46.175 46.19 46.158 46.16 46.143 46.108 46.115 46.12 46.12 46.123 46.128 46.098 46.073 46.053 46.048 46.033 46.013 45.993 45.948 45.923 45.908 45.883 45.873 45.845 45.808 45.793 45.738 45.68 45.66 45.638 45.643 45.618 45.575 45.523 45.505 45.483 45.45 45.403 45.35 45.32 45.298 45.25 45.225 45.188 45.195 45.175 45.14 45.115 45.068 45.015 45.03 45 44.965 44.895 44.815 44.773 44.708 44.643 44.575 44.533 44.505 44.485 44.435 44.433 44.375 44.343 44.27 44.25 44.205 44.148 44.145 44.11 44.038 44.01 43.998 44.005 44.018 43.933 43.923 43.883 43.873 43.858 43.81 43.798 43.818 43.805 43.81 43.778 43.763 43.733 43.81 43.88 43.868 43.798 43.823 43.863 43.853 43.74 43.53 43.393 43.43 43.383 43.24 43.233 43.285 43.168 43.093 43.175 43.11 42.86 42.84 42.86 43.043 43.025 43.013 42.963 42.888 42.898 42.915 42.905 42.903 42.843 42.85 42.808 42.75 42.728 42.725 42.695 42.65 42.643 42.613 42.625 42.585 42.59 42.598 42.543 42.495 42.505 42.438 42.395 42.335 42.305 42.243 42.16 42.09 42.075 42.013 41.995 41.988 41.92 41.855 41.793 41.763 41.685 41.61 41.518 41.408 41.34 41.235 41.12 41.045 40.958 40.923 40.835 40.72 40.655 40.6 40.518 40.475 40.398 40.363 40.343 40.338 40.293 40.255 40.208 40.22 40.178 40.133 40.078 40.045 40.028 39.993 39.958 39.913 39.86 39.828 39.763 39.765 39.785 39.79 39.73 39.688 39.663 39.61 39.558 39.523 39.485 39.418 39.35 39.325 39.338 39.323 39.28 39.26 39.24 39.203 39.193 39.17 39.118 39.08 39.033 39.003 38.973 38.94 38.92 38.913 38.933 38.905 38.865 38.875 38.933 38.92 38.93 38.843 38.808 38.693 38.638 38.678 38.73 38.78 38.85 38.875 38.875 38.875 38.878 38.828 38.925 39.268 39.638 39.935 39.983 39.878 39.833 39.828 39.803 39.843 39.91 39.895 39.888
49.223 48.85 48.398 48.158 47.83 47.863 48.023 48.143 47.678 47.38 47.303 47.245 47.193 47.188 47.17 47.11 47.148 47.16 47.093 47.058 47.068 47.103 47.05 47.073 47.05 47.013 47.015 47.005 46.97 46.96 46.955 46.933 46.898 46.885 46.88 46.863 46.815 46.8 46.8 46.808 46.798 46.755 46.778 46.723 46.72 46.705 46.74 46.708 46.688 46.685 46.71 46.65 46.658 46.663 46.668 46.66 46.645 46.655 46.61 46.618 46.643 46.645 46.673 46.698 46.683 46.675 46.66 46.635 46.65 46.615 46.603 46.573 46.618 46.62 46.578 46.605 46.585 46.558 46.563 46.595 46.59 46.573 46.575 46.568 46.62 46.56 46.518 46.548 46.533 46.498 46.468 46.415 46.39 46.398 46.385 46.375 46.34 46.32 46.275 46.295 46.275 46.245 46.203 46.203 46.173 46.168 46.163 46.14 46.095 46.083 46.048 46.088 46.12 46.115 46.08 46.08 46.038 46.093 46.053 46.03 46.008 46.033 46.033 46.045 46.025 46.06 46.055 46.08 46.058 46.058 46.055 46.085 46.073 46.063 46.08 46.113 46.128 46.138 46.123 46.163 46.138 46.143 46.148 46.118 46.138 46.13 46.125 46.085 46.108 46.108 46.1 46.073 46.103 46.1 46.155 46.138 46.143 46.148 46.175 46.24 46.245 46.33 46.318 46.36 46.398 46.465 46.505 46.568 46.675 46.863 46.993 46.893 46.715 46.68 46.65 46.573 46.498 46.458 46.378 46.308 46.225 46.205 46.198 46.188 46.218 46.195 46.188 46.23 46.178 46.193 46.195 46.21 46.205 46.175 46.14 46.168 46.143 46.143 46.153 46.095 46.113 46.095 46.095 46.108 46.103 46.12 46.088 46.075 46.045 46.038 45.98 45.958 45.953 45.968 45.923 45.893 45.873 45.84 45.8 45.795 45.773 45.725 45.66 45.645 45.645 45.613 45.59 45.563 45.508 45.473 45.45 45.413 45.375 45.323 45.285 45.24 45.208 45.183 45.168 45.173 45.123 45.108 45.088 45.045 45.033 45 44.953 44.913 44.845 44.795 44.72 44.678 44.585 44.53 44.49 44.443 44.398 44.425 44.38 44.345 44.255 44.23 44.218 44.178 44.143 44.103 44.068 44.02 44.025 44.01 44.02 43.958 43.888 43.86 43.843 43.853 43.843 43.803 43.805 43.815 43.783 43.768 43.783 43.763 43.78 43.8 43.828 43.813 43.798 43.818 43.86 43.753 43.795 43.535 43.46 43.408 43.303 43.293 43.23 43.2 43.165 43.195 43.113 42.89 42.818 42.963 43.095 43.03 42.983 42.995 42.943 42.92 42.885 42.865 42.858 42.803 42.808 42.815 42.77 42.713 42.695 42.688 42.625 42.643 42.638 42.605 42.575 42.573 42.58 42.543 42.5 42.49 42.483 42.415 42.345 42.338 42.285 42.223 42.118 42.058 42.018 42.008 42.008 41.958 41.873 41.853 41.808 41.728 41.65 41.573 41.48 41.363 41.265 41.15 41.075 41.01 40.958 40.848 40.763 40.705 40.58 40.518 40.483 40.403 40.37 40.353 40.315 40.255 40.23 40.215 40.18 40.138 40.105 40.055 40.06 39.998 39.985 39.955 39.918 39.878 39.863 39.798 39.765 39.745 39.758 39.693 39.693 39.68 39.613 39.553 39.53 39.473 39.413 39.355 39.383 39.34 39.298 39.268 39.238 39.255 39.198 39.195 39.145 39.09 39.045 39.028 38.943 38.908 38.905 38.885 38.855 38.89 38.84 38.835 38.903 38.918 38.928 38.978 39.035 38.795 38.558 38.565 38.6 38.628 38.663 38.725 38.75 38.783 38.845 38.818 38.838 38.79 38.873 39.233 39.75 39.968 39.895 39.845 39.79 39.763 39.788 39.82 39.823 39.84
48.933 48.62 48.385 48.1 47.853 47.883 48.083 48.065 47.56 47.398 47.298 47.253 47.208 47.22 47.198 47.17 47.188 47.18 47.143 47.138 47.11 47.113 47.078 47.04 47.045 47.005 47.013 47.01 46.973 46.973 46.973 46.918 46.885 46.878 46.875 46.86 46.835 46.808 46.773 46.753 46.728 46.713 46.72 46.763 46.765 46.728 46.763 46.73 46.723 46.7 46.7 46.66 46.678 46.62 46.643 46.655 46.658 46.63 46.635 46.59 46.59 46.63 46.638 46.67 46.675 46.64 46.62 46.613 46.625 46.62 46.588 46.585 46.588 46.6 46.578 46.593 46.568 46.545 46.573 46.558 46.563 46.56 46.55 46.533 46.55 46.56 46.493 46.508 46.483 46.43 46.428 46.418 46.41 46.388 46.365 46.345 46.318 46.323 46.305 46.283 46.24 46.23 46.205 46.183 46.15 46.138 46.103 46.11 46.098 46.04 46.058 46.068 46.083 46.063 46.07 46.073 46.03 46.048 46.05 46.008 46.02 46.015 46.01 46.015 46.02 46.035 46.07 46.088 46.045 46.05 46.063 46.025 46.05 46.035 46.08 46.085 46.105 46.098 46.065 46.118 46.103 46.083 46.113 46.103 46.075 46.088 46.09 46.09 46.033 46.01 46.068 46.085 46.075 46.073 46.12 46.113 46.14 46.175 46.165 46.203 46.235 46.273 46.298 46.318 46.375 46.405 46.45 46.548 46.618 46.748 46.915 46.875 46.723 46.668 46.665 46.613 46.538 46.468 46.383 46.348 46.28 46.245 46.223 46.175 46.18 46.188 46.195 46.19 46.213 46.165 46.18 46.183 46.215 46.193 46.155 46.163 46.165 46.163 46.168 46.153 46.143 46.123 46.115 46.083 46.083 46.08 46.053 46.065 46.05 46.015 45.988 45.993 45.983 45.955 45.943 45.895 45.855 45.828 45.823 45.8 45.775 45.74 45.688 45.665 45.645 45.635 45.598 45.553 45.493 45.458 45.445 45.415 45.35 45.295 45.3 45.23 45.2 45.185 45.193 45.175 45.153 45.108 45.1 45.063 45.028 44.993 44.94 44.915 44.858 44.783 44.73 44.695 44.625 44.585 44.518 44.438 44.433 44.383 44.373 44.328 44.23 44.215 44.215 44.183 44.15 44.123 44.088 44.04 44.02 44.005 43.998 43.995 43.905 43.908 43.873 43.828 43.823 43.813 43.818 43.818 43.805 43.758 43.783 43.76 43.735 43.745 43.805 43.848 43.825 43.735 43.61 43.648 43.86 43.725 43.603 43.48 43.395 43.28 42.958 42.988 43.115 43.128 42.918 42.805 42.84 42.938 43.008 42.978 42.963 42.898 42.91 42.863 42.83 42.883 42.83 42.765 42.755 42.763 42.74 42.705 42.698 42.683 42.625 42.618 42.638 42.58 42.585 42.585 42.555 42.555 42.518 42.515 42.475 42.44 42.353 42.35 42.28 42.233 42.178 42.095 42.055 42.05 42 41.983 41.92 41.903 41.868 41.783 41.69 41.67 41.518 41.415 41.325 41.203 41.138 41.045 40.983 40.895 40.825 40.72 40.58 40.538 40.5 40.438 40.385 40.373 40.333 40.25 40.25 40.2 40.15 40.133 40.103 40.073 40.058 39.98 39.958 39.918 39.855 39.88 39.84 39.813 39.77 39.735 39.718 39.73 39.703 39.673 39.6 39.57 39.528 39.468 39.425 39.363 39.335 39.313 39.273 39.255 39.24 39.233 39.2 39.178 39.13 39.083 39.003 38.98 38.89 38.875 38.873 38.865 38.858 38.808 38.803 38.845 38.863 38.898 38.92 38.88 38.863 38.69 38.525 38.538 38.538 38.555 38.59 38.63 38.685 38.73 38.773 38.783 38.793 38.808 38.758 38.87 39.44 39.818 39.9 39.888 39.765 39.755 39.723 39.748 39.775 39.81
48.658 48.355 48.298 47.98 47.868 47.915 47.973 47.765 47.498 47.333 47.305 47.26 47.273 47.288 47.238 47.163 47.203 47.185 47.135 47.105 47.088 47.04 47.043 47.05 47.03 47.005 46.998 46.975 46.953 46.948 46.943 46.89 46.888 46.863 46.828 46.788 46.768 46.743 46.755 46.765 46.765 46.763 46.74 46.73 46.713 46.703 46.73 46.723 46.728 46.71 46.685 46.66 46.665 46.628 46.625 46.603 46.625 46.603 46.603 46.548 46.55 46.57 46.57 46.593 46.645 46.63 46.603 46.573 46.56 46.588 46.553 46.543 46.553 46.563 46.553 46.535 46.543 46.52 46.53 46.508 46.538 46.53 46.548 46.515 46.525 46.52 46.518 46.49 46.453 46.44 46.408 46.41 46.378 46.358 46.348 46.323 46.355 46.298 46.273 46.255 46.225 46.218 46.205 46.178 46.115 46.133 46.093 46.098 46.098 46.055 46.033 46.05 46.065 46.068 46.055 46.053 46.033 46.053 46.065 46.013 46.008 46.003 45.965 45.968 46.01 46.03 46.043 46.045 46.028 46.008 46.01 46 46.03 46.018 46.028 46.063 46.085 46.09 46.073 46.1 46.11 46.118 46.115 46.1 46.09 46.08 46.073 46.06 46.038 46.035 46.035 46.055 46.063 46.058 46.093 46.095 46.123 46.145 46.13 46.173 46.245 46.233 46.253 46.293 46.348 46.368 46.438 46.47 46.58 46.693 46.855 46.888 46.78 46.665 46.623 46.605 46.528 46.48 46.423 46.35 46.288 46.253 46.23 46.175 46.145 46.195 46.185 46.178 46.195 46.17 46.163 46.183 46.205 46.185 46.183 46.16 46.17 46.153 46.145 46.178 46.14 46.12 46.155 46.103 46.093 46.08 46.088 46.05 46.06 46.013 45.993 45.995 45.95 45.933 45.938 45.908 45.885 45.865 45.825 45.79 45.768 45.743 45.693 45.643 45.65 45.605 45.57 45.54 45.515 45.44 45.415 45.385 45.34 45.32 45.268 45.243 45.195 45.18 45.185 45.193 45.145 45.115 45.113 45.038 45.005 44.973 44.973 44.905 44.848 44.748 44.745 44.655 44.64 44.58 44.508 44.463 44.41 44.38 44.375 44.345 44.28 44.263 44.215 44.215 44.168 44.12 44.073 44.008 44.033 44.013 43.998 43.993 43.928 43.898 43.88 43.833 43.795 43.813 43.76 43.755 43.76 43.748 43.758 43.763 43.7 43.703 43.748 43.805 43.885 43.718 43.533 43.693 43.848 43.803 43.685 43.53 43.448 43.42 43.198 43.1 43.193 43.09 42.973 42.933 42.808 42.96 42.993 42.993 42.945 42.918 42.935 42.86 42.823 42.818 42.79 42.798 42.765 42.748 42.713 42.668 42.68 42.655 42.643 42.613 42.618 42.6 42.593 42.555 42.538 42.545 42.52 42.48 42.465 42.435 42.403 42.323 42.295 42.245 42.175 42.148 42.08 42.063 42.025 42.01 41.98 41.958 41.905 41.815 41.743 41.705 41.605 41.478 41.37 41.275 41.168 41.058 41.003 40.915 40.833 40.728 40.658 40.63 40.508 40.423 40.405 40.358 40.29 40.28 40.26 40.215 40.153 40.158 40.123 40.063 40.008 40.018 39.965 39.905 39.893 39.868 39.848 39.815 39.765 39.76 39.745 39.755 39.685 39.65 39.598 39.575 39.53 39.453 39.37 39.305 39.288 39.265 39.258 39.213 39.198 39.17 39.165 39.143 39.12 39.058 38.998 38.943 38.85 38.848 38.853 38.84 38.808 38.748 38.703 38.793 38.89 38.873 38.835 38.778 38.698 38.563 38.485 38.488 38.49 38.49 38.515 38.59 38.638 38.658 38.685 38.713 38.728 38.773 38.725 38.695 38.91 39.353 39.735 39.868 39.81 39.733 39.73 39.68 39.703 39.768
48.59 48.345 48.118 47.933 47.91 48.035 48.03 47.725 47.455 47.34 47.338 47.313 47.283 47.305 47.223 47.163 47.15 47.16 47.125 47.095 47.068 46.978 47.023 47.058 47.04 47.02 46.975 46.955 46.928 46.94 46.915 46.875 46.845 46.78 46.803 46.843 46.83 46.785 46.79 46.768 46.758 46.74 46.728 46.715 46.723 46.708 46.698 46.715 46.695 46.703 46.703 46.66 46.675 46.638 46.653 46.593 46.583 46.57 46.545 46.548 46.498 46.513 46.543 46.553 46.553 46.575 46.608 46.558 46.558 46.545 46.555 46.518 46.503 46.518 46.558 46.508 46.503 46.493 46.478 46.508 46.513 46.505 46.513 46.515 46.508 46.48 46.505 46.463 46.45 46.45 46.388 46.39 46.373 46.358 46.323 46.325 46.313 46.26 46.27 46.235 46.24 46.203 46.173 46.183 46.118 46.115 46.078 46.063 46.065 46.04 46.03 46.02 46.023 46.045 46.033 46.043 46.003 45.99 46.038 46.01 46.035 46.015 45.953 45.93 45.99 46.018 45.998 46.01 45.995 46 45.993 46 45.988 46.005 46.02 46.045 46.04 46.063 46.075 46.06 46.083 46.138 46.113 46.11 46.06 46.043 46.053 46.033 46.015 46.005 46.04 46.045 46.028 46.055 46.085 46.078 46.093 46.113 46.138 46.173 46.235 46.218 46.21 46.273 46.295 46.335 46.428 46.458 46.545 46.595 46.768 46.895 46.803 46.645 46.623 46.598 46.555 46.495 46.44 46.36 46.305 46.233 46.198 46.185 46.163 46.165 46.175 46.175 46.17 46.173 46.168 46.185 46.185 46.173 46.153 46.173 46.208 46.175 46.135 46.153 46.13 46.118 46.083 46.08 46.105 46.093 46.1 46.078 46.088 46.05 46.023 45.978 45.96 45.915 45.928 45.895 45.888 45.873 45.83 45.78 45.755 45.718 45.688 45.625 45.618 45.598 45.535 45.518 45.515 45.448 45.405 45.39 45.355 45.323 45.27 45.253 45.213 45.19 45.168 45.158 45.143 45.138 45.133 45.055 45.02 44.99 45.02 44.938 44.863 44.795 44.75 44.69 44.635 44.583 44.525 44.503 44.45 44.39 44.383 44.368 44.335 44.293 44.255 44.213 44.178 44.14 44.088 44.045 44.015 44.048 43.993 44.015 43.92 43.91 43.895 43.83 43.828 43.81 43.758 43.75 43.753 43.74 43.745 43.76 43.738 43.713 43.72 43.718 43.835 43.818 43.653 43.628 43.853 43.83 43.79 43.65 43.5 43.47 43.37 43.225 43.285 43.225 43.113 42.738 42.765 42.895 42.933 42.978 42.913 42.905 42.915 42.878 42.823 42.788 42.76 42.788 42.778 42.74 42.708 42.743 42.688 42.653 42.668 42.645 42.638 42.613 42.608 42.565 42.543 42.523 42.525 42.488 42.47 42.438 42.41 42.325 42.323 42.273 42.18 42.163 42.083 42.07 42.04 42.063 42.048 41.993 41.978 41.86 41.798 41.745 41.643 41.525 41.428 41.308 41.22 41.093 41.008 40.95 40.85 40.745 40.703 40.653 40.568 40.508 40.443 40.423 40.325 40.335 40.268 40.27 40.213 40.205 40.143 40.085 40.06 40.033 40.013 39.958 39.945 39.903 39.873 39.838 39.805 39.748 39.715 39.71 39.685 39.655 39.625 39.578 39.508 39.435 39.39 39.333 39.268 39.245 39.26 39.22 39.155 39.168 39.133 39.085 39.07 39.033 39.003 38.968 38.883 38.855 38.825 38.778 38.743 38.793 38.795 38.803 38.81 38.88 38.833 38.763 38.678 38.505 38.47 38.448 38.443 38.445 38.43 38.523 38.565 38.613 38.658 38.67 38.678 38.693 38.688 38.66 38.69 38.953 39.385 39.853 39.815 39.785 39.69 39.675 39.638 39.678
48.44 48.235 48.023 47.875 47.925 48.063 48.03 47.6 47.42 47.365 47.348 47.335 47.293 47.235 47.145 47.14 47.163 47.125 47.118 47.098 47.04 47.04 47.058 47.045 47.028 47.015 47.003 46.955 46.913 46.898 46.898 46.868 46.868 46.845 46.798 46.835 46.84 46.793 46.788 46.778 46.735 46.733 46.673 46.72 46.703 46.705 46.673 46.688 46.685 46.68 46.68 46.698 46.678 46.625 46.613 46.583 46.57 46.54 46.518 46.518 46.51 46.5 46.505 46.505 46.528 46.555 46.563 46.563 46.515 46.523 46.525 46.52 46.505 46.48 46.49 46.513 46.488 46.5 46.473 46.468 46.498 46.495 46.488 46.48 46.448 46.475 46.498 46.475 46.428 46.39 46.403 46.368 46.38 46.363 46.335 46.3 46.265 46.253 46.273 46.23 46.228 46.185 46.158 46.15 46.125 46.085 46.04 46.063 46.07 46.008 46.023 46.025 45.99 46.01 46.008 46.008 45.99 45.99 45.99 46.015 46.005 46.008 45.978 45.948 45.978 45.985 45.988 45.945 45.975 45.98 45.995 45.993 45.963 45.99 46.015 45.998 46.03 46.058 46.063 46.05 46.078 46.085 46.078 46.055 46.048 46.04 46.055 46.055 46.023 46.008 46.035 46.035 46.023 46.048 46.07 46.06 46.083 46.1 46.15 46.16 46.198 46.21 46.235 46.248 46.265 46.31 46.39 46.413 46.505 46.578 46.68 46.865 46.853 46.65 46.573 46.61 46.578 46.52 46.43 46.333 46.298 46.253 46.208 46.198 46.16 46.183 46.17 46.175 46.153 46.173 46.145 46.143 46.18 46.225 46.18 46.193 46.19 46.163 46.118 46.083 46.11 46.113 46.07 46.08 46.078 46.073 46.108 46.09 46.06 46.02 46.008 45.98 45.933 45.915 45.93 45.893 45.85 45.83 45.825 45.798 45.763 45.715 45.688 45.62 45.608 45.585 45.533 45.51 45.503 45.46 45.398 45.378 45.335 45.32 45.293 45.215 45.22 45.19 45.178 45.165 45.135 45.12 45.103 45.085 45.023 44.993 44.968 44.923 44.875 44.805 44.748 44.695 44.623 44.588 44.563 44.505 44.44 44.4 44.395 44.34 44.333 44.28 44.235 44.185 44.17 44.118 44.108 44.068 44.01 44.005 43.99 43.993 43.973 43.898 43.895 43.835 43.818 43.813 43.783 43.745 43.718 43.723 43.715 43.705 43.733 43.705 43.695 43.668 43.755 43.795 43.75 43.568 43.808 43.653 43.793 43.745 43.598 43.448 43.39 43.37 43.388 43.438 43.288 42.99 42.91 42.865 42.923 42.98 42.958 42.92 42.845 42.9 42.83 42.793 42.78 42.788 42.76 42.71 42.688 42.698 42.693 42.678 42.693 42.66 42.64 42.6 42.625 42.598 42.558 42.548 42.518 42.495 42.488 42.433 42.383 42.34 42.275 42.24 42.2 42.148 42.103 42.073 42.055 42.07 42.048 42.015 41.953 41.893 41.868 41.758 41.69 41.58 41.488 41.373 41.263 41.15 41.035 40.97 40.878 40.848 40.758 40.663 40.61 40.575 40.473 40.428 40.398 40.375 40.345 40.333 40.308 40.255 40.19 40.173 40.153 40.11 40.078 40.01 39.973 39.958 39.903 39.878 39.82 39.765 39.75 39.703 39.705 39.645 39.605 39.558 39.488 39.44 39.385 39.333 39.295 39.21 39.198 39.153 39.133 39.12 39.085 39.055 39.095 39.028 38.995 38.933 38.9 38.823 38.745 38.733 38.755 38.773 38.768 38.795 38.818 38.85 38.8 38.703 38.575 38.465 38.465 38.428 38.425 38.425 38.44 38.483 38.538 38.598 38.598 38.638 38.653 38.628 38.675 38.653 38.64 38.658 39 39.523 39.743 39.798 39.703 39.638 39.61 39.593
48.293 48.113 47.898 47.9 47.95 48.008 47.918 47.448 47.368 47.385 47.345 47.353 47.268 47.175 47.143 47.16 47.168 47.128 47.15 47.13 47.083 47.04 47.088 47.023 46.993 46.95 46.978 46.953 46.973 46.935 46.938 46.88 46.865 46.858 46.853 46.83 46.848 46.818 46.803 46.775 46.708 46.715 46.703 46.655 46.693 46.683 46.68 46.67 46.655 46.628 46.645 46.638 46.638 46.605 46.595 46.555 46.538 46.503 46.485 46.49 46.473 46.483 46.508 46.493 46.515 46.545 46.51 46.545 46.528 46.495 46.5 46.485 46.485 46.483 46.485 46.508 46.473 46.498 46.445 46.448 46.46 46.443 46.483 46.478 46.468 46.458 46.463 46.47 46.43 46.388 46.398 46.345 46.33 46.33 46.31 46.26 46.28 46.263 46.228 46.218 46.18 46.115 46.135 46.14 46.133 46.098 46.045 46.06 46.01 46.003 46.01 46.013 46.025 46.003 46.023 46.008 45.998 45.995 45.96 46.013 45.988 45.97 45.965 45.93 45.93 45.945 45.953 45.93 45.958 45.95 45.948 45.94 45.965 45.955 46.003 45.985 46.003 46.023 46.02 46.015 46.01 46.053 46.05 46.04 46.023 46.04 46.025 46.028 46.01 46.015 46 46.025 46.038 46.033 46.055 46.045 46.068 46.105 46.09 46.085 46.113 46.178 46.22 46.223 46.253 46.28 46.36 46.378 46.4 46.518 46.61 46.76 46.773 46.675 46.598 46.615 46.598 46.553 46.458 46.338 46.288 46.245 46.195 46.173 46.165 46.16 46.168 46.16 46.13 46.173 46.148 46.14 46.165 46.173 46.195 46.215 46.178 46.163 46.105 46.095 46.115 46.058 46.09 46.085 46.065 46.055 46.053 46.065 46.065 46.033 45.973 45.973 45.953 45.903 45.893 45.885 45.87 45.833 45.813 45.803 45.753 45.71 45.675 45.625 45.583 45.55 45.54 45.51 45.498 45.46 45.398 45.375 45.338 45.295 45.263 45.235 45.248 45.188 45.165 45.165 45.13 45.145 45.11 45.085 45.035 44.975 44.935 44.898 44.865 44.818 44.73 44.673 44.655 44.573 44.56 44.505 44.448 44.405 44.368 44.373 44.355 44.295 44.24 44.165 44.145 44.12 44.093 44.06 44.03 43.993 43.953 43.98 44.03 43.93 43.893 43.875 43.813 43.81 43.793 43.723 43.71 43.723 43.72 43.703 43.695 43.693 43.69 43.68 43.708 43.735 43.803 43.68 43.765 43.568 43.635 43.808 43.635 43.49 43.443 43.368 43.318 43.323 43.343 43.105 42.948 42.96 43.035 43 42.983 42.925 42.903 42.868 42.82 42.803 42.793 42.775 42.773 42.728 42.708 42.718 42.71 42.69 42.67 42.64 42.633 42.605 42.598 42.618 42.575 42.55 42.53 42.48 42.485 42.44 42.38 42.35 42.293 42.225 42.188 42.125 42.113 42.068 42.053 42.08 42.038 42.038 42.003 41.94 41.898 41.815 41.738 41.633 41.518 41.41 41.283 41.19 41.113 41.018 40.945 40.905 40.775 40.705 40.65 40.635 40.545 40.518 40.485 40.45 40.403 40.39 40.37 40.33 40.29 40.283 40.243 40.188 40.13 40.095 40.045 40.01 39.945 39.925 39.88 39.808 39.78 39.723 39.695 39.65 39.603 39.565 39.5 39.443 39.383 39.318 39.258 39.203 39.163 39.133 39.12 39.065 39.058 39.04 39.01 38.97 38.95 38.925 38.903 38.835 38.808 38.743 38.693 38.698 38.765 38.788 38.815 38.83 38.813 38.615 38.473 38.443 38.393 38.393 38.393 38.393 38.428 38.423 38.433 38.48 38.53 38.555 38.61 38.6 38.613 38.56 38.603 38.578 38.588 38.988 39.333 39.685 39.738 39.685 39.633 39.583
48.193 47.998 47.885 47.915 48.073 48.098 47.735 47.38 47.37 47.398 47.36 47.29 47.22 47.15 47.13 47.143 47.183 47.165 47.178 47.12 47.033 47.04 47.02 46.998 47.04 47.005 47.008 46.988 46.99 46.973 46.935 46.89 46.888 46.873 46.865 46.838 46.815 46.795 46.773 46.725 46.708 46.705 46.693 46.693 46.65 46.63 46.638 46.633 46.638 46.63 46.65 46.615 46.598 46.588 46.575 46.538 46.535 46.515 46.505 46.468 46.458 46.453 46.485 46.488 46.483 46.523 46.518 46.515 46.508 46.488 46.473 46.465 46.448 46.488 46.47 46.445 46.448 46.453 46.45 46.438 46.455 46.445 46.45 46.465 46.45 46.445 46.405 46.43 46.42 46.388 46.36 46.345 46.333 46.333 46.265 46.278 46.27 46.24 46.2 46.19 46.163 46.16 46.135 46.125 46.108 46.123 46.083 46.025 45.983 45.98 45.983 45.98 45.98 46.008 46.025 45.978 45.988 45.965 45.945 45.963 45.945 45.935 45.92 45.913 45.905 45.925 45.938 45.94 45.965 45.945 45.948 45.963 45.92 45.925 45.938 45.935 45.963 45.98 46.01 46.025 46.003 46.008 46.033 46.015 46.028 46.018 46.025 45.998 45.98 45.985 45.98 45.97 46.003 46.008 46.013 46.005 46.045 46.068 46.07 46.078 46.098 46.133 46.183 46.193 46.223 46.265 46.335 46.333 46.4 46.493 46.575 46.683 46.778 46.735 46.655 46.588 46.585 46.56 46.475 46.413 46.343 46.23 46.218 46.185 46.148 46.148 46.155 46.163 46.148 46.15 46.138 46.135 46.148 46.163 46.18 46.195 46.15 46.138 46.103 46.113 46.105 46.088 46.1 46.115 46.07 46.043 46.05 46.068 46.04 46.03 45.978 45.978 45.935 45.903 45.883 45.873 45.858 45.82 45.803 45.775 45.753 45.688 45.683 45.613 45.583 45.52 45.52 45.503 45.478 45.438 45.418 45.355 45.328 45.295 45.268 45.22 45.213 45.168 45.168 45.143 45.14 45.138 45.085 45.098 45.08 44.98 44.903 44.928 44.88 44.863 44.753 44.69 44.658 44.605 44.568 44.523 44.47 44.44 44.4 44.388 44.375 44.298 44.27 44.205 44.173 44.158 44.128 44.07 44.045 43.985 43.95 43.928 43.978 43.968 43.865 43.875 43.83 43.808 43.773 43.705 43.688 43.723 43.71 43.685 43.685 43.705 43.668 43.655 43.668 43.735 43.698 43.723 43.753 43.805 43.8 43.83 43.853 43.738 43.518 43.425 43.34 43.238 43.25 43.22 43.138 43.06 43.053 42.98 42.98 42.978 42.923 42.878 42.875 42.82 42.805 42.765 42.76 42.748 42.738 42.743 42.703 42.678 42.65 42.645 42.64 42.63 42.595 42.61 42.563 42.55 42.538 42.488 42.458 42.42 42.345 42.313 42.278 42.21 42.17 42.108 42.11 42.105 42.028 42.063 42.068 42.023 41.983 41.945 41.905 41.845 41.773 41.655 41.583 41.418 41.313 41.225 41.16 41.138 41.025 40.97 40.883 40.775 40.705 40.655 40.633 40.573 40.525 40.54 40.465 40.443 40.443 40.423 40.403 40.345 40.31 40.273 40.223 40.178 40.135 40.073 40.018 39.978 39.935 39.878 39.82 39.778 39.758 39.678 39.62 39.555 39.485 39.428 39.375 39.328 39.245 39.173 39.168 39.158 39.115 39.078 39.07 39.03 39.02 38.993 38.983 38.948 38.918 38.865 38.853 38.773 38.693 38.743 38.778 38.778 38.813 38.83 38.943 38.71 38.435 38.438 38.388 38.358 38.363 38.38 38.378 38.388 38.398 38.428 38.475 38.51 38.538 38.575 38.555 38.558 38.575 38.575 38.55 38.575 39.018 39.408 39.653 39.708 39.628 39.58
48.288 47.898 47.878 47.993 48.17 48.048 47.513 47.373 47.38 47.358 47.345 47.283 47.208 47.155 47.123 47.105 47.143 47.153 47.118 47.085 47.068 47.09 47.055 47.045 47.068 47.058 46.99 46.983 46.983 46.938 46.943 46.92 46.885 46.868 46.885 46.828 46.825 46.815 46.77 46.748 46.713 46.688 46.65 46.65 46.635 46.603 46.61 46.588 46.605 46.615 46.608 46.603 46.6 46.568 46.563 46.535 46.548 46.483 46.485 46.463 46.478 46.453 46.44 46.438 46.485 46.48 46.485 46.508 46.508 46.485 46.463 46.478 46.455 46.458 46.438 46.398 46.428 46.405 46.428 46.453 46.425 46.458 46.423 46.435 46.443 46.403 46.413 46.438 46.393 46.365 46.36 46.35 46.315 46.263 46.233 46.248 46.228 46.205 46.198 46.158 46.173 46.158 46.11 46.075 46.095 46.07 46.063 46.035 46.028 45.98 45.965 45.98 45.978 45.98 46.008 45.983 45.968 45.94 45.95 45.963 45.983 45.958 45.908 45.885 45.93 45.93 45.935 45.945 45.97 45.963 45.955 45.945 45.935 45.92 45.938 45.913 45.93 45.94 45.985 45.985 45.99 45.995 46.058 46.005 46.038 46.038 45.998 45.938 45.945 45.983 45.985 45.948 45.985 45.988 45.98 45.985 46.015 46.05 46.07 46.09 46.08 46.093 46.15 46.183 46.2 46.218 46.3 46.348 46.393 46.443 46.515 46.598 46.745 46.88 46.758 46.61 46.57 46.563 46.483 46.408 46.325 46.27 46.24 46.21 46.183 46.15 46.135 46.138 46.13 46.123 46.145 46.128 46.123 46.125 46.168 46.17 46.13 46.145 46.118 46.093 46.093 46.09 46.073 46.113 46.073 46.045 46.04 46.06 46.02 46.013 45.99 45.955 45.94 45.875 45.86 45.843 45.84 45.825 45.795 45.773 45.745 45.693 45.683 45.655 45.578 45.513 45.51 45.495 45.465 45.423 45.425 45.345 45.31 45.295 45.28 45.248 45.198 45.203 45.175 45.14 45.143 45.145 45.108 45.093 45.075 45.025 44.945 44.93 44.88 44.828 44.785 44.708 44.683 44.6 44.563 44.52 44.495 44.455 44.4 44.388 44.378 44.308 44.275 44.198 44.145 44.135 44.135 44.103 44.09 44 43.97 43.95 43.945 43.995 43.883 43.855 43.823 43.8 43.753 43.718 43.658 43.668 43.703 43.658 43.678 43.675 43.678 43.648 43.655 43.72 43.76 43.788 43.785 43.693 43.845 43.828 43.913 44.03 43.58 43.42 43.38 43.318 43.323 43.333 43.21 43.13 43.085 42.97 42.988 43.01 42.94 42.845 42.863 42.84 42.81 42.788 42.77 42.788 42.688 42.718 42.69 42.65 42.665 42.658 42.66 42.66 42.653 42.588 42.57 42.535 42.493 42.463 42.44 42.428 42.338 42.293 42.283 42.218 42.158 42.1 42.063 42.055 42.07 42.055 42.015 42.018 41.968 41.933 41.9 41.84 41.808 41.693 41.575 41.45 41.388 41.338 41.225 41.138 41.08 41.03 40.968 40.875 40.815 40.75 40.693 40.633 40.59 40.618 40.575 40.528 40.55 40.495 40.485 40.463 40.403 40.38 40.313 40.285 40.213 40.158 40.11 40.068 39.99 39.943 39.878 39.793 39.74 39.708 39.623 39.553 39.515 39.428 39.345 39.32 39.22 39.193 39.173 39.148 39.1 39.115 39.08 39.048 39.033 39.005 38.985 38.925 38.933 38.903 38.818 38.608 38.558 38.6 38.78 38.735 38.753 38.82 38.883 38.525 38.395 38.413 38.37 38.328 38.308 38.335 38.365 38.37 38.32 38.36 38.403 38.42 38.458 38.508 38.528 38.538 38.505 38.53 38.525 38.503 38.59 38.948 39.323 39.623 39.65 39.58
48.075 47.873 47.91 48.083 48.185 47.85 47.413 47.398 47.44 47.365 47.365 47.263 47.193 47.138 47.103 47.098 47.17 47.198 47.2 47.143 47.108 47.14 47.123 47.075 47.068 47.068 47.02 46.953 46.968 46.943 46.915 46.94 46.903 46.898 46.87 46.84 46.828 46.788 46.765 46.753 46.753 46.688 46.635 46.638 46.653 46.595 46.595 46.595 46.585 46.61 46.608 46.59 46.593 46.56 46.575 46.528 46.505 46.468 46.473 46.438 46.433 46.445 46.42 46.418 46.43 46.433 46.468 46.508 46.51 46.485 46.465 46.465 46.44 46.405 46.433 46.39 46.408 46.408 46.4 46.425 46.415 46.423 46.43 46.41 46.395 46.388 46.383 46.388 46.408 46.355 46.323 46.343 46.285 46.245 46.243 46.283 46.243 46.183 46.193 46.16 46.175 46.163 46.123 46.108 46.098 46.055 46.043 46.02 45.988 45.988 45.98 45.953 45.955 45.93 45.953 45.983 45.995 45.968 45.958 45.955 45.985 45.963 45.908 45.88 45.9 45.908 45.948 45.918 45.915 45.948 45.945 45.928 45.908 45.948 45.903 45.948 45.945 45.948 45.983 45.995 45.995 45.983 45.995 45.988 46.015 46.018 45.973 45.963 45.975 45.968 45.955 45.958 45.975 45.978 45.97 45.943 45.998 46.03 46.028 46.038 46.068 46.085 46.148 46.173 46.178 46.22 46.275 46.288 46.368 46.413 46.465 46.543 46.633 46.765 46.808 46.633 46.568 46.553 46.51 46.418 46.358 46.293 46.228 46.178 46.148 46.155 46.14 46.133 46.12 46.123 46.153 46.09 46.12 46.14 46.148 46.173 46.148 46.148 46.138 46.08 46.063 46.11 46.103 46.1 46.073 46.028 46.055 46.055 46.02 46.003 45.965 45.943 45.93 45.883 45.85 45.865 45.808 45.795 45.798 45.78 45.74 45.698 45.64 45.618 45.588 45.513 45.498 45.495 45.48 45.435 45.413 45.348 45.328 45.308 45.273 45.243 45.228 45.193 45.153 45.13 45.133 45.12 45.12 45.07 45.07 45.05 44.983 44.933 44.928 44.855 44.778 44.735 44.67 44.61 44.565 44.528 44.478 44.458 44.408 44.393 44.355 44.323 44.255 44.223 44.17 44.16 44.105 44.068 44.035 44.01 43.983 43.958 43.938 43.978 43.898 43.855 43.848 43.783 43.73 43.733 43.695 43.69 43.69 43.65 43.67 43.688 43.683 43.698 43.68 43.725 43.765 43.843 43.8 43.705 43.81 43.77 43.695 44.033 43.81 43.44 43.388 43.335 43.33 43.4 43.275 43.013 43.095 43.018 42.978 42.998 42.935 42.828 42.855 42.845 42.825 42.83 42.775 42.785 42.72 42.695 42.66 42.615 42.67 42.668 42.62 42.595 42.603 42.585 42.538 42.523 42.503 42.468 42.413 42.395 42.355 42.323 42.22 42.198 42.168 42.113 42.068 42.05 42.083 42.05 42.03 42.018 41.985 41.943 41.873 41.853 41.79 41.703 41.623 41.483 41.423 41.393 41.31 41.238 41.188 41.125 41.083 40.978 40.895 40.843 40.793 40.74 40.738 40.695 40.713 40.663 40.653 40.635 40.608 40.573 40.515 40.488 40.418 40.333 40.298 40.233 40.213 40.158 40.063 40.005 39.938 39.843 39.785 39.725 39.663 39.555 39.5 39.415 39.34 39.3 39.265 39.225 39.193 39.165 39.123 39.15 39.118 39.09 39.038 39.023 39.025 38.995 38.995 38.955 38.823 38.595 38.685 38.615 38.758 38.735 38.768 38.825 38.438 38.268 38.39 38.385 38.34 38.288 38.273 38.308 38.32 38.303 38.288 38.308 38.333 38.36 38.38 38.425 38.435 38.453 38.428 38.473 38.505 38.473 38.483 38.628 38.978 39.42 39.618 39.58
47.91 47.91 47.97 48.155 48.1 47.618 47.37 47.388 47.433 47.408 47.343 47.255 47.223 47.23 47.195 47.173 47.215 47.218 47.193 47.165 47.125 47.12 47.15 47.12 47.073 47.075 47.07 46.99 46.983 46.945 46.93 46.953 46.905 46.895 46.863 46.823 46.81 46.77 46.79 46.755 46.728 46.708 46.633 46.63 46.615 46.6 46.598 46.64 46.628 46.608 46.585 46.57 46.573 46.573 46.535 46.503 46.518 46.483 46.475 46.453 46.435 46.423 46.438 46.433 46.425 46.445 46.468 46.475 46.473 46.473 46.463 46.45 46.443 46.413 46.418 46.41 46.405 46.423 46.41 46.428 46.408 46.385 46.4 46.4 46.39 46.403 46.383 46.355 46.348 46.318 46.313 46.285 46.25 46.248 46.233 46.21 46.178 46.213 46.215 46.158 46.128 46.133 46.118 46.073 46.098 46.058 46.053 46.01 45.953 45.955 45.953 45.953 45.94 45.948 45.933 45.965 45.995 45.963 45.96 45.933 45.935 45.95 45.913 45.9 45.895 45.888 45.915 45.908 45.9 45.938 45.935 45.93 45.948 45.938 45.953 45.895 45.948 45.92 45.94 45.965 45.98 45.988 45.993 46.005 46.023 45.983 45.98 45.985 45.988 45.973 45.893 45.955 45.978 45.96 45.953 45.95 46.015 46.018 46.023 46 46.045 46.068 46.113 46.12 46.178 46.193 46.203 46.258 46.33 46.368 46.4 46.468 46.583 46.758 46.84 46.703 46.593 46.53 46.48 46.41 46.328 46.3 46.215 46.175 46.158 46.118 46.118 46.118 46.103 46.113 46.113 46.11 46.103 46.085 46.11 46.13 46.12 46.128 46.105 46.08 46.06 46.08 46.073 46.078 46.078 46.038 46.013 45.993 46.003 45.988 45.96 45.958 45.898 45.868 45.838 45.845 45.823 45.808 45.798 45.753 45.713 45.7 45.645 45.62 45.593 45.503 45.493 45.475 45.455 45.415 45.388 45.363 45.328 45.29 45.26 45.255 45.228 45.15 45.153 45.158 45.13 45.1 45.11 45.1 45.075 45.043 45.003 44.943 44.893 44.828 44.785 44.765 44.695 44.635 44.59 44.558 44.528 44.443 44.388 44.375 44.365 44.34 44.285 44.245 44.158 44.143 44.1 44.088 44.05 43.998 43.963 43.935 43.915 43.938 43.855 43.825 43.858 43.79 43.75 43.755 43.74 43.688 43.668 43.628 43.655 43.69 43.695 43.68 43.663 43.688 43.725 43.818 43.828 43.808 43.73 43.788 43.7 43.91 43.978 43.493 43.4 43.313 43.275 43.323 43.33 43.085 43.088 43.028 43.003 42.973 42.915 42.823 42.805 42.83 42.848 42.803 42.788 42.755 42.753 42.738 42.703 42.688 42.685 42.65 42.633 42.588 42.585 42.57 42.54 42.528 42.51 42.453 42.4 42.375 42.33 42.298 42.24 42.175 42.15 42.113 42.058 42.05 42.048 42.045 42.03 42.013 41.97 41.948 41.915 41.878 41.808 41.73 41.68 41.58 41.543 41.435 41.393 41.318 41.268 41.185 41.143 41.095 41.015 40.95 40.913 40.843 40.82 40.82 40.82 40.805 40.785 40.74 40.718 40.688 40.665 40.59 40.568 40.475 40.393 40.363 40.29 40.21 40.138 40.08 40.018 39.943 39.833 39.785 39.673 39.588 39.518 39.44 39.343 39.303 39.303 39.255 39.225 39.203 39.165 39.148 39.143 39.07 39.083 39.058 39.063 39.01 38.965 38.9 38.798 38.705 38.803 38.788 38.773 38.763 38.748 38.875 38.448 38.275 38.34 38.36 38.318 38.255 38.265 38.27 38.275 38.25 38.293 38.255 38.28 38.298 38.298 38.35 38.373 38.388 38.41 38.43 38.435 38.423 38.418 38.473 38.665 39.233 39.653 39.58
47.898 47.968 48.105 48.21 47.953 47.448 47.38 47.433 47.418 47.443 47.33 47.273 47.265 47.263 47.225 47.208 47.205 47.143 47.158 47.193 47.163 47.125 47.133 47.128 47.09 47.065 47.068 47.033 46.998 46.995 46.958 46.948 46.9 46.898 46.865 46.835 46.813 46.775 46.768 46.755 46.703 46.71 46.658 46.625 46.623 46.605 46.613 46.64 46.628 46.593 46.58 46.56 46.578 46.565 46.553 46.533 46.523 46.475 46.458 46.458 46.43 46.4 46.42 46.438 46.44 46.438 46.44 46.458 46.445 46.47 46.465 46.433 46.43 46.428 46.42 46.428 46.37 46.378 46.408 46.385 46.38 46.378 46.375 46.358 46.358 46.363 46.363 46.358 46.343 46.318 46.298 46.265 46.265 46.235 46.205 46.19 46.195 46.213 46.165 46.163 46.15 46.095 46.09 46.078 46.06 46.058 46.043 46.035 45.975 45.945 45.94 45.938 45.898 45.908 45.928 45.958 45.958 45.938 45.945 45.94 45.923 45.96 45.953 45.923 45.885 45.845 45.883 45.913 45.888 45.898 45.913 45.938 45.948 45.928 45.95 45.91 45.918 45.93 45.943 45.968 45.96 45.95 45.97 45.975 46 45.918 45.97 45.96 45.938 45.958 45.935 45.93 45.953 45.95 45.968 45.985 45.998 45.993 45.993 46.02 46.033 46.015 46.053 46.11 46.145 46.143 46.17 46.265 46.293 46.313 46.358 46.44 46.528 46.655 46.908 46.758 46.608 46.53 46.493 46.443 46.323 46.265 46.223 46.16 46.115 46.12 46.13 46.103 46.115 46.135 46.123 46.115 46.11 46.095 46.105 46.103 46.115 46.115 46.073 46.07 46.08 46.05 46.07 46.058 46.02 46.02 46.02 45.993 45.978 45.965 45.945 45.94 45.895 45.875 45.848 45.813 45.845 45.815 45.783 45.723 45.693 45.688 45.655 45.628 45.59 45.548 45.495 45.455 45.448 45.4 45.383 45.355 45.288 45.255 45.245 45.235 45.215 45.185 45.133 45.13 45.148 45.15 45.135 45.118 45.093 45.058 45.018 44.948 44.87 44.87 44.77 44.753 44.683 44.618 44.585 44.535 44.523 44.47 44.4 44.355 44.343 44.323 44.295 44.243 44.183 44.138 44.11 44.09 44.055 44.008 43.953 43.923 43.903 43.898 43.86 43.865 43.83 43.798 43.763 43.758 43.748 43.678 43.668 43.645 43.64 43.67 43.693 43.678 43.683 43.695 43.723 43.81 43.855 43.835 43.825 43.81 43.85 43.918 44.043 43.753 43.413 43.305 43.21 43.298 43.293 43.073 43.03 43.045 42.973 42.98 42.965 42.888 42.87 42.873 42.863 42.798 42.788 42.778 42.743 42.735 42.673 42.675 42.665 42.643 42.63 42.603 42.58 42.565 42.533 42.538 42.465 42.43 42.38 42.325 42.298 42.263 42.228 42.155 42.158 42.123 42.073 42.065 42.053 42.063 42.043 42.018 41.995 41.948 41.93 41.87 41.815 41.78 41.758 41.67 41.605 41.523 41.468 41.363 41.325 41.27 41.223 41.188 41.138 41.045 41.003 40.99 40.945 40.935 40.928 40.91 40.88 40.873 40.835 40.815 40.763 40.713 40.655 40.585 40.5 40.435 40.363 40.3 40.2 40.16 40.088 40.025 39.865 39.81 39.745 39.665 39.573 39.448 39.41 39.353 39.313 39.308 39.268 39.245 39.23 39.16 39.165 39.135 39.1 39.083 39.048 39.028 38.98 38.848 38.823 38.763 38.813 38.805 38.773 38.765 38.758 38.86 38.408 38.238 38.31 38.298 38.283 38.258 38.198 38.2 38.188 38.193 38.225 38.228 38.243 38.253 38.275 38.295 38.308 38.31 38.345 38.385 38.415 38.41 38.415 38.398 38.44 38.738 39.393 39.608
47.9 48.033 48.175 48.14 47.693 47.383 47.423 47.458 47.433 47.44 47.343 47.3 47.285 47.243 47.233 47.233 47.198 47.133 47.13 47.175 47.18 47.133 47.118 47.095 47.08 47.053 47.105 47.023 46.998 46.98 46.933 46.91 46.923 46.898 46.848 46.838 46.803 46.768 46.778 46.735 46.693 46.735 46.683 46.655 46.628 46.628 46.598 46.618 46.625 46.595 46.568 46.583 46.563 46.563 46.54 46.525 46.508 46.485 46.475 46.448 46.455 46.42 46.418 46.42 46.428 46.43 46.435 46.435 46.46 46.43 46.423 46.433 46.423 46.395 46.4 46.395 46.385 46.373 46.378 46.353 46.355 46.358 46.355 46.37 46.353 46.328 46.353 46.333 46.325 46.32 46.288 46.235 46.243 46.243 46.215 46.195 46.16 46.148 46.175 46.185 46.155 46.078 46.095 46.073 46.055 46.045 46.068 46.033 46.01 45.978 45.948 45.963 45.93 45.935 45.948 45.953 45.918 45.92 45.965 45.948 45.918 45.953 45.96 45.913 45.9 45.87 45.863 45.883 45.878 45.908 45.92 45.9 45.9 45.92 45.938 45.92 45.885 45.905 45.928 45.943 45.953 45.975 45.955 46.003 45.99 45.95 45.963 45.973 45.935 45.973 45.933 45.94 45.91 45.938 45.938 45.968 45.975 45.988 45.96 46.023 46.018 46.02 46.06 46.075 46.118 46.145 46.185 46.225 46.265 46.268 46.328 46.388 46.483 46.583 46.76 46.76 46.65 46.538 46.485 46.445 46.385 46.3 46.24 46.21 46.16 46.168 46.128 46.08 46.088 46.115 46.108 46.093 46.07 46.07 46.078 46.075 46.07 46.065 46.053 46.08 46.055 46.04 46.053 46.015 46 46.003 45.99 45.95 45.968 45.93 45.93 45.928 45.898 45.85 45.828 45.783 45.788 45.78 45.773 45.745 45.683 45.673 45.645 45.615 45.578 45.548 45.498 45.485 45.438 45.445 45.398 45.36 45.328 45.285 45.263 45.263 45.245 45.205 45.158 45.15 45.148 45.16 45.155 45.12 45.103 45.063 45.028 44.993 44.905 44.858 44.808 44.718 44.69 44.63 44.58 44.525 44.495 44.448 44.428 44.358 44.328 44.32 44.295 44.245 44.188 44.16 44.105 44.058 44.03 44.018 43.983 43.94 43.893 43.878 43.893 43.875 43.83 43.828 43.765 43.758 43.765 43.695 43.678 43.683 43.71 43.69 43.708 43.705 43.743 43.72 43.72 43.77 43.808 43.81 43.843 43.705 43.845 43.868 44.015 43.91 43.493 43.37 43.27 43.233 43.21 43.125 43.113 42.965 43.008 42.988 42.97 42.923 42.918 42.81 42.848 42.815 42.8 42.788 42.755 42.743 42.703 42.655 42.668 42.638 42.635 42.593 42.565 42.578 42.575 42.52 42.423 42.418 42.375 42.338 42.288 42.263 42.24 42.173 42.143 42.128 42.063 42.065 42.075 42.075 42.05 42.005 41.978 41.97 41.913 41.85 41.813 41.833 41.763 41.708 41.655 41.565 41.548 41.455 41.38 41.368 41.338 41.27 41.253 41.185 41.135 41.108 41.07 41.045 41.013 41.038 40.993 40.988 40.965 40.92 40.865 40.82 40.745 40.698 40.598 40.513 40.47 40.383 40.27 40.24 40.153 40.073 39.968 39.858 39.778 39.708 39.62 39.503 39.483 39.423 39.365 39.31 39.32 39.273 39.258 39.203 39.17 39.108 39.09 39.088 39.058 38.993 38.96 38.893 38.88 38.79 38.813 38.783 38.79 38.795 38.818 38.83 38.348 38.268 38.258 38.28 38.273 38.208 38.165 38.148 38.155 38.173 38.168 38.183 38.183 38.188 38.188 38.225 38.21 38.248 38.275 38.313 38.35 38.363 38.36 38.34 38.333 38.423 38.815 39.405
47.925 48.1 48.185 47.943 47.505 47.438 47.46 47.43 47.45 47.413 47.338 47.32 47.31 47.273 47.248 47.258 47.21 47.218 47.153 47.188 47.233 47.148 47.108 47.133 47.103 47.055 47.063 47.038 47.018 46.97 46.915 46.893 46.92 46.928 46.84 46.82 46.803 46.75 46.758 46.755 46.73 46.73 46.71 46.688 46.658 46.665 46.643 46.603 46.613 46.613 46.593 46.608 46.558 46.563 46.573 46.55 46.518 46.505 46.458 46.44 46.413 46.405 46.398 46.378 46.39 46.41 46.425 46.433 46.4 46.44 46.433 46.433 46.45 46.405 46.4 46.393 46.385 46.36 46.39 46.353 46.333 46.348 46.358 46.35 46.353 46.338 46.325 46.295 46.295 46.315 46.27 46.26 46.225 46.213 46.195 46.178 46.155 46.155 46.175 46.148 46.115 46.093 46.1 46.078 46.03 46.04 46.085 46.015 46.005 46.025 45.983 45.97 45.955 45.933 45.948 45.965 45.95 45.963 45.978 45.958 45.89 45.93 45.97 45.915 45.92 45.863 45.865 45.87 45.878 45.863 45.865 45.893 45.915 45.938 45.898 45.913 45.908 45.89 45.91 45.948 45.968 45.995 45.978 45.978 45.97 45.96 45.958 45.953 45.925 45.948 45.953 45.885 45.883 45.918 45.933 45.935 45.913 45.95 45.968 45.97 45.955 45.995 46 46.07 46.088 46.113 46.148 46.188 46.243 46.235 46.29 46.32 46.403 46.52 46.61 46.678 46.655 46.543 46.468 46.468 46.425 46.36 46.278 46.23 46.183 46.13 46.123 46.1 46.098 46.09 46.093 46.085 46.058 46.035 46.05 46.07 46.033 46.043 46.05 46.05 46.015 46.033 45.998 45.995 45.99 45.98 45.973 45.943 45.953 45.945 45.95 45.918 45.903 45.843 45.805 45.763 45.743 45.748 45.743 45.7 45.675 45.658 45.633 45.573 45.535 45.518 45.468 45.425 45.418 45.43 45.388 45.353 45.315 45.275 45.263 45.253 45.233 45.215 45.178 45.155 45.13 45.13 45.145 45.1 45.098 45.073 45.02 44.95 44.93 44.85 44.78 44.743 44.668 44.623 44.558 44.53 44.508 44.458 44.435 44.378 44.305 44.29 44.285 44.255 44.193 44.143 44.098 44.065 44.028 43.99 43.975 43.935 43.903 43.895 43.875 43.873 43.828 43.81 43.815 43.763 43.758 43.755 43.74 43.703 43.718 43.708 43.693 43.695 43.713 43.713 43.715 43.733 43.78 43.775 43.708 43.72 43.8 43.833 43.965 44.058 43.605 43.375 43.3 43.235 43.173 43.145 43.02 42.93 42.985 43.02 42.985 42.978 42.948 42.8 42.843 42.82 42.785 42.778 42.77 42.72 42.68 42.703 42.688 42.685 42.618 42.573 42.575 42.54 42.535 42.503 42.465 42.44 42.368 42.31 42.288 42.228 42.188 42.168 42.123 42.1 42.048 42.043 42.078 42.053 42.018 42.025 41.968 41.928 41.898 41.883 41.853 41.83 41.818 41.738 41.7 41.665 41.6 41.533 41.49 41.488 41.46 41.365 41.353 41.298 41.278 41.235 41.223 41.183 41.203 41.165 41.155 41.123 41.07 41.045 41.003 40.91 40.85 40.768 40.695 40.635 40.543 40.493 40.39 40.305 40.23 40.1 40.023 39.908 39.825 39.758 39.693 39.61 39.508 39.458 39.415 39.378 39.363 39.345 39.285 39.235 39.168 39.168 39.18 39.083 39.023 39.02 38.995 38.953 38.878 38.83 38.805 38.823 38.828 38.823 38.923 38.675 38.348 38.255 38.253 38.26 38.243 38.215 38.185 38.135 38.105 38.123 38.128 38.125 38.16 38.135 38.125 38.165 38.178 38.205 38.22 38.243 38.273 38.31 38.303 38.295 38.25 38.313 38.36 38.79
