ncols 438
nrows 31
xllcorner    426066
yllcorner    489722
cellsize     2
NODATA_value -9999
36.7 36.743 36.77 36.773 36.793 36.798 36.805 36.798 36.765 36.81 36.81 36.798 36.828 36.858 36.875 36.888 36.875 36.85 36.825 36.837 36.842 36.787 36.742 36.725 36.7 36.645 36.612 36.55 36.487 36.472 36.487 36.512 36.575 36.6 36.582 36.337 36.297 36.382 36.347 36.315 36.28 36.21 36.192 36.167 36.16 36.18 36.18 36.207 36.24 36.217 36.19 36.117 36.067 36.007 35.995 35.997 35.985 35.982 35.955 35.947 35.97 35.965 35.99 36.007 36.01 36.02 36.012 36.097 36.162 36.225 36.287 36.34 36.377 36.37 36.365 36.37 36.432 36.447 36.41 36.302 36.317 36.36 36.32 36.212 36.245 36.212 36.192 36.215 36.225 36.285 36.275 36.237 36.18 36.18 36.085 35.972 36 36.115 36.162 36.24 36.237 36.28 36.292 36.267 36.322 36.295 36.31 36.335 36.327 36.315 36.277 36.312 36.312 36.307 36.332 36.23 36.02 36.06 35.692 35.462 35.535 35.717 36.042 36.21 36.18 36.257 36.272 36.29 36.3 36.337 36.347 36.362 36.39 36.325 36.277 36.307 36.322 36.322 36.35 36.362 36.375 36.4 36.422 36.407 36.455 36.455 36.465 36.5 36.542 36.57 36.612 36.637 36.75 36.772 36.812 36.855 36.925 36.942 36.957 36.97 36.99 36.972 36.935 36.93 36.925 36.877 36.857 36.827 36.817 36.782 36.747 36.735 36.672 36.627 36.585 36.485 36.472 36.442 36.42 36.372 36.37 36.38 36.387 36.382 36.41 36.415 36.492 36.565 36.62 36.602 36.67 36.725 36.787 36.817 36.825 36.847 36.852 36.897 36.942 37.067 37.025 37.067 37.005 36.967 36.965 36.972 36.957 36.935 36.887 36.912 36.862 36.86 36.89 36.877 36.865 36.87 36.892 36.88 36.892 36.922 36.91 36.932 36.927 36.92 36.852 36.88 36.847 36.852 36.992 37.16 37.095 36.992 36.877 36.775 36.747 36.805 36.8 36.8 36.812 36.862 36.847 36.812 36.82 36.87 36.802 36.782 36.795 36.8 36.73 36.7 36.645 36.587 36.525 36.502 36.487 36.462 36.447 36.447 36.42 36.375 36.39 36.34 36.297 36.29 36.235 36.23 36.217 36.157 36.152 36.124 36.094 36.077 36.037 36.014 36.012 36.037 36.014 36.044 35.924 35.537 34.882 34.049 33.654 33.877 33.974 34.032 34.637 35.522 36.044 35.832 35.974 35.807 35.634 35.617 35.584 35.649 35.662 35.644 35.657 35.699 35.714 35.744 35.777 35.822 35.824 35.799 35.842 35.792 35.762 35.772 35.804 35.779 35.762 35.659 35.624 35.639 35.629 35.617 35.587 35.542 35.524 35.539 35.587 35.649 35.727 35.732 35.767 35.739 35.392 35.089 35.007 35.184 35.594 35.762 35.737 35.702 35.637 35.614 35.659 35.634 35.639 35.697 35.722 35.742 35.752 35.744 35.717 35.689 35.737 35.789 35.792 35.759 35.724 35.659 35.724 35.717 35.719 35.714 35.674 35.639 35.619 35.577 35.532 35.569 35.594 35.604 35.619 35.634 35.637 35.609 35.574 35.537 35.527 35.522 35.544 35.557 35.554 35.562 35.587 35.579 35.557 35.567 35.542 35.542 35.542 35.517 35.469 35.412 35.384 35.332 35.267 35.189 35.147 35.092 35.084 35.082 35.144 35.147 35.129 35.062 35.017 34.994 35.037 35.057 34.974 34.964 34.954 34.952 34.957 34.889 34.817 34.742 34.692 34.677 34.659 34.657 34.669 34.749 34.839 34.854 34.539 34.014 33.912 33.894 33.797 33.889 34.294 34.527 34.629 34.614 34.604 34.627 34.632 34.557 34.497 34.422 34.377 34.319
36.743 36.785 36.798 36.78 36.78 36.82 36.783 36.803 36.78 36.783 36.815 36.82 36.815 36.798 36.823 36.855 36.823 36.825 36.772 36.762 36.762 36.745 36.692 36.682 36.697 36.672 36.612 36.567 36.535 36.51 36.51 36.53 36.597 36.675 36.612 36.35 36.357 36.435 36.402 36.397 36.317 36.232 36.182 36.18 36.202 36.255 36.26 36.28 36.247 36.26 36.225 36.172 36.067 36.012 35.975 36.002 35.99 35.987 35.97 35.947 35.927 35.96 35.977 35.982 35.99 35.985 36.012 36.107 36.157 36.21 36.247 36.317 36.372 36.37 36.34 36.357 36.4 36.412 36.385 36.327 36.302 36.305 36.287 36.25 36.262 36.255 36.255 36.277 36.262 36.24 36.215 36.165 36.192 36.19 36.125 36.072 36.02 36.11 36.162 36.235 36.265 36.255 36.252 36.27 36.302 36.34 36.307 36.312 36.302 36.312 36.332 36.355 36.325 36.322 36.302 36.007 35.68 35.602 35.59 35.697 36.065 36.127 36.212 36.212 36.202 36.24 36.25 36.32 36.34 36.34 36.352 36.35 36.357 36.37 36.367 36.377 36.367 36.382 36.385 36.407 36.425 36.425 36.442 36.445 36.477 36.482 36.49 36.532 36.58 36.625 36.662 36.707 36.79 36.835 36.842 36.895 36.937 36.96 37.005 37.022 37.025 37.032 37 37.01 36.982 36.97 36.937 36.91 36.852 36.827 36.817 36.807 36.722 36.655 36.552 36.462 36.445 36.487 36.485 36.475 36.47 36.44 36.422 36.427 36.472 36.532 36.565 36.62 36.667 36.722 36.752 36.79 36.817 36.825 36.992 36.97 36.932 36.972 37.017 37.017 37.022 37.03 36.99 36.98 36.98 36.967 36.93 36.935 36.937 36.922 36.912 36.907 36.907 36.897 36.917 36.885 36.91 36.89 36.887 36.937 36.977 36.95 36.962 36.965 36.925 36.952 36.915 36.917 37.027 37.162 37.105 37.005 36.91 36.802 36.797 36.845 36.847 36.837 36.842 36.885 36.87 36.83 36.862 36.88 36.847 36.84 36.827 36.817 36.74 36.68 36.672 36.662 36.617 36.58 36.555 36.52 36.477 36.45 36.44 36.402 36.39 36.367 36.345 36.34 36.292 36.252 36.23 36.212 36.199 36.179 36.129 36.127 36.107 36.062 36.024 36.057 36.064 36.067 36.044 35.947 35.657 34.919 34.034 34.047 33.877 33.932 34.074 34.504 35.142 35.607 36.042 35.829 35.677 35.642 35.607 35.619 35.689 35.707 35.647 35.679 35.694 35.722 35.752 35.752 35.774 35.782 35.782 35.787 35.777 35.747 35.749 35.759 35.774 35.734 35.622 35.612 35.642 35.619 35.599 35.574 35.517 35.519 35.577 35.644 35.729 35.737 35.734 35.734 35.529 35.142 35.002 35.154 35.494 35.714 35.714 35.669 35.619 35.622 35.604 35.629 35.622 35.672 35.712 35.739 35.697 35.617 35.467 35.384 35.439 35.589 35.709 35.792 35.769 35.704 35.717 35.719 35.727 35.699 35.674 35.637 35.619 35.614 35.559 35.514 35.519 35.577 35.617 35.617 35.612 35.627 35.612 35.552 35.572 35.567 35.574 35.567 35.562 35.584 35.599 35.577 35.554 35.564 35.559 35.522 35.497 35.504 35.472 35.412 35.364 35.284 35.224 35.137 35.149 35.127 35.127 35.114 35.167 35.157 35.129 35.112 35.052 35.029 35.082 35.092 35.027 35.014 34.977 35.014 34.994 34.949 34.904 34.844 34.759 34.724 34.699 34.677 34.752 34.844 34.897 34.707 34.084 33.664 33.972 33.979 34.179 34.409 34.682 34.672 34.682 34.662 34.687 34.644 34.619 34.569 34.512 34.487 34.434 34.387
36.753 36.793 36.8 36.815 36.83 36.838 36.823 36.818 36.77 36.775 36.788 36.795 36.773 36.788 36.808 36.805 36.82 36.797 36.755 36.74 36.735 36.732 36.69 36.687 36.697 36.695 36.65 36.627 36.592 36.567 36.57 36.58 36.672 36.725 36.682 36.435 36.36 36.482 36.482 36.462 36.412 36.33 36.3 36.237 36.247 36.287 36.307 36.297 36.28 36.27 36.225 36.155 36.05 35.995 35.957 35.987 36.012 35.99 35.957 35.952 35.912 35.962 35.985 36.012 36.01 36.005 36.042 36.077 36.12 36.192 36.252 36.322 36.345 36.297 36.317 36.322 36.345 36.372 36.377 36.38 36.377 36.362 36.36 36.345 36.305 36.297 36.315 36.307 36.277 36.2 36.127 36.13 36.165 36.195 36.135 36.075 35.967 36.072 36.175 36.247 36.302 36.29 36.29 36.247 36.272 36.312 36.272 36.285 36.325 36.295 36.317 36.307 36.315 36.102 35.732 35.467 35.43 35.592 35.75 36.062 36.237 36.227 36.222 36.257 36.237 36.275 36.287 36.33 36.352 36.372 36.407 36.382 36.37 36.347 36.387 36.407 36.37 36.405 36.405 36.435 36.455 36.467 36.462 36.467 36.497 36.517 36.53 36.557 36.592 36.647 36.68 36.747 36.8 36.847 36.867 36.925 36.967 36.98 37.017 37.097 37.082 37.082 37.08 37.055 37.025 37.002 36.972 36.967 36.915 36.862 36.86 36.785 36.732 36.77 36.697 36.67 36.582 36.542 36.472 36.415 36.472 36.48 36.467 36.447 36.537 36.645 36.65 36.73 36.81 36.762 36.86 36.94 36.93 36.947 37.035 37.022 37.01 37.022 36.997 36.985 37.01 37.042 37.017 36.995 36.982 36.957 36.927 36.945 36.985 36.965 36.96 36.945 36.93 36.922 36.922 36.927 36.91 36.92 36.917 36.935 36.977 36.977 36.975 36.977 36.98 36.987 36.965 36.96 37.045 37.172 37.157 37.077 36.965 36.84 36.807 36.842 36.862 36.865 36.912 36.895 36.867 36.885 36.902 36.87 36.865 36.865 36.85 36.83 36.76 36.767 36.717 36.677 36.657 36.6 36.582 36.565 36.51 36.492 36.457 36.435 36.412 36.372 36.352 36.33 36.317 36.307 36.292 36.262 36.227 36.212 36.162 36.202 36.169 36.124 36.069 36.044 36.032 36.052 36.059 36.092 35.992 35.622 34.692 34.072 33.799 33.872 33.982 33.962 34.264 34.992 35.727 35.979 35.864 35.714 35.629 35.637 35.742 35.734 35.657 35.662 35.667 35.727 35.737 35.739 35.747 35.757 35.764 35.754 35.764 35.744 35.732 35.737 35.784 35.747 35.692 35.602 35.617 35.617 35.592 35.559 35.507 35.512 35.572 35.632 35.697 35.729 35.717 35.747 35.619 35.262 35.019 35.099 35.449 35.732 35.712 35.664 35.607 35.619 35.594 35.629 35.652 35.702 35.717 35.684 35.544 35.249 35.084 35.024 35.037 35.174 35.357 35.637 35.767 35.779 35.724 35.747 35.737 35.702 35.709 35.682 35.642 35.622 35.587 35.582 35.502 35.539 35.564 35.567 35.592 35.602 35.594 35.562 35.579 35.589 35.622 35.612 35.622 35.594 35.584 35.567 35.569 35.567 35.559 35.514 35.497 35.479 35.452 35.409 35.357 35.279 35.199 35.167 35.159 35.172 35.134 35.134 35.154 35.184 35.172 35.142 35.102 35.074 35.067 35.087 35.114 35.092 35.017 34.994 34.927 34.877 34.889 34.839 34.799 34.762 34.729 34.744 34.802 34.909 34.924 34.654 33.754 33.599 33.954 34.229 34.529 34.687 34.724 34.784 34.747 34.724 34.737 34.709 34.634 34.574 34.562 34.559 34.537 34.494
36.745 36.808 36.82 36.835 36.8 36.828 36.835 36.845 36.8 36.783 36.788 36.788 36.76 36.788 36.815 36.79 36.803 36.775 36.745 36.725 36.715 36.73 36.727 36.71 36.73 36.722 36.727 36.652 36.642 36.615 36.617 36.62 36.707 36.762 36.745 36.532 36.365 36.475 36.552 36.537 36.465 36.402 36.347 36.305 36.307 36.342 36.287 36.277 36.275 36.252 36.247 36.205 36.09 36.002 36.005 36.007 36.015 35.99 35.987 35.975 35.92 35.945 35.957 35.975 35.99 36.012 36.095 36.087 36.105 36.182 36.247 36.307 36.305 36.28 36.29 36.285 36.282 36.3 36.33 36.362 36.387 36.335 36.41 36.36 36.3 36.25 36.28 36.275 36.235 36.197 36.16 36.182 36.16 36.18 36.147 36.032 35.94 36.067 36.17 36.297 36.322 36.312 36.307 36.29 36.227 36.26 36.262 36.305 36.395 36.33 36.355 36.307 35.94 35.48 35.5 35.437 35.755 35.962 36.07 36.237 36.215 36.207 36.235 36.302 36.297 36.31 36.317 36.327 36.335 36.377 36.427 36.427 36.45 36.41 36.367 36.402 36.432 36.42 36.432 36.482 36.51 36.507 36.502 36.49 36.495 36.532 36.572 36.59 36.647 36.675 36.72 36.757 36.81 36.852 36.892 36.947 37.005 37.03 37.077 37.122 37.115 37.125 37.14 37.125 37.09 37.032 37.055 37 36.977 36.93 36.8 36.777 36.812 36.84 36.782 36.73 36.652 36.617 36.55 36.465 36.505 36.48 36.515 36.557 36.627 36.702 36.745 36.84 36.887 36.935 37.095 37.115 37.12 37.042 37.037 37.025 36.997 36.992 36.992 37.015 37.012 37.05 37.03 37.017 37.005 36.987 36.942 36.952 36.985 36.955 36.955 36.925 36.952 36.957 36.972 36.922 36.917 36.94 36.937 36.96 36.987 37.007 36.99 36.982 36.99 36.995 36.98 36.985 37.085 37.192 37.137 37.065 36.962 36.89 36.845 36.832 36.82 36.87 36.882 36.892 36.877 36.88 36.887 36.855 36.877 36.875 36.86 36.857 36.8 36.77 36.727 36.707 36.672 36.64 36.607 36.552 36.555 36.505 36.445 36.445 36.452 36.417 36.405 36.372 36.345 36.322 36.3 36.284 36.279 36.254 36.234 36.209 36.177 36.164 36.142 36.109 36.092 36.117 36.104 36.097 36.172 36.064 35.554 34.852 34.282 33.869 33.792 33.904 33.929 34.124 34.879 35.614 36.039 35.869 35.717 35.654 35.712 35.669 35.657 35.667 35.672 35.697 35.752 35.747 35.709 35.699 35.729 35.739 35.707 35.747 35.709 35.717 35.754 35.769 35.744 35.694 35.607 35.594 35.592 35.589 35.529 35.512 35.552 35.602 35.669 35.719 35.762 35.762 35.637 35.234 35.067 35.027 35.352 35.749 35.714 35.684 35.654 35.622 35.599 35.637 35.682 35.684 35.704 35.597 35.277 35.084 35.002 35.017 35.007 34.967 35.012 35.214 35.604 35.792 35.782 35.744 35.732 35.724 35.704 35.694 35.672 35.629 35.619 35.624 35.579 35.537 35.504 35.499 35.569 35.559 35.557 35.564 35.582 35.599 35.614 35.639 35.644 35.629 35.627 35.577 35.567 35.542 35.527 35.504 35.479 35.444 35.422 35.394 35.337 35.287 35.217 35.182 35.197 35.194 35.154 35.132 35.157 35.197 35.177 35.144 35.142 35.104 35.079 35.057 35.072 35.094 34.992 34.967 34.857 34.749 34.849 34.904 34.857 34.799 34.782 34.844 34.882 34.919 34.929 34.462 33.639 33.812 34.129 34.602 34.692 34.762 34.762 34.819 34.772 34.779 34.767 34.684 34.644 34.619 34.599 34.582 34.592 34.589
36.78 36.813 36.828 36.818 36.813 36.85 36.853 36.84 36.818 36.793 36.803 36.823 36.808 36.783 36.803 36.8 36.793 36.755 36.745 36.732 36.73 36.722 36.7 36.7 36.747 36.757 36.752 36.69 36.71 36.67 36.665 36.685 36.737 36.797 36.787 36.61 36.415 36.492 36.572 36.587 36.537 36.447 36.4 36.392 36.375 36.372 36.34 36.295 36.275 36.232 36.215 36.182 36.102 36.01 36.01 36.02 36.045 36 35.982 35.955 35.947 35.927 35.957 35.975 36.005 36.077 36.1 36.117 36.127 36.157 36.285 36.312 36.31 36.32 36.282 36.262 36.247 36.232 36.267 36.295 36.287 36.325 36.302 36.3 36.252 36.202 36.2 36.157 36.162 36.18 36.15 36.14 36.142 36.147 36.12 36.07 36.015 36.107 36.197 36.325 36.345 36.335 36.337 36.36 36.307 36.285 36.242 36.297 36.36 36.292 36.312 35.875 35.28 35.412 35.682 36.05 36.212 36.217 36.22 36.255 36.235 36.225 36.255 36.267 36.307 36.35 36.33 36.342 36.387 36.387 36.42 36.442 36.46 36.467 36.435 36.44 36.472 36.472 36.475 36.502 36.5 36.505 36.522 36.522 36.525 36.557 36.575 36.615 36.65 36.69 36.765 36.802 36.847 36.877 36.952 37.01 37.042 37.065 37.125 37.14 37.135 37.142 37.167 37.135 37.097 37.09 37.052 36.987 37.025 37.025 36.96 36.937 36.925 36.87 36.782 36.71 36.632 36.632 36.562 36.52 36.552 36.555 36.617 36.677 36.745 36.767 36.825 36.912 37.055 37.1 37.077 37.125 37.102 37.037 37.032 37 37.03 37.002 36.995 37.007 37.032 37.072 37.055 37.052 37.047 37 36.955 36.96 36.962 36.95 36.952 36.947 36.96 36.965 36.985 36.96 36.952 36.962 36.962 36.96 36.977 37.005 37.037 37.025 37 37.02 36.995 37.027 37.017 37.117 37.155 37.085 37 36.91 36.865 36.877 36.847 36.89 36.895 36.887 36.867 36.88 36.897 36.89 36.867 36.87 36.86 36.84 36.837 36.792 36.755 36.717 36.687 36.647 36.6 36.577 36.547 36.517 36.47 36.465 36.467 36.43 36.43 36.375 36.362 36.352 36.365 36.339 36.304 36.307 36.297 36.252 36.259 36.229 36.187 36.164 36.149 36.124 36.092 36.152 36.189 36.149 35.914 35.542 35.112 34.512 34.019 33.937 33.889 33.892 34.082 34.789 35.567 35.934 35.889 35.719 35.754 35.767 35.669 35.659 35.672 35.664 35.674 35.697 35.672 35.664 35.662 35.702 35.707 35.704 35.717 35.687 35.722 35.764 35.789 35.809 35.717 35.602 35.584 35.622 35.572 35.512 35.474 35.527 35.639 35.724 35.772 35.747 35.692 35.252 35.007 35.004 35.272 35.652 35.737 35.709 35.694 35.667 35.647 35.659 35.672 35.682 35.632 35.379 35.057 35.012 35.007 35.034 34.992 34.992 35.019 35.029 35.257 35.624 35.809 35.787 35.727 35.717 35.739 35.719 35.687 35.639 35.632 35.604 35.589 35.574 35.502 35.482 35.549 35.589 35.594 35.562 35.599 35.592 35.589 35.599 35.622 35.644 35.619 35.592 35.589 35.544 35.522 35.482 35.457 35.447 35.422 35.419 35.367 35.297 35.219 35.194 35.214 35.224 35.189 35.172 35.174 35.199 35.214 35.152 35.167 35.134 35.047 34.957 34.932 34.964 34.889 34.817 34.767 34.682 34.782 34.927 34.892 34.864 34.834 34.839 34.857 34.859 34.874 34.582 33.722 33.822 34.119 34.579 34.727 34.742 34.782 34.787 34.764 34.774 34.734 34.674 34.652 34.627 34.634 34.617 34.609 34.627
36.803 36.818 36.85 36.833 36.83 36.855 36.863 36.87 36.86 36.805 36.833 36.84 36.795 36.775 36.798 36.803 36.803 36.772 36.747 36.725 36.745 36.762 36.762 36.755 36.78 36.807 36.772 36.752 36.752 36.717 36.715 36.715 36.727 36.845 36.847 36.717 36.435 36.48 36.655 36.642 36.587 36.485 36.455 36.452 36.455 36.437 36.375 36.342 36.28 36.25 36.225 36.167 36.135 36.032 36.005 36.025 36.005 36.002 35.95 35.945 35.955 35.952 35.955 36.002 36.032 36.077 36.1 36.122 36.14 36.202 36.26 36.285 36.327 36.292 36.26 36.202 36.182 36.18 36.21 36.192 36.197 36.245 36.217 36.19 36.185 36.137 36.115 36.067 36.08 36.085 36.08 36.135 36.147 36.205 36.16 36.09 36.057 36.152 36.24 36.345 36.355 36.332 36.325 36.31 36.28 36.237 36.262 36.335 36.385 36.24 35.735 35.322 35.42 36.092 36.212 36.27 36.272 36.267 36.262 36.267 36.275 36.272 36.285 36.28 36.362 36.355 36.367 36.36 36.4 36.395 36.402 36.455 36.5 36.482 36.495 36.472 36.485 36.475 36.492 36.51 36.517 36.51 36.545 36.545 36.547 36.577 36.612 36.63 36.69 36.707 36.812 36.857 36.88 36.945 37.007 37.055 37.085 37.097 37.165 37.165 37.125 37.162 37.172 37.132 37.082 37.057 37.005 37.072 37.067 37.055 37.04 37 36.977 36.9 36.787 36.71 36.642 36.625 36.635 36.575 36.512 36.59 36.655 36.71 36.74 36.922 36.992 37.105 37.155 37.077 37.05 37.04 37.027 37.02 37.025 36.997 37.005 36.982 37.005 37.015 37.042 37.06 37.085 37.082 37.065 37.015 37.007 36.945 36.962 36.952 36.947 36.972 36.977 37.002 36.995 36.965 36.982 36.97 36.967 36.947 37.02 37.027 37.042 37.035 37.02 37.065 37.012 36.98 37.022 37.182 37.207 37.127 37.015 36.93 36.84 36.867 36.86 36.88 36.83 36.84 36.842 36.86 36.875 36.887 36.852 36.832 36.852 36.825 36.82 36.802 36.777 36.722 36.677 36.66 36.595 36.602 36.582 36.542 36.49 36.487 36.465 36.45 36.44 36.42 36.415 36.417 36.395 36.372 36.369 36.367 36.339 36.307 36.314 36.284 36.224 36.219 36.214 36.142 36.132 36.157 36.172 36.212 36.212 36.029 35.764 35.222 34.734 34.187 33.917 33.849 33.906 33.991 34.657 35.404 35.714 35.772 35.707 35.739 35.767 35.657 35.619 35.637 35.602 35.612 35.629 35.629 35.599 35.607 35.644 35.657 35.687 35.689 35.697 35.717 35.729 35.784 35.764 35.659 35.594 35.604 35.592 35.532 35.467 35.497 35.597 35.674 35.744 35.767 35.767 35.402 35.042 34.984 35.202 35.682 35.744 35.727 35.717 35.722 35.689 35.684 35.659 35.672 35.502 35.152 35.027 35.017 35.099 35.224 35.169 35.082 35.087 35.044 35.049 35.402 35.732 35.814 35.747 35.734 35.712 35.722 35.672 35.664 35.652 35.637 35.614 35.599 35.579 35.534 35.517 35.584 35.614 35.619 35.629 35.624 35.599 35.584 35.614 35.604 35.564 35.569 35.589 35.544 35.532 35.487 35.469 35.444 35.399 35.384 35.369 35.347 35.277 35.224 35.242 35.259 35.234 35.222 35.244 35.237 35.244 35.207 35.162 35.034 34.914 34.794 34.827 34.757 34.752 34.702 34.709 34.652 34.704 34.794 34.819 34.824 34.879 34.822 34.824 34.862 34.899 34.629 33.849 33.879 34.107 34.432 34.684 34.712 34.747 34.782 34.782 34.764 34.709 34.667 34.634 34.609 34.639 34.637 34.654 34.684
36.81 36.818 36.863 36.863 36.885 36.9 36.893 36.925 36.873 36.845 36.863 36.88 36.838 36.82 36.835 36.828 36.83 36.81 36.8 36.78 36.802 36.8 36.817 36.815 36.832 36.82 36.847 36.8 36.767 36.765 36.737 36.752 36.795 36.87 36.897 36.837 36.495 36.465 36.68 36.68 36.625 36.547 36.517 36.512 36.485 36.492 36.445 36.367 36.312 36.282 36.237 36.197 36.177 36.107 36.085 36.052 35.99 35.94 35.93 35.937 35.955 35.942 35.937 36 36.077 36.075 36.102 36.122 36.17 36.235 36.245 36.27 36.295 36.295 36.23 36.192 36.167 36.162 36.11 36.11 36.127 36.13 36.115 36.082 36.092 36.082 36.025 36.022 36.027 36.032 36.055 36.102 36.117 36.125 36.095 36.12 36.127 36.212 36.267 36.33 36.352 36.357 36.337 36.295 36.277 36.257 36.287 36.352 36.197 35.587 35.272 35.462 35.95 36.31 36.317 36.272 36.285 36.247 36.272 36.27 36.315 36.295 36.315 36.31 36.32 36.357 36.38 36.39 36.442 36.427 36.407 36.455 36.525 36.537 36.527 36.467 36.497 36.527 36.525 36.537 36.55 36.532 36.53 36.542 36.542 36.597 36.622 36.637 36.705 36.752 36.84 36.902 36.952 37 37.075 37.067 37.087 37.157 37.18 37.192 37.17 37.137 37.105 37.11 37.077 37.082 37.097 37.137 37.112 37.097 37.06 36.972 36.935 36.872 36.82 36.772 36.67 36.612 36.605 36.555 36.585 36.705 36.74 36.77 36.797 37.007 37.085 37.14 37.062 37.022 37.02 37.035 37.055 37.04 37.01 36.995 36.967 36.95 37.012 37.04 37.052 37.03 37.077 37.062 37.065 37.015 37 36.932 36.93 36.952 36.947 36.982 36.972 37.002 36.987 36.987 37.01 36.995 36.997 36.995 37.01 36.997 37.015 37.017 37.007 37.037 37.032 36.99 37.015 37.225 37.225 37.145 37.01 36.94 36.882 36.862 36.872 36.882 36.855 36.867 36.827 36.86 36.86 36.847 36.83 36.825 36.832 36.812 36.79 36.805 36.767 36.725 36.682 36.632 36.577 36.567 36.57 36.527 36.515 36.502 36.447 36.45 36.487 36.447 36.432 36.415 36.41 36.377 36.384 36.399 36.397 36.369 36.339 36.334 36.259 36.254 36.222 36.204 36.162 36.139 36.157 36.197 36.214 36.254 36.149 35.952 35.244 34.684 34.287 34.147 34.047 33.965 33.967 34.449 35.044 35.372 35.432 35.644 35.709 35.674 35.579 35.607 35.582 35.572 35.604 35.609 35.564 35.552 35.554 35.592 35.637 35.669 35.684 35.667 35.704 35.744 35.787 35.782 35.704 35.587 35.574 35.572 35.504 35.484 35.502 35.587 35.697 35.732 35.822 35.564 35.054 34.987 35.102 35.574 35.722 35.747 35.739 35.769 35.694 35.702 35.679 35.599 35.337 35.139 35.052 35.057 35.334 35.524 35.529 35.447 35.254 35.202 35.157 35.162 35.564 35.794 35.804 35.799 35.767 35.714 35.677 35.662 35.642 35.622 35.632 35.607 35.589 35.562 35.539 35.507 35.562 35.574 35.592 35.649 35.657 35.639 35.617 35.584 35.532 35.544 35.532 35.534 35.514 35.507 35.472 35.482 35.479 35.432 35.409 35.387 35.342 35.289 35.289 35.299 35.299 35.297 35.317 35.299 35.214 35.129 35.017 34.864 34.827 34.872 34.927 34.877 34.932 34.914 34.837 34.729 34.687 34.697 34.719 34.799 34.887 34.837 34.847 34.884 34.972 34.859 33.809 33.712 34.029 34.282 34.639 34.727 34.752 34.764 34.792 34.789 34.694 34.664 34.647 34.632 34.704 34.712 34.737 34.762
36.838 36.85 36.883 36.893 36.9 36.93 36.925 36.963 36.948 36.883 36.905 36.923 36.898 36.878 36.873 36.88 36.903 36.865 36.862 36.832 36.84 36.88 36.9 36.872 36.882 36.912 36.887 36.832 36.84 36.79 36.782 36.787 36.812 36.88 36.925 36.892 36.557 36.475 36.645 36.737 36.702 36.602 36.56 36.517 36.507 36.492 36.472 36.41 36.345 36.312 36.24 36.2 36.147 36.102 36.087 36.08 36.02 35.96 35.915 35.88 35.91 35.942 35.977 36.002 36.065 36.08 36.092 36.115 36.167 36.227 36.257 36.305 36.285 36.262 36.237 36.16 36.137 36.085 36.05 36.047 36.025 36.02 36.027 36 36.015 36.017 35.967 35.925 35.95 35.977 36.082 36.085 36.062 36.062 36.017 36.057 36.06 36.21 36.29 36.307 36.37 36.39 36.322 36.267 36.267 36.285 36.29 36.257 35.955 35.472 35.527 36.1 36.405 36.37 36.312 36.295 36.282 36.26 36.262 36.3 36.305 36.285 36.305 36.315 36.325 36.337 36.395 36.422 36.462 36.495 36.48 36.53 36.52 36.517 36.532 36.51 36.532 36.562 36.582 36.567 36.562 36.527 36.57 36.577 36.585 36.6 36.647 36.702 36.762 36.79 36.882 36.937 36.997 37.037 37.07 37.062 37.097 37.12 37.142 37.162 37.117 37.06 37.07 37.19 37.185 37.127 37.09 37.08 37.13 37.095 37.05 36.977 36.922 36.855 36.817 36.795 36.692 36.65 36.605 36.597 36.74 36.957 36.93 36.912 36.922 37.032 37.027 37.062 37.042 37.01 37.007 37.01 37.007 36.99 36.965 36.995 37.002 37 37.03 37.002 37.002 37.032 37.072 37.077 37.05 37.05 37 36.955 36.95 36.94 36.947 36.94 36.977 36.987 36.982 37.025 37.007 37.037 37.012 36.992 37.015 37.022 37.03 37.05 37.025 36.99 37.027 36.975 37.02 37.297 37.26 37.152 37.037 36.94 36.902 36.887 36.912 36.897 36.912 36.902 36.865 36.835 36.85 36.852 36.84 36.845 36.812 36.787 36.792 36.772 36.74 36.695 36.662 36.607 36.557 36.565 36.555 36.52 36.547 36.477 36.48 36.457 36.44 36.442 36.422 36.45 36.42 36.442 36.424 36.439 36.417 36.374 36.367 36.347 36.317 36.302 36.277 36.252 36.222 36.187 36.187 36.152 36.244 36.224 36.289 36.287 35.659 35.212 34.844 34.414 34.083 33.907 33.842 34.007 34.104 34.357 34.812 35.324 35.674 35.647 35.597 35.592 35.584 35.579 35.549 35.534 35.552 35.524 35.502 35.512 35.569 35.634 35.654 35.682 35.679 35.692 35.747 35.784 35.784 35.687 35.572 35.542 35.532 35.472 35.454 35.517 35.619 35.687 35.762 35.629 35.099 35.014 35.009 35.284 35.579 35.662 35.727 35.767 35.749 35.737 35.672 35.499 35.227 35.057 35.017 35.159 35.514 35.637 35.607 35.559 35.399 35.287 35.229 35.047 35.222 35.599 35.792 35.799 35.799 35.774 35.732 35.677 35.632 35.584 35.627 35.622 35.597 35.572 35.574 35.537 35.494 35.502 35.532 35.619 35.657 35.642 35.632 35.607 35.589 35.574 35.512 35.512 35.519 35.499 35.467 35.474 35.454 35.472 35.429 35.434 35.414 35.354 35.349 35.299 35.289 35.287 35.262 35.207 35.084 34.957 34.907 34.997 35.039 35.052 34.984 35.034 35.044 35.054 34.927 34.832 34.809 34.769 34.694 34.664 34.767 34.844 34.879 34.917 35.057 35.029 34.389 33.972 33.967 34.037 34.569 34.752 34.724 34.754 34.784 34.767 34.692 34.694 34.697 34.704 34.724 34.722 34.784 34.867
36.858 36.87 36.893 36.918 36.953 36.95 36.94 37 37.008 36.953 36.94 36.958 36.95 36.923 36.93 36.938 36.928 36.925 36.91 36.887 36.872 36.91 36.927 36.897 36.907 36.937 36.955 36.91 36.887 36.842 36.82 36.807 36.842 36.917 36.96 36.925 36.607 36.477 36.65 36.795 36.767 36.637 36.542 36.507 36.527 36.515 36.497 36.44 36.367 36.322 36.235 36.202 36.155 36.087 36.067 36.102 36.03 35.987 35.92 35.877 35.9 35.937 35.975 35.972 36.002 36.037 36.087 36.107 36.157 36.202 36.28 36.337 36.302 36.205 36.175 36.11 36.075 36.025 35.992 35.98 35.982 35.947 35.957 35.95 35.977 35.95 35.94 35.92 35.972 36.032 36.072 36.067 36.002 35.815 35.652 35.667 35.855 36.192 36.27 36.305 36.335 36.332 36.325 36.267 36.285 36.28 36.235 36.02 35.677 35.515 36.022 36.422 36.482 36.387 36.327 36.297 36.272 36.307 36.33 36.34 36.345 36.34 36.342 36.32 36.362 36.365 36.405 36.462 36.517 36.56 36.602 36.622 36.565 36.582 36.58 36.597 36.577 36.6 36.575 36.555 36.602 36.567 36.58 36.595 36.615 36.642 36.685 36.722 36.825 36.885 36.95 36.94 37.017 37.065 37.062 37.067 37.105 37.095 37.07 37.122 37.135 37.087 37.14 37.195 37.187 37.157 37.14 37.105 37.137 37.09 37.04 36.992 36.977 36.857 36.765 36.785 36.75 36.715 36.657 36.752 36.93 37.02 37.022 36.99 37.002 36.997 37.002 37.03 37.03 36.995 36.985 37 36.982 36.972 37.005 37.007 37.005 37.012 37.02 36.982 37.002 37.035 37.045 37.047 37.075 37.035 37.002 36.977 36.95 36.945 36.95 36.935 36.975 36.98 37.002 37.015 37.015 37.037 36.997 37.007 37.03 37.067 37.05 37.042 37.002 36.995 37.025 36.98 37.027 37.307 37.292 37.162 37.055 36.957 36.872 36.905 36.892 36.912 36.925 36.895 36.857 36.855 36.867 36.865 36.832 36.827 36.8 36.797 36.785 36.762 36.727 36.655 36.64 36.625 36.597 36.54 36.54 36.52 36.53 36.515 36.507 36.49 36.472 36.467 36.452 36.45 36.45 36.464 36.447 36.442 36.407 36.417 36.444 36.374 36.334 36.332 36.324 36.289 36.262 36.224 36.187 36.129 36.147 36.169 36.177 36.227 36.042 35.702 35.402 34.864 34.259 33.659 33.762 33.967 33.994 34.059 34.462 35.034 35.634 35.687 35.604 35.564 35.572 35.587 35.577 35.539 35.532 35.512 35.487 35.492 35.517 35.552 35.574 35.607 35.629 35.644 35.672 35.732 35.757 35.762 35.694 35.577 35.537 35.522 35.467 35.434 35.527 35.669 35.722 35.659 35.247 35.014 34.997 35.047 35.199 35.344 35.474 35.607 35.662 35.724 35.599 35.382 35.139 35.042 35.142 35.434 35.664 35.694 35.654 35.607 35.509 35.269 35.084 35.012 35.039 35.277 35.577 35.764 35.799 35.794 35.779 35.769 35.692 35.637 35.612 35.614 35.607 35.607 35.614 35.599 35.494 35.417 35.397 35.507 35.649 35.662 35.642 35.639 35.584 35.577 35.544 35.474 35.434 35.399 35.382 35.404 35.399 35.402 35.397 35.394 35.377 35.299 35.212 35.189 35.122 35.089 35.057 35.039 34.987 34.984 35.084 35.177 35.124 35.082 35.039 35.022 35.032 35.027 34.957 34.989 34.977 34.929 34.807 34.647 34.639 34.789 34.874 34.974 35.154 35.217 34.899 34.184 33.942 33.757 34.384 34.709 34.692 34.744 34.784 34.754 34.684 34.679 34.674 34.727 34.774 34.757 34.822 34.932
36.875 36.88 36.913 36.96 36.948 36.97 36.985 37.015 37.035 36.993 36.978 36.988 37 36.975 36.988 36.955 36.968 36.955 36.93 36.92 36.91 36.927 36.947 36.947 36.927 36.947 36.952 36.932 36.92 36.897 36.862 36.842 36.857 36.912 36.975 36.975 36.735 36.457 36.662 36.835 36.712 36.525 36.405 36.407 36.512 36.525 36.515 36.48 36.382 36.31 36.25 36.205 36.16 36.095 36.052 36.072 36.022 35.977 35.877 35.832 35.88 35.897 35.927 35.955 35.975 36.002 36.03 36.082 36.15 36.187 36.292 36.325 36.28 36.222 36.115 36.062 36.057 35.977 35.96 35.957 35.92 35.922 35.95 35.947 35.927 35.88 35.952 35.945 36.027 36.09 36.122 36.115 35.857 35.432 35.275 35.335 35.67 35.995 36.13 36.245 36.305 36.37 36.365 36.395 36.372 36.332 36.002 35.485 35.27 35.747 36.345 36.46 36.445 36.357 36.312 36.3 36.322 36.327 36.362 36.337 36.39 36.38 36.34 36.372 36.402 36.417 36.452 36.497 36.525 36.59 36.62 36.592 36.635 36.622 36.615 36.607 36.635 36.627 36.612 36.607 36.63 36.637 36.595 36.605 36.637 36.692 36.73 36.762 36.822 36.877 36.962 36.995 37.025 37.02 37.077 37.052 37.07 36.997 37.057 37.157 37.167 37.13 37.147 37.182 37.197 37.127 37.102 37.107 37.115 37.105 37.067 36.977 36.95 36.847 36.79 36.76 36.745 36.767 36.837 36.9 36.947 36.957 36.98 36.977 36.935 36.945 36.98 37.02 36.985 36.967 36.97 36.985 37.002 36.972 36.99 37.002 36.96 36.997 37 36.985 36.997 37.022 37.01 37.025 37.025 37.022 37 36.995 36.96 36.957 36.992 36.975 36.95 36.995 37.03 37.017 37.072 37.055 37.02 37.017 37.037 37.03 37.057 37.035 37.052 37.03 36.997 36.982 37.022 37.202 37.275 37.192 37.072 36.97 36.88 36.905 36.922 36.937 36.925 36.922 36.88 36.872 36.885 36.887 36.882 36.842 36.83 36.822 36.795 36.74 36.71 36.635 36.655 36.612 36.59 36.557 36.507 36.537 36.53 36.542 36.51 36.47 36.477 36.465 36.507 36.51 36.457 36.464 36.459 36.457 36.434 36.442 36.439 36.407 36.367 36.382 36.349 36.319 36.307 36.222 36.199 36.139 36.139 36.134 36.114 36.164 36.184 36.059 35.792 35.269 34.684 34.144 34.017 33.952 33.964 33.939 34.149 34.347 35.157 35.747 35.662 35.574 35.589 35.612 35.587 35.549 35.517 35.469 35.439 35.459 35.487 35.519 35.544 35.562 35.557 35.572 35.622 35.644 35.722 35.757 35.754 35.699 35.569 35.527 35.497 35.464 35.487 35.599 35.692 35.684 35.477 35.164 35.042 34.974 34.989 35.117 35.124 35.177 35.209 35.319 35.279 35.144 35.052 35.042 35.289 35.604 35.732 35.689 35.669 35.649 35.642 35.492 35.227 35.057 35.032 35.024 35.297 35.587 35.779 35.782 35.754 35.774 35.739 35.704 35.677 35.614 35.604 35.614 35.619 35.592 35.494 35.284 35.214 35.337 35.464 35.537 35.544 35.524 35.447 35.384 35.372 35.272 35.224 35.167 35.132 35.142 35.147 35.177 35.159 35.142 35.107 35.059 34.989 35.007 35.014 34.982 34.972 35.012 35.092 35.167 35.179 35.139 35.077 35.034 35.009 34.977 35.002 35.012 35.052 35.067 35.009 34.949 34.917 34.799 34.689 34.782 34.944 35.092 35.282 35.317 35.124 34.322 33.604 33.594 34.174 34.674 34.739 34.749 34.789 34.774 34.712 34.699 34.727 34.807 34.809 34.794 34.869 34.927
36.87 36.9 36.928 36.975 36.973 36.973 36.995 37.033 37.075 37.035 36.988 37.015 37.005 37.003 37.023 36.998 37.02 37.002 36.97 36.952 36.935 36.967 36.982 36.967 36.965 36.985 36.97 36.95 36.922 36.887 36.875 36.87 36.88 36.917 36.997 37.03 36.862 36.492 36.64 36.777 36.685 36.457 36.375 36.342 36.522 36.557 36.54 36.487 36.372 36.297 36.255 36.202 36.14 36.08 36.062 36.057 36.002 35.942 35.88 35.852 35.865 35.842 35.852 35.895 35.917 35.975 36.03 36.062 36.105 36.175 36.275 36.317 36.277 36.195 36.147 36.057 35.985 35.997 35.952 35.902 35.88 35.905 35.912 35.915 35.907 35.905 35.98 36.047 36.097 36.13 36.145 36.055 35.667 35.432 35.332 35.605 35.617 35.29 35.875 36.252 36.395 36.445 36.482 36.472 36.49 36.252 35.585 35.212 35.34 36.1 36.45 36.422 36.4 36.37 36.327 36.345 36.365 36.392 36.38 36.337 36.38 36.37 36.38 36.39 36.437 36.48 36.5 36.53 36.567 36.607 36.657 36.69 36.69 36.687 36.715 36.705 36.695 36.65 36.645 36.68 36.667 36.667 36.665 36.71 36.722 36.747 36.78 36.812 36.865 36.912 36.95 37 36.99 36.92 36.975 37.085 37.087 37.102 37.12 37.115 37.17 37.16 37.102 37.147 37.162 37.147 37.1 37.105 37.082 37.082 37.062 37.025 36.995 37.065 36.942 36.87 36.787 36.852 36.897 36.895 36.87 36.872 36.907 36.915 36.912 36.91 36.942 36.947 36.935 36.96 36.96 36.962 36.995 36.99 36.972 36.992 36.957 36.975 36.992 37.007 36.99 36.962 36.982 36.987 37.012 37.045 37.022 36.982 36.957 36.957 37.002 36.975 36.97 37.02 37.042 37.03 37.05 37.05 37.025 37.027 37.035 37.01 37.03 37.052 37.035 37.002 36.992 36.97 36.977 37.172 37.282 37.187 37.062 36.96 36.875 36.885 36.89 36.917 36.905 36.932 36.922 36.875 36.87 36.895 36.917 36.865 36.865 36.845 36.807 36.722 36.715 36.702 36.647 36.615 36.585 36.57 36.545 36.535 36.512 36.537 36.502 36.447 36.467 36.45 36.455 36.462 36.497 36.482 36.474 36.487 36.459 36.467 36.419 36.407 36.392 36.322 36.334 36.312 36.282 36.264 36.242 36.184 36.099 36.059 36.079 36.104 36.099 36.107 36.082 35.604 35.247 34.774 34.509 34.199 33.909 33.757 33.782 33.887 34.319 35.372 35.619 35.629 35.644 35.619 35.557 35.562 35.502 35.459 35.444 35.449 35.459 35.472 35.477 35.497 35.482 35.517 35.572 35.584 35.664 35.734 35.739 35.762 35.659 35.562 35.517 35.482 35.457 35.509 35.647 35.664 35.624 35.532 35.374 35.172 35.157 35.209 35.027 34.999 35.017 35.054 35.049 35.027 35.032 35.072 35.327 35.702 35.724 35.684 35.652 35.617 35.669 35.657 35.574 35.267 35.049 35.004 35.039 35.269 35.659 35.649 35.512 35.597 35.662 35.664 35.694 35.624 35.517 35.512 35.464 35.429 35.322 35.162 35.109 35.122 35.164 35.214 35.232 35.184 35.112 35.147 35.157 35.209 35.202 35.207 35.202 35.229 35.212 35.212 35.172 35.132 35.129 35.179 35.139 35.194 35.177 35.152 35.179 35.202 35.214 35.187 35.149 35.079 35.037 35.009 34.989 34.969 34.982 34.997 35.034 35.049 34.997 34.942 34.927 34.864 34.829 34.827 35.019 35.272 35.414 35.434 35.257 34.302 33.299 33.659 34.137 34.654 34.767 34.749 34.782 34.792 34.767 34.729 34.769 34.814 34.832 34.879 34.944 35.034
36.923 36.933 36.955 36.978 37.003 37.005 37.005 37.048 37.068 37.05 37.025 37.048 37.05 37.043 37.03 37.045 37.035 37.04 37.007 36.995 36.962 36.99 37.002 37.012 36.982 36.992 37.005 36.98 36.932 36.892 36.862 36.855 36.9 36.92 36.97 37.015 36.892 36.532 36.6 36.782 36.642 36.39 36.27 36.295 36.512 36.587 36.52 36.447 36.34 36.29 36.242 36.155 36.115 36.075 36.04 36.035 35.942 35.915 35.877 35.837 35.81 35.81 35.812 35.852 35.865 35.937 35.975 36.057 36.147 36.242 36.287 36.292 36.277 36.217 36.13 36.085 35.975 35.952 35.915 35.877 35.87 35.83 35.867 35.882 35.917 35.985 36.04 36.117 36.157 36.157 36.18 36.035 35.66 35.762 35.787 35.93 35.572 35.177 35.345 36.025 36.307 36.457 36.522 36.49 36.437 36.017 35.375 35.212 35.882 36.312 36.375 36.415 36.375 36.332 36.347 36.37 36.367 36.362 36.405 36.395 36.397 36.412 36.397 36.43 36.465 36.517 36.527 36.56 36.605 36.647 36.69 36.727 36.745 36.735 36.747 36.76 36.737 36.717 36.707 36.725 36.742 36.735 36.745 36.732 36.74 36.78 36.83 36.842 36.852 36.93 36.952 36.952 36.895 36.89 37.052 37.085 37.082 37.072 37.087 37.15 37.155 37.12 37.077 37.102 37.12 37.137 37.11 37.11 37.122 37.152 37.105 37.07 37.055 37.01 36.925 36.86 36.77 36.797 36.807 36.81 36.802 36.8 36.85 36.887 36.872 36.865 36.885 36.917 36.912 36.952 36.972 36.967 36.982 36.972 36.975 36.96 36.947 36.96 37 36.98 36.995 36.945 36.972 37.005 37.037 37.03 37.01 37 36.975 36.962 36.967 36.94 36.987 37.01 37.022 37.055 37.022 37.027 37.03 37.005 37.015 37.012 37.02 36.98 36.982 36.987 37.02 36.95 36.912 37.117 37.27 37.165 37.047 36.932 36.845 36.89 36.89 36.902 36.925 36.937 36.942 36.905 36.917 36.875 36.895 36.862 36.85 36.842 36.795 36.765 36.725 36.69 36.672 36.63 36.597 36.565 36.55 36.525 36.517 36.5 36.492 36.48 36.462 36.455 36.452 36.447 36.457 36.459 36.449 36.444 36.439 36.457 36.424 36.412 36.369 36.329 36.319 36.317 36.282 36.242 36.204 36.154 36.112 36.049 36.024 36.017 36.019 36.039 36.019 35.847 35.544 35.282 34.972 34.532 34.159 33.744 33.674 33.677 33.919 34.459 35.004 35.367 35.619 35.637 35.554 35.567 35.562 35.494 35.484 35.447 35.429 35.452 35.449 35.474 35.432 35.462 35.522 35.567 35.612 35.647 35.679 35.712 35.699 35.652 35.529 35.499 35.474 35.457 35.519 35.589 35.657 35.672 35.647 35.609 35.512 35.442 35.307 35.104 35.039 35.044 35.029 35.084 35.147 35.287 35.589 35.732 35.694 35.664 35.632 35.634 35.684 35.702 35.709 35.539 35.232 35.062 34.987 35.089 35.302 35.312 35.247 35.299 35.382 35.454 35.494 35.414 35.294 35.194 35.204 35.224 35.234 35.144 35.119 35.167 35.152 35.162 35.192 35.214 35.194 35.222 35.217 35.319 35.347 35.344 35.344 35.362 35.362 35.359 35.342 35.319 35.332 35.352 35.329 35.352 35.294 35.239 35.244 35.222 35.192 35.152 35.059 35.012 34.979 34.974 34.954 34.939 34.949 34.959 34.999 35.024 34.974 34.919 34.894 34.894 34.922 34.897 35.112 35.349 35.467 35.457 35.227 34.417 33.502 33.772 34.089 34.547 34.729 34.754 34.789 34.812 34.757 34.739 34.749 34.807 34.862 34.922 35.012 35.084
36.92 36.955 36.983 36.99 37.013 37.003 37.015 37.028 37.085 37.095 37.058 37.078 37.083 37.073 37.075 37.065 37.063 37.05 37.047 37.025 37.007 37.02 37.007 37.002 36.992 37.007 37.01 36.995 36.942 36.897 36.872 36.865 36.862 36.915 36.952 37.007 36.865 36.53 36.57 36.767 36.68 36.432 36.357 36.337 36.487 36.57 36.497 36.407 36.332 36.26 36.185 36.137 36.077 36.037 36.007 35.977 35.897 35.877 35.862 35.815 35.772 35.78 35.825 35.845 35.852 35.89 35.952 36.07 36.157 36.235 36.275 36.28 36.225 36.19 36.08 36.03 35.942 35.91 35.882 35.842 35.822 35.817 35.835 35.842 35.93 36.002 36.045 36.177 36.24 36.247 36.212 35.99 35.372 35.655 35.972 36.07 35.84 35.415 35.255 35.42 36.04 36.33 36.445 36.415 36.205 35.685 35.377 35.495 36.31 36.457 36.415 36.407 36.387 36.377 36.382 36.385 36.41 36.4 36.397 36.41 36.422 36.445 36.422 36.447 36.487 36.54 36.567 36.642 36.667 36.69 36.762 36.802 36.825 36.79 36.81 36.822 36.787 36.792 36.795 36.78 36.785 36.802 36.79 36.765 36.785 36.79 36.825 36.83 36.817 36.817 36.942 37.007 36.997 37.015 37.06 37.112 37.105 37.065 37.117 37.117 37.09 37.072 37.102 37.127 37.14 37.125 37.142 37.145 37.155 37.145 37.087 37.022 36.93 36.805 36.782 36.757 36.725 36.74 36.735 36.795 36.795 36.785 36.822 36.815 36.842 36.872 36.885 36.905 36.89 36.917 36.955 36.96 36.967 36.972 36.982 36.957 36.962 36.975 36.97 36.962 36.95 36.932 36.975 36.992 37.02 37.01 36.99 36.997 36.982 36.98 36.96 36.94 36.972 37 36.98 37.03 37.027 37.057 37.03 37.01 36.99 37.005 36.975 36.967 36.95 36.935 36.912 36.932 36.877 37.02 37.177 37.11 37.03 36.932 36.857 36.847 36.852 36.9 36.915 36.917 36.92 36.892 36.927 36.912 36.885 36.83 36.852 36.862 36.802 36.762 36.745 36.682 36.69 36.642 36.627 36.622 36.57 36.555 36.535 36.517 36.51 36.522 36.505 36.477 36.46 36.44 36.465 36.447 36.464 36.464 36.399 36.402 36.402 36.362 36.334 36.307 36.317 36.282 36.274 36.217 36.164 36.154 36.097 36.044 36.009 35.977 35.942 35.962 35.954 35.967 35.964 35.822 35.494 34.944 34.712 34.227 33.772 33.732 33.852 34.054 34.409 34.777 35.454 35.624 35.637 35.584 35.579 35.544 35.507 35.477 35.459 35.427 35.432 35.419 35.427 35.442 35.467 35.494 35.524 35.544 35.614 35.679 35.704 35.722 35.629 35.487 35.482 35.457 35.404 35.407 35.499 35.602 35.649 35.674 35.642 35.627 35.607 35.502 35.384 35.392 35.429 35.439 35.469 35.609 35.689 35.679 35.654 35.644 35.617 35.627 35.637 35.674 35.717 35.637 35.239 35.042 35.029 35.039 35.067 35.102 35.087 35.084 35.142 35.229 35.217 35.204 35.244 35.282 35.299 35.359 35.419 35.369 35.319 35.354 35.382 35.342 35.322 35.357 35.399 35.412 35.404 35.407 35.439 35.432 35.402 35.417 35.407 35.422 35.424 35.417 35.412 35.404 35.377 35.354 35.302 35.274 35.249 35.232 35.182 35.144 35.072 34.999 34.972 34.947 34.959 34.934 34.929 34.947 34.972 34.994 34.944 34.894 34.882 34.899 34.897 34.952 35.209 35.424 35.514 35.479 35.192 34.502 33.564 33.637 33.819 34.439 34.747 34.737 34.787 34.814 34.819 34.804 34.804 34.887 34.904 34.972 35.034 35.102
36.945 36.958 37.003 37.013 37.04 37.02 37.028 37.038 37.095 37.1 37.078 37.078 37.083 37.08 37.05 37.043 37.068 37.072 37.057 37.03 36.997 37.022 37.035 37.015 37.007 37 37.02 36.985 36.947 36.932 36.872 36.845 36.87 36.925 36.995 37.025 36.82 36.482 36.635 36.762 36.722 36.535 36.437 36.365 36.48 36.522 36.477 36.382 36.275 36.237 36.182 36.12 36.095 36.062 35.972 35.945 35.9 35.845 35.815 35.795 35.792 35.807 35.792 35.787 35.827 35.872 35.985 36.067 36.157 36.265 36.3 36.32 36.217 36.107 36.017 35.985 35.937 35.887 35.812 35.802 35.81 35.822 35.83 35.907 35.972 36.047 36.1 36.165 36.242 36.305 36.195 35.925 35.287 35.655 35.89 36.02 35.92 35.787 35.39 35.142 35.34 35.935 36.275 36.357 35.835 35.43 35.367 36.007 36.437 36.42 36.397 36.367 36.37 36.405 36.42 36.425 36.445 36.497 36.452 36.485 36.44 36.467 36.462 36.495 36.527 36.587 36.605 36.677 36.737 36.755 36.817 36.832 36.857 36.835 36.837 36.887 36.865 36.85 36.85 36.825 36.822 36.827 36.805 36.807 36.83 36.805 36.81 36.87 36.862 36.832 36.982 37.062 37.015 37.047 37.072 37.11 37.072 37.04 37.09 37.12 37.112 37.135 37.147 37.177 37.135 37.14 37.157 37.187 37.115 37.025 36.947 36.832 36.752 36.707 36.687 36.665 36.655 36.675 36.707 36.732 36.725 36.725 36.742 36.777 36.807 36.832 36.832 36.855 36.89 36.92 36.947 36.947 36.942 36.947 36.945 36.965 36.975 36.962 36.937 36.942 36.955 36.967 36.98 36.985 36.99 37.032 37 36.98 36.957 36.98 36.965 36.977 36.992 36.997 36.992 36.982 37.005 37.02 37.012 36.99 36.987 36.947 36.95 36.935 36.915 36.892 36.885 36.865 36.842 36.995 37.137 37.06 36.995 36.907 36.825 36.845 36.867 36.867 36.892 36.89 36.92 36.897 36.927 36.925 36.937 36.902 36.875 36.855 36.812 36.815 36.792 36.74 36.7 36.68 36.64 36.61 36.62 36.56 36.552 36.55 36.572 36.53 36.512 36.49 36.472 36.467 36.472 36.469 36.439 36.419 36.394 36.397 36.369 36.352 36.347 36.294 36.279 36.222 36.204 36.189 36.129 36.084 36.042 36.009 35.972 35.929 35.889 35.902 35.909 35.904 35.947 36.039 35.997 35.447 35.079 34.634 34.109 33.857 33.879 33.762 33.964 34.344 34.969 35.384 35.664 35.617 35.572 35.552 35.542 35.494 35.464 35.472 35.439 35.397 35.362 35.399 35.424 35.452 35.422 35.474 35.517 35.587 35.632 35.679 35.644 35.472 35.404 35.379 35.287 35.227 35.317 35.417 35.514 35.567 35.614 35.644 35.649 35.672 35.667 35.702 35.712 35.694 35.707 35.742 35.697 35.644 35.624 35.574 35.592 35.609 35.622 35.674 35.699 35.637 35.304 35.044 35.007 35.057 35.144 35.254 35.234 35.139 35.074 35.167 35.227 35.332 35.384 35.432 35.422 35.472 35.472 35.502 35.497 35.527 35.489 35.452 35.467 35.472 35.479 35.457 35.484 35.514 35.497 35.492 35.464 35.489 35.477 35.462 35.467 35.447 35.414 35.397 35.407 35.364 35.362 35.327 35.287 35.229 35.189 35.124 35.034 34.989 34.962 34.927 34.957 34.932 34.927 34.927 34.959 34.949 34.927 34.899 34.884 34.924 34.987 35.124 35.354 35.417 35.469 35.389 34.959 34.237 33.354 33.567 33.867 34.452 34.752 34.767 34.799 34.824 34.839 34.867 34.892 34.947 34.987 35.044 35.127 35.162
36.925 36.955 36.995 37.003 37.013 37.03 37.043 37.048 37.073 37.1 37.073 37.075 37.075 37.07 37.068 37.063 37.063 37.082 37.062 37.05 37.017 36.995 37.025 37.032 37.022 37.007 37.017 37.027 36.975 36.93 36.897 36.862 36.862 36.9 36.97 36.98 36.74 36.495 36.577 36.777 36.735 36.587 36.47 36.372 36.46 36.5 36.425 36.387 36.302 36.23 36.175 36.135 36.065 36 35.925 35.867 35.845 35.812 35.8 35.77 35.8 35.797 35.795 35.825 35.845 35.942 36.012 36.097 36.197 36.295 36.32 36.285 36.21 36.097 36 35.942 35.925 35.855 35.792 35.79 35.772 35.777 35.865 35.942 36.047 36.092 36.092 36.14 36.225 36.267 36.05 35.512 35.397 35.722 35.85 35.935 35.835 35.772 35.627 35.395 35.272 35.332 35.67 35.792 35.36 35.287 35.582 36.325 36.44 36.422 36.44 36.345 36.375 36.407 36.407 36.44 36.462 36.475 36.477 36.49 36.502 36.495 36.53 36.552 36.572 36.607 36.64 36.697 36.762 36.795 36.84 36.867 36.877 36.915 36.87 36.887 36.91 36.89 36.857 36.825 36.845 36.87 36.857 36.802 36.762 36.742 36.84 36.937 36.957 36.97 36.957 37.027 37.067 37.045 37.102 37.08 37.097 36.995 37.042 37.045 37.11 37.175 37.205 37.175 37.19 37.162 37.185 37.14 36.91 36.835 36.812 36.715 36.66 36.63 36.615 36.595 36.607 36.64 36.642 36.655 36.677 36.702 36.702 36.737 36.742 36.772 36.807 36.84 36.885 36.9 36.915 36.922 36.942 36.955 36.93 36.982 36.982 36.972 36.987 36.972 36.965 36.967 36.965 36.97 36.972 37.01 37.012 37.012 36.982 36.975 36.955 36.955 36.967 36.967 36.987 36.97 36.987 36.995 36.987 36.982 36.99 36.94 36.932 36.93 36.927 36.92 36.892 36.85 36.83 36.887 37.067 37.02 36.92 36.86 36.817 36.822 36.85 36.842 36.862 36.937 36.952 36.967 36.94 36.972 36.962 36.962 36.932 36.9 36.837 36.825 36.777 36.732 36.7 36.695 36.647 36.62 36.577 36.572 36.572 36.545 36.532 36.51 36.515 36.507 36.522 36.495 36.512 36.484 36.442 36.409 36.379 36.352 36.332 36.294 36.329 36.239 36.259 36.222 36.202 36.147 36.097 36.067 36.027 35.999 35.969 35.932 35.879 35.862 35.874 35.864 35.879 35.929 35.972 35.882 35.427 35.059 34.694 34.469 34.392 33.852 33.752 33.892 34.322 35.019 35.564 35.707 35.604 35.572 35.547 35.507 35.502 35.497 35.442 35.389 35.342 35.337 35.337 35.387 35.394 35.427 35.472 35.479 35.527 35.604 35.542 35.459 35.372 35.272 35.139 35.104 35.127 35.247 35.362 35.442 35.497 35.549 35.604 35.649 35.679 35.677 35.707 35.714 35.697 35.669 35.622 35.587 35.597 35.569 35.579 35.587 35.622 35.652 35.674 35.634 35.359 35.034 35.002 35.057 35.227 35.429 35.469 35.409 35.319 35.327 35.409 35.479 35.522 35.522 35.567 35.552 35.562 35.569 35.569 35.552 35.537 35.524 35.532 35.534 35.504 35.522 35.554 35.537 35.522 35.517 35.472 35.462 35.447 35.452 35.427 35.407 35.374 35.347 35.339 35.314 35.312 35.284 35.214 35.179 35.132 35.097 35.012 34.939 34.927 34.914 34.937 34.927 34.929 34.904 34.904 34.929 34.914 34.874 34.902 35.032 35.114 35.329 35.504 35.439 35.374 35.307 34.887 33.902 33.324 33.567 33.947 34.602 34.749 34.789 34.784 34.847 34.879 34.879 34.939 34.974 34.999 35.082 35.154 35.197
36.955 36.963 36.99 37.003 37 37.043 37.02 37.043 37.085 37.128 37.103 37.083 37.083 37.118 37.095 37.085 37.088 37.097 37.082 37.06 37.037 37.02 37.037 37.045 37 37.01 37.012 36.987 36.955 36.932 36.91 36.865 36.862 36.872 36.932 36.942 36.722 36.497 36.627 36.675 36.8 36.722 36.565 36.482 36.517 36.482 36.412 36.335 36.247 36.2 36.182 36.09 35.987 35.937 35.845 35.837 35.817 35.782 35.772 35.75 35.742 35.775 35.815 35.847 35.907 35.987 36.062 36.162 36.275 36.357 36.327 36.282 36.19 36.08 35.962 35.925 35.857 35.802 35.782 35.787 35.772 35.792 35.907 36.007 36.092 36.095 36.092 36.125 36.15 36.122 35.817 35.327 35.42 35.79 35.887 35.827 35.76 35.727 35.787 35.667 35.467 35.322 35.257 35.195 35.217 35.275 35.835 36.305 36.367 36.412 36.45 36.387 36.395 36.45 36.427 36.442 36.47 36.47 36.5 36.52 36.53 36.537 36.582 36.622 36.625 36.67 36.722 36.735 36.772 36.832 36.867 36.892 36.952 36.962 36.907 36.89 36.945 36.955 36.9 36.86 36.85 36.842 36.85 36.777 36.752 36.842 36.887 36.935 36.992 37.02 37.027 37.03 37.055 37.02 37.095 37.075 37.087 37.072 37.125 37.127 37.162 37.162 37.195 37.225 37.215 37.05 36.99 36.917 36.817 36.772 36.7 36.66 36.617 36.58 36.555 36.565 36.577 36.57 36.57 36.61 36.645 36.68 36.672 36.652 36.692 36.73 36.795 36.822 36.825 36.905 36.905 36.915 36.945 36.962 36.967 36.982 36.995 36.997 37.017 36.995 36.952 36.94 36.962 36.96 36.98 36.992 37.03 37.007 36.985 36.975 36.992 36.97 36.957 36.972 36.962 36.975 36.967 36.975 36.982 36.96 36.972 36.912 36.892 36.887 36.87 36.832 36.862 36.83 36.737 36.78 37.007 36.97 36.887 36.817 36.812 36.772 36.827 36.872 36.867 36.92 36.96 37 37.02 37.015 37 36.992 36.967 36.932 36.88 36.855 36.82 36.762 36.735 36.68 36.667 36.63 36.57 36.542 36.557 36.537 36.532 36.52 36.517 36.49 36.472 36.465 36.45 36.429 36.402 36.399 36.397 36.392 36.364 36.344 36.329 36.264 36.239 36.222 36.187 36.124 36.114 36.067 36.047 35.987 35.954 35.917 35.884 35.844 35.807 35.802 35.839 35.887 35.902 35.929 35.742 35.482 35.234 35.139 34.887 34.247 33.722 33.677 33.902 34.134 35.087 35.664 35.644 35.657 35.587 35.512 35.507 35.494 35.452 35.399 35.267 35.267 35.294 35.297 35.319 35.352 35.429 35.419 35.432 35.444 35.422 35.337 35.244 35.137 35.122 35.112 35.094 35.119 35.182 35.224 35.312 35.389 35.472 35.524 35.587 35.619 35.632 35.639 35.622 35.604 35.587 35.557 35.572 35.562 35.584 35.584 35.654 35.657 35.652 35.614 35.474 35.132 34.979 35.009 35.259 35.579 35.644 35.649 35.589 35.484 35.567 35.639 35.642 35.632 35.597 35.589 35.579 35.584 35.572 35.549 35.554 35.534 35.527 35.534 35.539 35.532 35.504 35.487 35.474 35.457 35.427 35.424 35.414 35.387 35.342 35.344 35.309 35.277 35.242 35.239 35.209 35.212 35.152 35.112 35.074 35.057 35.034 34.939 34.912 34.887 34.864 34.894 34.879 34.897 34.882 34.899 34.917 34.912 35.012 35.117 35.277 35.499 35.534 35.399 35.369 35.212 34.694 33.864 33.439 33.502 33.992 34.582 34.749 34.787 34.827 34.879 34.902 34.932 34.977 35.037 35.054 35.132 35.242 35.307
36.985 36.978 36.998 36.998 37.033 37.045 37.043 37.063 37.128 37.16 37.138 37.085 37.098 37.133 37.115 37.093 37.118 37.107 37.107 37.085 37.062 37.04 37.072 37.05 37.035 37.027 37.035 37.015 36.982 36.962 36.927 36.875 36.86 36.887 36.91 36.922 36.765 36.485 36.697 36.787 36.822 36.745 36.635 36.552 36.522 36.49 36.43 36.352 36.257 36.195 36.12 35.997 35.942 35.882 35.815 35.802 35.785 35.767 35.762 35.752 35.77 35.805 35.83 35.902 35.962 36.005 36.087 36.2 36.3 36.337 36.335 36.227 36.172 36.1 35.995 35.9 35.842 35.772 35.802 35.817 35.815 35.832 35.94 36.05 36.077 36.085 36.055 36.062 36.047 35.842 35.567 35.425 35.397 35.922 35.957 35.772 35.68 35.695 35.792 35.92 35.89 35.707 35.49 35.387 35.305 35.52 36.052 36.36 36.392 36.415 36.387 36.37 36.435 36.437 36.472 36.525 36.52 36.507 36.525 36.565 36.562 36.612 36.682 36.672 36.69 36.712 36.722 36.767 36.815 36.872 36.895 36.902 36.945 36.98 36.967 36.902 36.937 36.932 36.927 36.882 36.805 36.807 36.867 36.852 36.877 36.935 36.905 36.957 36.97 36.965 37.017 37.022 37.027 37.047 37.077 37.09 37.062 37.11 37.14 37.135 37.19 37.135 37.122 37.092 37.04 36.977 36.902 36.822 36.81 36.762 36.697 36.657 36.617 36.595 36.555 36.56 36.545 36.55 36.587 36.612 36.61 36.615 36.635 36.647 36.695 36.722 36.73 36.815 36.795 36.862 36.887 36.892 36.935 36.957 37.002 36.995 36.982 36.982 36.967 36.977 36.972 36.957 36.937 36.935 36.94 36.937 36.98 36.982 36.967 36.955 36.947 36.957 36.92 36.955 36.95 36.945 36.952 36.965 36.98 36.925 36.907 36.91 36.847 36.837 36.837 36.795 36.797 36.777 36.685 36.812 37.05 36.927 36.842 36.79 36.8 36.78 36.822 36.867 36.915 36.962 36.997 37.017 37.065 37.052 37.015 37.022 36.997 36.967 36.902 36.867 36.85 36.82 36.742 36.715 36.657 36.605 36.58 36.542 36.532 36.552 36.52 36.525 36.505 36.47 36.452 36.44 36.43 36.464 36.404 36.414 36.407 36.387 36.362 36.302 36.262 36.244 36.229 36.174 36.162 36.129 36.102 36.069 35.999 35.984 35.954 35.934 35.899 35.874 35.832 35.787 35.819 35.872 35.877 35.884 35.964 35.799 35.539 35.362 35.099 34.567 33.972 33.884 33.792 33.824 34.344 35.392 35.649 35.667 35.632 35.527 35.487 35.479 35.459 35.422 35.299 35.264 35.252 35.254 35.282 35.302 35.354 35.382 35.359 35.307 35.259 35.182 35.144 35.137 35.197 35.209 35.134 35.144 35.134 35.102 35.147 35.219 35.332 35.437 35.512 35.547 35.559 35.557 35.562 35.519 35.534 35.547 35.532 35.549 35.557 35.579 35.662 35.669 35.662 35.664 35.577 35.239 35.007 35.007 35.229 35.609 35.702 35.689 35.657 35.629 35.617 35.652 35.629 35.627 35.612 35.574 35.554 35.547 35.527 35.519 35.512 35.467 35.457 35.462 35.477 35.449 35.442 35.449 35.407 35.389 35.374 35.347 35.337 35.324 35.279 35.249 35.234 35.214 35.179 35.159 35.119 35.129 35.104 35.067 35.049 35.032 34.984 34.942 34.929 34.869 34.864 34.864 34.884 34.879 34.844 34.862 34.932 34.992 35.087 35.229 35.452 35.489 35.457 35.454 35.299 35.034 34.374 33.517 33.399 33.574 34.129 34.597 34.787 34.797 34.877 34.917 34.942 34.949 35.019 35.062 35.117 35.222 35.262 35.312
36.988 37.025 37.033 37.05 37.04 37.048 37.07 37.073 37.13 37.138 37.135 37.088 37.115 37.133 37.123 37.12 37.135 37.147 37.145 37.11 37.09 37.052 37.077 37.095 37.085 37.032 37.032 37.02 36.992 36.952 36.915 36.89 36.89 36.917 36.93 37.012 36.855 36.535 36.637 36.77 36.795 36.735 36.607 36.56 36.52 36.472 36.42 36.335 36.262 36.162 36.045 36.002 35.932 35.89 35.827 35.812 35.797 35.79 35.805 35.795 35.762 35.81 35.885 35.97 36.02 36.052 36.125 36.227 36.3 36.35 36.29 36.24 36.167 36.1 36.002 35.887 35.807 35.797 35.797 35.847 35.86 35.892 35.97 36.027 36.067 36.052 35.962 35.875 35.81 35.402 35.415 35.56 35.595 35.827 35.742 35.565 35.565 35.662 35.79 35.875 35.9 35.975 35.91 35.767 35.667 36.047 36.352 36.367 36.36 36.37 36.38 36.417 36.465 36.47 36.52 36.537 36.557 36.54 36.575 36.592 36.595 36.635 36.677 36.702 36.705 36.69 36.762 36.835 36.887 36.92 36.927 36.937 36.962 36.98 36.96 36.94 36.89 36.847 36.937 36.942 36.862 36.9 36.862 36.857 36.907 36.922 36.967 36.977 36.972 36.992 37.082 37.087 37.075 37.082 37.107 37.14 37.102 37.137 37.185 37.217 37.14 37.122 37.095 37.005 36.965 36.935 36.865 36.805 36.77 36.735 36.69 36.637 36.602 36.575 36.512 36.525 36.53 36.55 36.557 36.562 36.617 36.59 36.622 36.647 36.682 36.702 36.68 36.755 36.785 36.842 36.887 36.855 36.902 36.932 36.96 36.992 37 36.99 36.955 36.947 36.957 36.95 36.93 36.932 36.932 36.965 36.967 36.967 36.942 36.897 36.92 36.94 36.905 36.915 36.915 36.925 36.905 36.932 36.95 36.907 36.877 36.87 36.82 36.812 36.802 36.777 36.785 36.757 36.672 36.752 36.902 36.902 36.82 36.8 36.815 36.825 36.88 36.94 36.96 37 37.032 37.082 37.11 37.082 37.045 37.042 36.987 36.935 36.927 36.927 36.872 36.79 36.742 36.655 36.65 36.617 36.557 36.55 36.54 36.54 36.502 36.482 36.487 36.467 36.465 36.432 36.415 36.422 36.389 36.397 36.374 36.349 36.314 36.279 36.302 36.249 36.189 36.084 36.119 36.149 36.077 36.059 35.994 35.964 35.967 35.954 35.942 35.904 35.874 35.829 35.799 35.814 35.864 35.894 35.944 35.959 35.819 35.602 35.259 34.999 34.479 34.074 33.889 33.884 34.019 34.582 35.039 35.219 35.537 35.554 35.499 35.452 35.464 35.447 35.349 35.269 35.244 35.229 35.217 35.267 35.314 35.329 35.284 35.199 35.152 35.117 35.192 35.299 35.392 35.444 35.407 35.359 35.374 35.267 35.162 35.104 35.217 35.367 35.437 35.484 35.494 35.512 35.517 35.529 35.532 35.534 35.527 35.527 35.544 35.582 35.627 35.662 35.679 35.682 35.594 35.164 35.002 35.017 35.194 35.569 35.664 35.662 35.649 35.629 35.649 35.634 35.602 35.597 35.582 35.564 35.537 35.507 35.522 35.514 35.484 35.469 35.417 35.422 35.414 35.404 35.402 35.377 35.369 35.342 35.319 35.312 35.299 35.247 35.234 35.212 35.189 35.154 35.117 35.089 35.079 35.079 35.047 35.017 34.994 35.019 34.982 34.949 34.922 34.887 34.859 34.839 34.877 34.884 34.842 34.877 35.019 35.099 35.209 35.332 35.434 35.482 35.494 35.382 35.249 34.822 34.032 33.749 33.507 33.774 34.569 34.744 34.782 34.792 34.882 34.904 34.949 34.992 35.062 35.142 35.202 35.274 35.319 35.374
37.003 37.018 37.055 37.055 37.088 37.07 37.09 37.095 37.143 37.165 37.188 37.128 37.113 37.145 37.148 37.13 37.138 37.15 37.175 37.14 37.105 37.082 37.087 37.117 37.077 37.032 37.045 37.03 37.012 36.947 36.917 36.9 36.882 36.89 36.942 37.007 36.925 36.55 36.542 36.752 36.81 36.735 36.62 36.582 36.517 36.457 36.38 36.297 36.185 36.127 36.04 35.967 35.92 35.852 35.8 35.815 35.815 35.815 35.82 35.817 35.792 35.872 35.942 35.99 36.027 36.122 36.182 36.242 36.315 36.352 36.31 36.217 36.132 36.075 35.965 35.87 35.802 35.757 35.815 35.867 35.877 35.885 35.975 36.005 35.977 35.805 35.712 35.717 35.692 35.637 35.645 35.645 35.7 35.632 35.525 35.482 35.522 35.635 35.667 35.777 35.917 35.945 35.947 35.965 35.955 36.167 36.32 36.322 36.33 36.332 36.38 36.415 36.502 36.525 36.565 36.595 36.575 36.582 36.622 36.61 36.635 36.64 36.7 36.7 36.752 36.77 36.807 36.83 36.915 36.937 36.925 36.927 36.957 36.962 36.995 36.93 36.86 36.86 36.955 36.96 36.912 36.91 36.922 36.915 36.897 36.902 36.935 36.97 37.01 37 37.077 37.092 37.13 37.12 37.097 37.195 37.112 37.075 37.187 37.14 37.055 37.062 37.042 36.935 36.907 36.932 36.842 36.792 36.757 36.727 36.672 36.6 36.6 36.545 36.507 36.495 36.527 36.555 36.545 36.57 36.555 36.537 36.577 36.612 36.652 36.662 36.682 36.737 36.772 36.81 36.845 36.857 36.912 36.935 36.975 36.97 36.982 36.972 36.947 36.937 37.012 36.94 36.935 36.94 36.912 36.92 36.947 36.967 36.962 36.932 36.9 36.885 36.887 36.892 36.892 36.905 36.897 36.902 36.905 36.89 36.877 36.847 36.795 36.792 36.752 36.75 36.73 36.73 36.647 36.662 36.83 36.862 36.822 36.802 36.767 36.812 36.912 37.015 37.012 37.075 37.152 37.15 37.172 37.132 37.097 37.077 37.022 36.945 36.93 36.88 36.82 36.767 36.725 36.67 36.652 36.585 36.507 36.56 36.5 36.475 36.475 36.432 36.44 36.412 36.41 36.4 36.395 36.377 36.387 36.379 36.369 36.367 36.344 36.312 36.299 36.287 36.257 36.259 36.229 36.197 36.152 36.162 36.129 36.082 36.032 36.014 35.987 35.954 35.924 35.897 35.864 35.867 35.824 35.882 35.912 35.917 35.914 35.832 35.532 35.199 34.807 34.407 33.969 34.029 34.024 33.972 34.289 34.789 35.322 35.549 35.574 35.507 35.497 35.507 35.457 35.387 35.247 35.192 35.194 35.207 35.269 35.257 35.162 35.114 35.127 35.187 35.362 35.477 35.547 35.589 35.599 35.554 35.519 35.492 35.377 35.192 35.142 35.289 35.384 35.432 35.439 35.462 35.487 35.512 35.489 35.517 35.502 35.502 35.552 35.574 35.627 35.659 35.672 35.692 35.617 35.149 35.009 35.014 35.119 35.437 35.629 35.649 35.657 35.629 35.642 35.592 35.607 35.589 35.572 35.559 35.507 35.497 35.499 35.474 35.437 35.434 35.407 35.372 35.387 35.364 35.374 35.374 35.329 35.329 35.324 35.309 35.242 35.219 35.219 35.202 35.172 35.122 35.099 35.072 35.054 35.067 35.012 34.997 34.969 34.947 34.962 34.929 34.937 34.869 34.852 34.894 34.882 34.894 34.892 34.982 35.134 35.217 35.357 35.332 35.339 35.412 35.302 35.202 34.999 34.312 33.739 33.624 33.569 34.329 34.762 34.799 34.784 34.782 34.862 34.917 34.962 35.029 35.092 35.152 35.217 35.299 35.367 35.424
37.003 37.03 37.073 37.058 37.083 37.1 37.1 37.105 37.14 37.163 37.168 37.15 37.11 37.148 37.135 37.115 37.14 37.18 37.172 37.145 37.14 37.115 37.077 37.117 37.09 37.055 37.065 37.042 37.017 36.965 36.94 36.92 36.895 36.892 36.922 37.002 37.015 36.592 36.56 36.747 36.79 36.722 36.635 36.582 36.515 36.427 36.342 36.225 36.155 36.097 35.977 35.937 35.885 35.847 35.83 35.815 35.84 35.852 35.857 35.83 35.865 35.91 35.947 36.017 36.077 36.132 36.227 36.287 36.347 36.367 36.295 36.185 36.12 36.02 35.905 35.822 35.762 35.787 35.827 35.885 35.915 35.94 35.967 35.972 35.675 35.56 35.68 35.74 35.74 35.872 35.737 35.737 35.642 35.577 35.505 35.402 35.505 35.635 35.707 35.867 35.955 35.94 36.007 36.065 36.13 36.26 36.302 36.345 36.342 36.355 36.4 36.475 36.53 36.555 36.592 36.63 36.612 36.64 36.637 36.67 36.665 36.702 36.707 36.727 36.76 36.777 36.837 36.862 36.91 36.92 36.932 36.952 36.917 36.91 36.897 36.965 37.01 36.985 36.987 36.895 36.87 36.887 36.91 36.935 36.9 36.91 36.965 36.982 36.98 37.035 37.082 37.135 37.13 37.147 37.097 37.21 37.125 37.045 37.102 37.067 37.06 37.04 36.987 36.915 36.917 36.882 36.837 36.787 36.762 36.74 36.672 36.622 36.592 36.575 36.5 36.495 36.502 36.522 36.522 36.54 36.557 36.565 36.527 36.582 36.612 36.67 36.68 36.697 36.747 36.805 36.835 36.855 36.877 36.892 36.935 36.97 36.977 36.965 36.962 36.947 36.945 36.907 36.932 36.93 36.917 36.887 36.912 36.957 36.917 36.922 36.925 36.902 36.9 36.877 36.855 36.867 36.902 36.912 36.842 36.852 36.862 36.84 36.785 36.772 36.712 36.697 36.7 36.7 36.615 36.69 36.812 36.882 36.845 36.805 36.825 36.845 36.952 36.962 37.075 37.157 37.222 37.23 37.19 37.212 37.16 37.115 37.087 37.002 36.937 36.88 36.817 36.79 36.715 36.632 36.617 36.577 36.502 36.492 36.445 36.432 36.43 36.402 36.39 36.372 36.357 36.34 36.367 36.359 36.369 36.354 36.349 36.344 36.357 36.349 36.367 36.354 36.324 36.317 36.284 36.262 36.259 36.227 36.222 36.132 36.109 36.079 36.054 36.042 35.972 35.949 35.924 35.922 35.847 35.872 35.859 35.907 35.937 35.942 35.974 35.779 35.222 34.909 34.299 34.194 34.022 34.142 34.351 34.711 35.242 35.444 35.477 35.562 35.587 35.604 35.569 35.452 35.349 35.232 35.177 35.179 35.187 35.152 35.107 35.124 35.184 35.304 35.449 35.572 35.642 35.644 35.612 35.619 35.607 35.554 35.479 35.312 35.134 35.219 35.324 35.352 35.417 35.447 35.479 35.477 35.492 35.497 35.527 35.519 35.527 35.534 35.629 35.639 35.692 35.694 35.607 35.217 35.057 35.009 35.022 35.252 35.569 35.642 35.657 35.644 35.649 35.644 35.619 35.624 35.592 35.562 35.537 35.492 35.492 35.477 35.457 35.419 35.417 35.382 35.354 35.322 35.354 35.359 35.332 35.312 35.309 35.269 35.217 35.222 35.222 35.169 35.147 35.119 35.079 35.062 35.039 35.037 35.032 34.989 34.962 34.897 34.939 34.909 34.924 34.879 34.864 34.884 34.887 34.914 34.954 35.154 35.259 35.369 35.359 35.307 35.264 35.137 34.969 34.774 34.337 33.719 33.587 33.469 33.879 34.704 34.762 34.794 34.787 34.819 34.882 34.949 35.014 35.079 35.154 35.192 35.252 35.334 35.444 35.509
37.008 36.993 37.05 37.06 37.073 37.098 37.095 37.138 37.138 37.173 37.193 37.178 37.123 37.153 37.148 37.138 37.13 37.162 37.142 37.152 37.13 37.112 37.07 37.13 37.112 37.07 37.047 37.057 37.012 36.99 36.945 36.93 36.892 36.887 36.882 36.932 36.945 36.585 36.617 36.775 36.762 36.72 36.66 36.56 36.485 36.382 36.292 36.19 36.125 36.037 35.97 35.88 35.875 35.872 35.882 35.88 35.895 35.877 35.82 35.862 35.905 35.945 35.997 36.022 36.087 36.175 36.282 36.382 36.382 36.387 36.295 36.212 36.09 35.995 35.9 35.792 35.752 35.82 35.882 35.932 35.94 36.002 35.97 35.652 35.302 35.365 35.717 35.927 35.942 35.84 35.7 35.63 35.545 35.492 35.47 35.47 35.61 35.667 35.72 35.797 35.835 35.897 36.027 36.08 36.125 36.285 36.305 36.347 36.422 36.415 36.425 36.49 36.555 36.605 36.632 36.665 36.68 36.67 36.66 36.702 36.69 36.765 36.762 36.782 36.82 36.8 36.83 36.882 36.895 36.885 36.915 36.93 36.895 36.927 36.975 36.997 36.987 36.967 36.985 36.945 36.895 36.935 36.907 36.905 36.947 36.937 36.975 37 37.055 37.05 37.125 37.18 37.14 37.117 37.122 37.09 37.067 37.047 37.03 37.012 37.03 37.017 36.97 36.915 36.905 36.88 36.852 36.802 36.8 36.73 36.702 36.685 36.657 36.55 36.55 36.507 36.49 36.497 36.52 36.527 36.532 36.512 36.552 36.58 36.612 36.66 36.685 36.692 36.767 36.785 36.81 36.807 36.83 36.86 36.912 36.947 36.955 36.98 36.937 36.96 36.945 36.917 36.912 36.902 36.88 36.907 36.907 36.917 36.932 36.937 36.9 36.877 36.86 36.872 36.867 36.845 36.855 36.852 36.867 36.837 36.837 36.782 36.745 36.72 36.687 36.675 36.705 36.687 36.622 36.622 36.787 36.917 36.862 36.855 36.827 36.872 36.957 37.015 37.095 37.195 37.232 37.295 37.265 37.227 37.2 37.135 37.085 37.012 36.977 36.902 36.84 36.757 36.72 36.655 36.597 36.565 36.522 36.457 36.382 36.35 36.35 36.382 36.335 36.345 36.357 36.35 36.362 36.369 36.382 36.374 36.374 36.379 36.394 36.417 36.412 36.432 36.432 36.394 36.334 36.327 36.332 36.304 36.252 36.229 36.179 36.172 36.127 36.087 36.052 36.039 35.999 35.964 35.937 35.892 35.872 35.889 35.922 35.927 35.924 36.007 35.667 35.237 34.974 34.444 34.116 34.348 34.573 34.565 34.614 35.159 35.244 35.429 35.569 35.597 35.572 35.549 35.497 35.337 35.177 35.147 35.154 35.142 35.159 35.199 35.314 35.417 35.472 35.602 35.677 35.699 35.612 35.629 35.629 35.594 35.549 35.434 35.214 35.154 35.244 35.339 35.394 35.414 35.424 35.429 35.457 35.469 35.499 35.499 35.499 35.512 35.572 35.622 35.679 35.714 35.617 35.359 35.027 34.987 35.017 35.114 35.499 35.647 35.644 35.639 35.649 35.659 35.654 35.652 35.622 35.599 35.529 35.512 35.494 35.497 35.467 35.412 35.402 35.379 35.357 35.359 35.354 35.337 35.327 35.324 35.289 35.279 35.237 35.227 35.199 35.154 35.122 35.097 35.069 35.039 35.024 35.009 35.002 34.984 34.934 34.907 34.887 34.897 34.899 34.872 34.879 34.847 34.892 34.954 35.052 35.252 35.349 35.322 35.282 35.237 35.027 34.697 34.409 34.094 33.812 33.579 33.429 33.562 34.397 34.764 34.799 34.802 34.802 34.862 34.934 34.997 35.072 35.134 35.212 35.259 35.319 35.382 35.477 35.584
37.01 36.995 37.02 37.065 37.07 37.113 37.12 37.128 37.158 37.165 37.198 37.158 37.125 37.16 37.155 37.125 37.118 37.14 37.142 37.152 37.125 37.12 37.082 37.105 37.105 37.082 37.032 37.02 37.007 36.952 36.947 36.905 36.875 36.89 36.92 36.947 36.902 36.57 36.547 36.735 36.755 36.73 36.675 36.572 36.482 36.36 36.222 36.15 36.077 36.012 35.937 35.922 35.927 35.942 35.935 35.925 35.92 35.902 35.89 35.927 35.955 36.012 36.037 36.085 36.135 36.227 36.335 36.415 36.397 36.342 36.267 36.182 36.067 35.977 35.88 35.797 35.855 35.875 35.952 35.985 36.002 35.982 35.81 35.52 35.6 35.597 35.73 35.835 35.715 35.59 35.55 35.512 35.535 35.532 35.54 35.575 35.605 35.65 35.69 35.765 35.82 35.91 36.005 36.04 36.037 36.105 36.292 36.375 36.405 36.432 36.437 36.51 36.59 36.662 36.647 36.65 36.68 36.71 36.722 36.715 36.752 36.772 36.787 36.79 36.83 36.807 36.867 36.855 36.882 36.907 36.987 37.035 37.022 37.085 37.047 37.025 37.002 36.965 36.96 36.942 36.942 36.977 36.98 36.957 36.99 37.012 37.02 37.047 37.117 37.112 37.13 37.125 37.057 37.055 37.085 37.025 37.005 37.015 37 36.972 36.965 36.977 36.915 36.905 36.907 36.912 36.932 36.847 36.83 36.762 36.717 36.715 36.65 36.595 36.547 36.507 36.515 36.53 36.542 36.542 36.525 36.52 36.55 36.587 36.592 36.615 36.63 36.682 36.737 36.765 36.805 36.802 36.82 36.87 36.887 36.94 36.927 36.92 36.915 36.93 36.917 36.92 36.897 36.907 36.907 36.892 36.907 36.89 36.915 36.907 36.89 36.842 36.832 36.877 36.852 36.825 36.85 36.845 36.845 36.81 36.79 36.765 36.745 36.687 36.645 36.642 36.647 36.627 36.597 36.617 36.85 36.95 36.892 36.865 36.845 36.89 37.015 37.08 37.162 37.225 37.26 37.277 37.295 37.285 37.257 37.167 37.112 37.04 37.005 36.922 36.852 36.77 36.725 36.65 36.577 36.555 36.532 36.467 36.38 36.355 36.39 36.327 36.27 36.295 36.305 36.332 36.38 36.344 36.344 36.379 36.399 36.414 36.462 36.447 36.459 36.457 36.469 36.439 36.394 36.392 36.392 36.372 36.317 36.322 36.264 36.224 36.209 36.179 36.167 36.119 36.077 36.057 36.007 35.977 35.959 35.904 35.949 35.922 35.879 35.884 35.942 35.692 35.287 34.997 34.187 34.347 34.623 34.236 34.092 34.574 34.879 35.154 35.429 35.527 35.564 35.567 35.522 35.417 35.252 35.192 35.219 35.204 35.189 35.232 35.394 35.482 35.492 35.552 35.602 35.689 35.674 35.627 35.637 35.602 35.552 35.499 35.362 35.149 35.144 35.194 35.287 35.302 35.344 35.384 35.424 35.452 35.484 35.482 35.469 35.499 35.577 35.604 35.647 35.697 35.674 35.554 35.164 34.984 35.017 35.037 35.282 35.544 35.622 35.644 35.659 35.692 35.692 35.682 35.659 35.634 35.577 35.549 35.494 35.472 35.454 35.404 35.397 35.372 35.384 35.377 35.384 35.339 35.304 35.292 35.292 35.254 35.249 35.182 35.144 35.134 35.122 35.087 35.047 35.042 35.032 34.997 34.977 34.979 34.932 34.932 34.859 34.867 34.892 34.894 34.884 34.884 34.899 35.032 35.167 35.339 35.304 35.239 35.134 34.929 34.579 34.027 33.737 33.954 33.902 33.747 33.649 34.259 34.737 34.712 34.762 34.789 34.832 34.874 34.937 35.014 35.082 35.167 35.237 35.324 35.379 35.457 35.549 35.614
37.033 37.05 37.058 37.068 37.075 37.11 37.105 37.123 37.133 37.163 37.195 37.165 37.125 37.133 37.15 37.125 37.115 37.137 37.127 37.1 37.097 37.097 37.052 37.065 37.077 37.05 36.997 36.992 36.967 36.972 36.93 36.905 36.885 36.862 36.902 36.932 36.825 36.567 36.565 36.67 36.677 36.747 36.672 36.57 36.482 36.352 36.222 36.092 36.025 36.002 35.942 35.93 35.97 35.992 35.99 35.942 35.912 35.922 35.93 35.97 35.987 36.042 36.047 36.095 36.185 36.26 36.35 36.397 36.365 36.322 36.205 36.115 36.022 35.89 35.81 35.832 35.94 35.982 35.997 36.017 36.025 35.815 35.335 35.607 35.86 35.85 35.755 35.687 35.612 35.517 35.5 35.537 35.557 35.607 35.645 35.577 35.58 35.635 35.695 35.775 35.852 35.932 36.01 36.015 36.062 36.265 36.36 36.41 36.45 36.417 36.432 36.54 36.652 36.652 36.67 36.657 36.7 36.752 36.74 36.757 36.762 36.777 36.792 36.812 36.837 36.832 36.812 36.83 36.855 36.972 37.022 37.03 37.03 37.105 37.092 37.065 37.002 36.98 36.93 36.952 36.977 37.027 37.015 37.027 37.082 37.075 37.102 37.142 37.137 37.137 37.075 37.03 37.007 36.992 37.025 36.982 36.955 36.96 36.937 36.94 36.95 36.945 36.915 36.905 36.91 36.945 36.915 36.872 36.84 36.817 36.752 36.725 36.685 36.61 36.577 36.552 36.555 36.532 36.565 36.577 36.577 36.55 36.585 36.615 36.595 36.587 36.617 36.677 36.677 36.752 36.782 36.822 36.837 36.837 36.85 36.885 36.902 36.905 36.905 36.905 36.917 36.87 36.875 36.875 36.905 36.875 36.867 36.915 36.932 36.895 36.88 36.847 36.832 36.857 36.857 36.837 36.815 36.797 36.805 36.78 36.765 36.742 36.712 36.682 36.637 36.622 36.595 36.595 36.565 36.632 36.96 36.962 36.935 36.882 36.88 36.917 37.037 37.112 37.2 37.27 37.3 37.307 37.322 37.292 37.29 37.225 37.13 37.077 36.997 36.95 36.85 36.765 36.717 36.625 36.53 36.527 36.497 36.465 36.395 36.39 36.372 36.3 36.302 36.295 36.275 36.317 36.35 36.339 36.369 36.394 36.412 36.432 36.469 36.492 36.474 36.499 36.502 36.514 36.477 36.454 36.472 36.449 36.412 36.409 36.369 36.362 36.304 36.282 36.252 36.207 36.167 36.127 36.099 36.057 35.989 35.922 35.897 35.862 35.877 35.859 35.882 35.897 35.699 35.417 34.917 34.204 34.232 33.967 33.914 34.079 34.439 34.732 35.052 35.349 35.567 35.649 35.557 35.467 35.432 35.314 35.272 35.232 35.189 35.257 35.387 35.487 35.522 35.544 35.547 35.634 35.682 35.647 35.602 35.592 35.584 35.559 35.474 35.322 35.189 35.087 35.107 35.127 35.209 35.354 35.414 35.464 35.457 35.459 35.444 35.474 35.517 35.564 35.584 35.644 35.629 35.599 35.444 35.147 35.039 35.062 35.084 35.324 35.504 35.614 35.642 35.657 35.674 35.659 35.667 35.659 35.627 35.579 35.527 35.497 35.492 35.429 35.429 35.382 35.384 35.382 35.354 35.337 35.319 35.307 35.277 35.234 35.199 35.157 35.129 35.117 35.104 35.069 35.042 35.017 34.987 34.964 34.967 34.947 34.902 34.897 34.834 34.824 34.862 34.899 34.882 34.914 34.954 35.069 35.177 35.269 35.309 35.262 34.907 34.319 33.539 33.569 33.722 33.837 33.994 33.954 34.297 34.709 34.714 34.732 34.759 34.809 34.852 34.907 34.972 35.054 35.117 35.207 35.282 35.339 35.412 35.519 35.572 35.617
37.03 37.035 37.07 37.1 37.078 37.083 37.123 37.138 37.135 37.16 37.188 37.2 37.115 37.108 37.133 37.115 37.09 37.082 37.1 37.122 37.1 37.087 37.062 37.037 37.05 37.042 37.01 36.982 36.98 36.957 36.91 36.887 36.847 36.855 36.877 36.902 36.8 36.57 36.602 36.697 36.712 36.762 36.66 36.55 36.44 36.312 36.185 36.08 36.007 35.95 35.932 35.955 36 36.007 36.012 35.957 35.957 35.965 35.945 35.97 36.005 36.05 36.062 36.137 36.217 36.285 36.335 36.335 36.292 36.25 36.165 36.037 35.927 35.802 35.845 35.922 35.982 36.005 36.037 36.017 35.912 35.455 35.367 35.627 35.837 35.777 35.67 35.63 35.57 35.52 35.55 35.582 35.575 35.61 35.622 35.645 35.625 35.73 35.785 35.832 35.915 35.97 36.03 36.025 36.222 36.452 36.43 36.442 36.457 36.482 36.515 36.565 36.635 36.637 36.677 36.715 36.745 36.725 36.742 36.755 36.787 36.757 36.807 36.795 36.785 36.855 36.92 36.915 36.967 36.985 37.067 37.06 37.077 37.117 37.035 36.997 36.992 37.02 36.992 37.057 37.062 37.052 37.045 37.075 37.03 37.122 37.175 37.125 37.122 37.022 36.962 36.957 36.987 36.955 36.955 36.925 36.925 36.922 36.912 36.92 36.935 36.932 36.912 36.922 36.937 36.935 36.937 36.895 36.87 36.85 36.825 36.76 36.71 36.655 36.62 36.567 36.552 36.527 36.565 36.595 36.587 36.585 36.605 36.587 36.612 36.625 36.642 36.675 36.68 36.725 36.757 36.797 36.852 36.852 36.855 36.822 36.872 36.897 36.917 36.902 36.922 36.902 36.877 36.89 36.92 36.905 36.887 36.867 36.895 36.887 36.892 36.865 36.875 36.862 36.88 36.835 36.822 36.792 36.787 36.752 36.702 36.717 36.692 36.655 36.612 36.605 36.585 36.58 36.537 36.635 36.93 37.017 36.955 36.945 36.93 36.98 37.07 37.15 37.215 37.267 37.307 37.332 37.335 37.297 37.31 37.23 37.125 37.062 37.01 36.937 36.852 36.772 36.692 36.637 36.547 36.522 36.467 36.435 36.367 36.382 36.357 36.34 36.325 36.325 36.322 36.32 36.34 36.357 36.369 36.434 36.447 36.462 36.487 36.529 36.502 36.547 36.559 36.549 36.547 36.532 36.519 36.509 36.492 36.467 36.442 36.402 36.374 36.352 36.314 36.297 36.264 36.219 36.172 36.112 36.047 35.989 35.919 35.894 35.892 35.892 35.862 35.844 35.894 35.717 35.344 34.907 34.117 33.764 33.779 33.747 34.117 34.334 34.634 35.034 35.414 35.659 35.654 35.537 35.529 35.492 35.324 35.269 35.202 35.207 35.337 35.454 35.522 35.554 35.549 35.577 35.649 35.702 35.659 35.622 35.594 35.579 35.524 35.469 35.394 35.277 35.122 35.087 35.119 35.232 35.362 35.434 35.437 35.439 35.432 35.454 35.462 35.479 35.532 35.574 35.584 35.577 35.567 35.392 35.097 35.049 35.014 35.097 35.319 35.502 35.564 35.587 35.627 35.667 35.689 35.667 35.584 35.567 35.552 35.487 35.479 35.419 35.414 35.407 35.404 35.367 35.332 35.324 35.307 35.317 35.277 35.217 35.182 35.159 35.124 35.122 35.079 35.069 35.017 35.034 35.017 34.954 34.959 34.917 34.847 34.904 34.874 34.874 34.837 34.862 34.902 34.917 34.962 35.082 35.172 35.254 35.272 35.057 34.402 33.642 33.449 33.512 33.682 33.869 34.349 34.532 34.679 34.749 34.689 34.737 34.757 34.787 34.837 34.909 34.949 35.044 35.097 35.212 35.307 35.364 35.437 35.572 35.557 35.619
37.04 37.058 37.073 37.103 37.095 37.1 37.12 37.133 37.14 37.158 37.165 37.178 37.13 37.103 37.105 37.098 37.085 37.067 37.122 37.12 37.1 37.06 37.055 37.027 37.045 37.037 36.995 36.957 36.952 36.952 36.93 36.87 36.845 36.86 36.875 36.9 36.815 36.542 36.562 36.727 36.757 36.737 36.622 36.53 36.402 36.282 36.152 36.055 35.99 35.94 35.947 35.992 36.035 36.04 35.975 35.967 36 35.985 35.987 36.01 36.022 36.075 36.11 36.187 36.257 36.32 36.31 36.28 36.205 36.147 36.04 35.962 35.855 35.835 35.942 35.982 35.972 36.015 36.032 35.92 35.48 35.372 35.697 35.742 35.86 35.66 35.557 35.585 35.617 35.58 35.55 35.537 35.545 35.627 35.625 35.695 35.757 35.77 35.82 35.792 35.982 36.05 36.062 36.052 36.337 36.392 36.442 36.505 36.497 36.52 36.552 36.58 36.607 36.61 36.652 36.727 36.762 36.73 36.735 36.785 36.79 36.79 36.752 36.722 36.812 36.875 36.967 36.942 36.965 37.01 37.022 37.072 37.095 37.092 37.08 37.062 37.085 37.142 37.157 37.107 37.1 37.14 37.15 37.11 37.062 37.09 37.072 37.017 36.965 36.937 36.892 36.86 36.877 36.912 36.912 36.907 36.912 36.892 36.91 36.922 36.94 36.922 36.935 36.96 36.94 36.942 36.985 36.945 36.88 36.885 36.86 36.817 36.745 36.727 36.68 36.637 36.607 36.58 36.592 36.615 36.63 36.607 36.607 36.592 36.625 36.627 36.65 36.675 36.655 36.705 36.757 36.762 36.822 36.815 36.845 36.832 36.85 36.915 36.907 36.91 36.905 36.917 36.942 36.9 36.895 36.857 36.877 36.862 36.912 36.91 36.912 36.867 36.86 36.817 36.812 36.81 36.8 36.762 36.745 36.73 36.712 36.665 36.66 36.632 36.602 36.557 36.555 36.575 36.517 36.61 36.875 36.962 36.977 36.945 36.95 36.987 37.107 37.17 37.262 37.32 37.362 37.36 37.347 37.355 37.342 37.265 37.182 37.12 37.015 36.937 36.835 36.762 36.69 36.57 36.585 36.507 36.472 36.422 36.387 36.362 36.347 36.325 36.312 36.352 36.345 36.362 36.38 36.392 36.414 36.494 36.529 36.512 36.512 36.557 36.572 36.574 36.547 36.544 36.557 36.562 36.557 36.567 36.549 36.504 36.494 36.442 36.437 36.429 36.377 36.327 36.307 36.247 36.209 36.139 36.144 36.072 36.017 35.994 35.959 35.894 35.864 35.867 35.834 35.819 35.717 35.597 34.987 34.162 33.754 33.674 33.814 34.082 34.322 34.679 35.069 35.364 35.524 35.652 35.629 35.569 35.449 35.372 35.369 35.227 35.267 35.424 35.494 35.544 35.574 35.572 35.609 35.677 35.687 35.702 35.669 35.614 35.567 35.552 35.499 35.474 35.364 35.192 35.124 35.149 35.274 35.389 35.407 35.414 35.424 35.414 35.409 35.412 35.439 35.447 35.464 35.514 35.582 35.529 35.309 35.052 35.024 35.034 35.169 35.307 35.319 35.402 35.517 35.602 35.659 35.647 35.604 35.547 35.564 35.514 35.482 35.454 35.427 35.409 35.377 35.352 35.339 35.317 35.304 35.264 35.252 35.212 35.167 35.147 35.092 35.117 35.059 35.054 35.027 35.009 34.949 34.982 34.937 34.904 34.889 34.899 34.874 34.884 34.852 34.889 34.917 34.927 34.992 35.134 35.277 35.297 35.267 34.832 33.817 33.437 33.582 33.784 34.222 34.557 34.777 34.834 34.764 34.697 34.697 34.712 34.704 34.754 34.812 34.869 34.947 35.062 35.114 35.197 35.259 35.367 35.459 35.544 35.557 35.654
37.07 37.07 37.088 37.108 37.095 37.098 37.125 37.13 37.123 37.153 37.175 37.175 37.15 37.103 37.115 37.105 37.093 37.09 37.107 37.135 37.112 37.09 37.077 37.052 37.037 37.055 36.997 36.975 36.957 36.962 36.905 36.88 36.877 36.867 36.852 36.88 36.85 36.542 36.587 36.722 36.775 36.725 36.605 36.477 36.37 36.227 36.11 36.022 35.96 35.95 35.972 36.015 36.02 36.005 36.02 35.977 35.995 36.002 36.015 36.007 36.027 36.077 36.13 36.192 36.257 36.3 36.287 36.202 36.135 36.055 35.965 35.86 35.83 35.915 35.967 35.952 35.992 36.005 35.975 35.67 35.545 35.777 35.827 35.755 35.667 35.532 35.552 35.625 35.592 35.605 35.582 35.557 35.537 35.55 35.617 35.705 35.847 35.81 35.805 35.89 36.05 36.087 36.022 36.095 36.42 36.437 36.455 36.515 36.517 36.537 36.547 36.6 36.575 36.6 36.665 36.69 36.727 36.745 36.737 36.785 36.822 36.827 36.852 36.862 36.917 36.927 36.96 36.957 36.965 36.97 37.01 37.072 37.13 37.132 37.127 37.14 37.165 37.17 37.167 37.132 37.09 37.155 37.12 37.065 37.012 36.982 36.962 36.892 36.912 36.91 36.855 36.805 36.837 36.845 36.852 36.92 36.91 36.89 36.877 36.94 36.915 36.925 36.947 36.98 36.99 36.975 36.972 36.975 36.957 36.92 36.847 36.827 36.78 36.755 36.717 36.682 36.672 36.655 36.657 36.662 36.665 36.66 36.625 36.61 36.652 36.66 36.655 36.667 36.657 36.682 36.73 36.755 36.795 36.84 36.827 36.825 36.857 36.9 36.912 36.932 36.925 36.907 36.915 36.927 36.925 36.885 36.895 36.912 36.91 36.917 36.877 36.877 36.877 36.837 36.815 36.775 36.767 36.712 36.722 36.702 36.672 36.64 36.637 36.61 36.565 36.555 36.517 36.547 36.53 36.562 36.88 37.002 36.967 36.99 36.992 37.03 37.14 37.222 37.277 37.367 37.4 37.387 37.382 37.392 37.35 37.26 37.207 37.125 37.03 36.957 36.827 36.752 36.677 36.605 36.557 36.492 36.432 36.425 36.397 36.357 36.352 36.335 36.335 36.337 36.345 36.345 36.382 36.432 36.444 36.517 36.547 36.554 36.539 36.559 36.557 36.562 36.554 36.567 36.522 36.557 36.557 36.567 36.554 36.499 36.514 36.532 36.474 36.419 36.374 36.384 36.352 36.302 36.284 36.239 36.174 36.127 36.062 35.989 35.944 35.867 35.839 35.847 35.814 35.774 35.754 35.709 35.517 34.852 33.979 33.707 33.764 33.837 34.137 34.314 34.657 35.032 35.297 35.522 35.607 35.554 35.544 35.649 35.539 35.304 35.272 35.392 35.469 35.547 35.589 35.582 35.589 35.627 35.677 35.752 35.754 35.677 35.632 35.602 35.562 35.529 35.499 35.424 35.307 35.164 35.187 35.289 35.332 35.359 35.374 35.389 35.367 35.369 35.357 35.339 35.372 35.492 35.547 35.579 35.517 35.189 35.059 35.037 35.062 35.084 35.054 35.179 35.227 35.322 35.494 35.574 35.549 35.512 35.529 35.537 35.499 35.479 35.437 35.407 35.369 35.347 35.319 35.329 35.294 35.252 35.227 35.212 35.169 35.124 35.084 35.097 35.044 35.059 35.037 34.974 34.972 34.949 34.889 34.892 34.892 34.902 34.919 34.897 34.897 34.862 34.907 34.914 34.999 35.142 35.209 35.259 35.197 34.522 33.514 33.482 33.789 34.454 34.887 34.962 34.772 34.824 34.762 34.704 34.717 34.729 34.729 34.744 34.772 34.872 34.977 35.049 35.117 35.222 35.329 35.367 35.477 35.527 35.619 35.652
37.105 37.083 37.113 37.123 37.13 37.12 37.135 37.133 37.143 37.155 37.16 37.178 37.195 37.125 37.158 37.128 37.118 37.107 37.1 37.145 37.135 37.115 37.102 37.06 37.065 37.067 36.992 36.977 37 37.002 36.942 36.895 36.9 36.852 36.862 36.897 36.9 36.577 36.515 36.71 36.715 36.697 36.565 36.432 36.33 36.172 36.06 36.002 35.95 35.94 35.975 35.99 35.977 36 36.007 35.965 35.975 35.992 35.992 36.017 36.032 36.105 36.172 36.222 36.232 36.235 36.22 36.16 36.06 35.937 35.865 35.847 35.892 35.977 35.992 35.982 36.002 35.967 35.765 35.38 35.612 35.832 35.8 35.705 35.647 35.577 35.417 35.625 35.682 35.637 35.59 35.537 35.567 35.6 35.635 35.725 35.882 35.887 35.87 35.927 36.027 36.045 35.932 36.057 36.432 36.472 36.49 36.56 36.545 36.575 36.59 36.622 36.62 36.63 36.692 36.712 36.717 36.702 36.65 36.807 36.827 36.885 36.9 36.922 36.95 36.98 36.995 36.98 37.027 37.067 37.005 37.047 37.117 37.13 37.132 37.137 37.18 37.22 37.182 37.087 37.042 37.092 37.032 36.97 36.985 36.962 36.93 36.877 36.85 36.84 36.817 36.81 36.795 36.835 36.837 36.86 36.895 36.89 36.885 36.892 36.915 36.922 36.992 36.98 36.985 36.965 36.952 36.98 36.962 36.917 36.872 36.88 36.84 36.79 36.752 36.712 36.717 36.705 36.667 36.665 36.682 36.677 36.662 36.65 36.662 36.67 36.71 36.705 36.68 36.67 36.73 36.765 36.812 36.822 36.847 36.852 36.885 36.93 36.922 36.937 36.945 36.942 36.92 36.952 36.945 36.927 36.912 36.932 36.912 36.9 36.915 36.887 36.89 36.85 36.792 36.787 36.755 36.695 36.71 36.657 36.612 36.615 36.602 36.59 36.56 36.502 36.485 36.532 36.515 36.532 36.882 37.057 36.997 37.015 36.997 37.032 37.13 37.22 37.287 37.33 37.4 37.422 37.385 37.365 37.33 37.275 37.21 37.12 37.05 36.95 36.867 36.79 36.697 36.642 36.61 36.507 36.477 36.425 36.4 36.375 36.367 36.345 36.335 36.347 36.372 36.377 36.407 36.432 36.499 36.537 36.544 36.579 36.584 36.592 36.579 36.589 36.587 36.557 36.559 36.582 36.577 36.579 36.569 36.534 36.517 36.509 36.502 36.489 36.484 36.434 36.399 36.359 36.347 36.292 36.229 36.184 36.139 36.062 35.982 35.919 35.857 35.817 35.799 35.782 35.744 35.689 35.672 35.409 34.569 33.924 33.674 33.709 33.794 34.154 34.344 34.637 35.047 35.299 35.574 35.592 35.694 35.839 35.614 35.462 35.289 35.354 35.449 35.494 35.527 35.592 35.577 35.609 35.672 35.712 35.752 35.757 35.699 35.624 35.617 35.569 35.544 35.514 35.474 35.349 35.214 35.179 35.217 35.262 35.327 35.374 35.414 35.407 35.344 35.312 35.342 35.454 35.527 35.582 35.524 35.422 35.247 35.124 35.034 34.992 35.007 35.037 35.027 35.032 35.129 35.334 35.414 35.434 35.484 35.514 35.504 35.457 35.439 35.419 35.374 35.342 35.354 35.317 35.282 35.267 35.242 35.207 35.152 35.137 35.112 35.089 35.094 35.044 35.014 34.957 34.944 34.939 34.929 34.929 34.929 34.904 34.927 34.904 34.917 34.854 34.902 34.934 34.997 35.122 35.167 35.219 35.147 34.459 33.762 33.687 34.012 34.724 34.914 34.844 34.784 34.847 34.734 34.689 34.684 34.717 34.779 34.759 34.782 34.904 34.997 35.084 35.149 35.222 35.284 35.399 35.469 35.547 35.599 35.657
37.155 37.138 37.143 37.163 37.178 37.17 37.145 37.148 37.153 37.155 37.17 37.218 37.213 37.13 37.155 37.153 37.143 37.165 37.145 37.142 37.147 37.135 37.14 37.1 37.082 37.085 37.022 36.99 36.98 36.982 36.957 36.902 36.892 36.897 36.892 36.95 36.877 36.57 36.49 36.657 36.707 36.645 36.51 36.395 36.282 36.147 36.017 35.962 35.922 35.945 36.01 36.025 36.01 36.002 35.975 35.972 35.972 36.002 36.045 36.042 36.07 36.137 36.17 36.21 36.225 36.182 36.135 36.065 35.97 35.885 35.812 35.915 35.967 36.025 36.022 36.017 35.935 35.72 35.332 35.382 35.64 35.777 35.777 35.692 35.66 35.65 35.672 35.667 35.637 35.59 35.552 35.522 35.55 35.602 35.715 35.84 35.917 35.912 35.887 35.932 36.012 35.985 35.972 36.252 36.405 36.472 36.595 36.7 36.637 36.625 36.662 36.645 36.67 36.657 36.682 36.685 36.717 36.69 36.757 36.855 36.887 36.915 36.887 36.915 36.955 36.95 36.962 37.015 37.042 37.055 37.055 37.132 37.162 37.167 37.202 37.192 37.147 37.16 37.127 37.065 36.992 37.027 36.942 36.93 36.917 36.91 36.867 36.855 36.827 36.802 36.777 36.802 36.797 36.845 36.835 36.837 36.877 36.917 36.902 36.91 36.935 36.96 36.982 36.97 36.98 37.03 36.997 36.995 37.012 36.95 36.912 36.89 36.867 36.847 36.787 36.732 36.732 36.745 36.707 36.692 36.705 36.697 36.697 36.705 36.712 36.682 36.707 36.695 36.722 36.707 36.742 36.742 36.802 36.812 36.817 36.862 36.895 36.917 36.932 36.935 36.955 36.977 36.962 36.982 36.972 36.957 36.917 36.962 36.962 36.912 36.925 36.885 36.862 36.832 36.782 36.78 36.745 36.695 36.67 36.622 36.635 36.605 36.58 36.562 36.545 36.522 36.507 36.512 36.507 36.525 36.8 37.065 37.05 37.057 37.045 37.052 37.145 37.24 37.285 37.347 37.37 37.41 37.387 37.352 37.317 37.252 37.172 37.127 37.057 36.95 36.842 36.795 36.722 36.652 36.61 36.555 36.505 36.477 36.442 36.412 36.392 36.372 36.372 36.347 36.367 36.38 36.415 36.434 36.492 36.507 36.539 36.587 36.612 36.622 36.577 36.584 36.562 36.554 36.564 36.589 36.574 36.599 36.602 36.582 36.527 36.532 36.527 36.499 36.494 36.484 36.432 36.379 36.377 36.329 36.257 36.202 36.129 36.052 36.012 35.967 35.894 35.827 35.757 35.742 35.742 35.697 35.679 35.674 35.112 34.427 33.952 33.697 33.699 33.859 34.027 34.259 34.699 35.052 35.329 35.584 35.729 35.857 35.812 35.667 35.392 35.322 35.444 35.469 35.517 35.579 35.639 35.622 35.642 35.687 35.704 35.754 35.714 35.679 35.662 35.622 35.554 35.524 35.539 35.479 35.372 35.252 35.212 35.229 35.264 35.352 35.382 35.402 35.354 35.342 35.337 35.417 35.504 35.507 35.529 35.552 35.539 35.424 35.282 35.134 35.094 35.009 35.024 34.997 35.004 35.159 35.309 35.357 35.457 35.507 35.479 35.442 35.412 35.399 35.354 35.337 35.339 35.284 35.289 35.252 35.227 35.167 35.142 35.127 35.107 35.082 35.072 35.052 35.024 34.974 34.939 34.929 34.932 34.939 34.892 34.902 34.932 34.907 34.929 34.839 34.897 34.917 34.997 35.109 35.157 35.244 35.207 34.544 33.629 33.684 34.004 34.707 34.979 34.859 34.832 34.854 34.692 34.712 34.687 34.677 34.717 34.707 34.789 34.872 34.962 35.077 35.164 35.227 35.317 35.414 35.489 35.499 35.592 35.664
37.188 37.173 37.168 37.17 37.205 37.165 37.18 37.185 37.175 37.19 37.23 37.205 37.22 37.155 37.18 37.173 37.175 37.18 37.172 37.17 37.165 37.15 37.15 37.117 37.092 37.1 37.055 36.99 36.982 36.992 36.98 36.905 36.885 36.855 36.865 36.935 36.912 36.585 36.43 36.61 36.665 36.6 36.457 36.365 36.217 36.105 35.995 35.94 35.905 35.91 35.98 36.017 36 35.98 35.967 35.957 35.957 36.015 36.04 36.067 36.082 36.145 36.152 36.192 36.165 36.122 36.06 36.007 35.925 35.882 35.89 35.94 36.005 36.04 36.037 36.02 35.795 35.35 35.255 35.54 35.782 35.802 35.727 35.64 35.645 35.627 35.73 35.715 35.66 35.645 35.54 35.52 35.575 35.647 35.73 35.802 35.88 35.902 35.905 36 36.062 35.917 36.075 36.407 36.417 36.462 36.655 36.755 36.77 36.692 36.692 36.705 36.68 36.642 36.652 36.712 36.75 36.812 36.845 36.89 36.907 36.945 36.907 36.957 36.992 36.987 37.035 37.077 37.102 37.122 37.115 37.155 37.22 37.335 37.235 37.182 37.097 37.092 37.07 37.022 37.015 36.98 36.962 36.937 36.92 36.87 36.817 36.81 36.837 36.812 36.8 36.81 36.812 36.83 36.825 36.857 36.872 36.897 36.905 36.917 36.96 36.962 36.972 36.97 37.027 37.03 37.012 37.032 37.027 37.032 36.982 36.937 36.877 36.86 36.832 36.807 36.765 36.755 36.732 36.727 36.71 36.71 36.745 36.722 36.712 36.747 36.752 36.755 36.735 36.75 36.782 36.75 36.79 36.81 36.825 36.872 36.897 36.925 36.945 36.975 36.997 37.015 36.99 37.002 37.005 36.985 36.982 36.977 36.962 36.95 36.912 36.885 36.897 36.852 36.79 36.707 36.672 36.687 36.652 36.61 36.6 36.577 36.58 36.557 36.52 36.495 36.502 36.535 36.487 36.525 36.742 37.06 37.05 37.06 37.065 37.065 37.155 37.242 37.29 37.325 37.335 37.365 37.337 37.3 37.275 37.222 37.15 37.087 37.007 36.91 36.81 36.765 36.72 36.67 36.625 36.575 36.515 36.482 36.452 36.442 36.425 36.43 36.377 36.37 36.382 36.437 36.447 36.409 36.509 36.532 36.534 36.542 36.597 36.554 36.612 36.594 36.562 36.577 36.579 36.587 36.592 36.604 36.589 36.592 36.562 36.547 36.569 36.537 36.524 36.487 36.454 36.412 36.342 36.319 36.262 36.217 36.167 36.099 36.044 35.997 35.922 35.847 35.794 35.744 35.712 35.697 35.657 35.639 35.599 35.069 34.432 33.917 33.674 33.669 33.717 33.829 34.287 34.704 35.027 35.319 35.512 35.769 35.942 35.862 35.579 35.342 35.359 35.462 35.534 35.557 35.624 35.632 35.637 35.662 35.729 35.737 35.759 35.784 35.689 35.649 35.592 35.562 35.542 35.527 35.474 35.442 35.377 35.359 35.347 35.337 35.354 35.397 35.414 35.399 35.389 35.414 35.447 35.434 35.482 35.524 35.572 35.529 35.494 35.427 35.337 35.217 35.037 35.009 35.032 35.069 35.214 35.362 35.512 35.542 35.494 35.444 35.402 35.402 35.319 35.314 35.322 35.282 35.292 35.242 35.234 35.167 35.122 35.104 35.089 35.084 35.074 35.029 34.977 34.984 34.969 34.932 34.922 34.894 34.907 34.919 34.949 34.924 34.914 34.814 34.879 34.899 34.934 35.054 35.132 35.192 35.212 34.804 33.609 33.652 34.107 34.872 35.052 34.902 34.797 34.759 34.702 34.692 34.682 34.662 34.714 34.714 34.802 34.887 34.959 35.074 35.174 35.272 35.339 35.412 35.477 35.512 35.594 35.659
37.218 37.19 37.185 37.173 37.183 37.15 37.158 37.188 37.2 37.185 37.22 37.23 37.243 37.178 37.16 37.183 37.203 37.192 37.19 37.18 37.172 37.142 37.137 37.105 37.047 37.082 37.057 37.01 36.982 36.977 36.94 36.9 36.857 36.835 36.827 36.872 36.875 36.545 36.405 36.602 36.63 36.572 36.445 36.352 36.217 36.072 35.975 35.93 35.9 35.87 35.892 35.94 35.937 35.92 35.917 35.927 35.947 36.012 36.032 36.1 36.145 36.195 36.195 36.16 36.097 36.052 36.002 35.947 35.92 35.927 35.962 35.995 36.022 36.02 36.005 35.717 35.375 35.377 35.522 35.755 35.767 35.677 35.692 35.657 35.64 35.655 35.69 35.702 35.695 35.63 35.587 35.605 35.67 35.667 35.762 35.81 35.837 35.882 35.955 35.995 36.047 35.957 36.32 36.42 36.342 36.442 36.567 36.83 36.855 36.832 36.735 36.765 36.755 36.71 36.787 36.792 36.792 36.82 36.815 36.865 36.912 36.96 36.93 36.987 37 36.997 37.02 37.115 37.1 37.165 37.167 37.16 37.287 37.345 37.22 37.117 37.015 37 36.972 36.97 36.985 36.982 36.92 36.897 36.922 36.857 36.832 36.83 36.812 36.822 36.82 36.802 36.815 36.835 36.847 36.86 36.89 36.91 36.925 36.925 36.942 36.97 36.997 37.017 37.01 37.037 37.017 37.022 37.05 37.05 37.01 36.97 36.885 36.885 36.83 36.812 36.797 36.782 36.76 36.742 36.747 36.747 36.755 36.775 36.77 36.782 36.752 36.742 36.755 36.752 36.78 36.765 36.817 36.84 36.855 36.895 36.905 36.945 36.982 37.007 37.04 37.037 37.037 37.047 37.022 36.985 36.987 36.975 36.955 36.932 36.902 36.835 36.87 36.84 36.787 36.725 36.68 36.64 36.637 36.61 36.58 36.552 36.537 36.532 36.54 36.507 36.487 36.495 36.477 36.49 36.737 37.055 37.077 37.07 37.085 37.077 37.18 37.237 37.297 37.325 37.345 37.345 37.322 37.275 37.272 37.207 37.145 37.057 36.997 36.917 36.845 36.752 36.69 36.647 36.575 36.57 36.505 36.46 36.442 36.502 36.452 36.425 36.447 36.422 36.442 36.437 36.457 36.462 36.487 36.502 36.527 36.527 36.522 36.527 36.574 36.597 36.604 36.624 36.612 36.619 36.607 36.617 36.599 36.619 36.612 36.587 36.597 36.557 36.537 36.517 36.509 36.469 36.419 36.369 36.317 36.257 36.192 36.112 36.059 36.012 35.929 35.859 35.804 35.742 35.694 35.724 35.692 35.632 35.609 35.562 35.232 34.574 33.944 33.699 33.659 33.687 33.802 34.332 34.712 34.924 35.164 35.469 35.907 35.994 35.902 35.557 35.344 35.417 35.527 35.532 35.589 35.624 35.649 35.647 35.667 35.707 35.762 35.807 35.769 35.677 35.667 35.634 35.564 35.519 35.512 35.507 35.469 35.482 35.444 35.432 35.387 35.417 35.444 35.462 35.424 35.397 35.392 35.374 35.402 35.469 35.519 35.502 35.464 35.499 35.524 35.469 35.239 35.044 35.017 35.022 35.044 35.357 35.532 35.537 35.492 35.457 35.427 35.402 35.349 35.292 35.289 35.282 35.292 35.262 35.237 35.184 35.134 35.097 35.079 35.084 35.082 35.039 35.014 34.989 34.977 34.964 34.959 34.907 34.909 34.924 34.929 34.912 34.907 34.817 34.902 34.882 34.914 35.027 35.152 35.152 35.199 35.094 34.392 33.869 34.209 34.719 35.034 34.939 34.717 34.702 34.672 34.657 34.617 34.642 34.714 34.784 34.817 34.882 34.982 35.069 35.172 35.262 35.372 35.464 35.514 35.549 35.592 35.634
37.19 37.175 37.175 37.158 37.155 37.145 37.133 37.158 37.165 37.185 37.233 37.215 37.223 37.168 37.15 37.18 37.193 37.182 37.16 37.152 37.167 37.142 37.112 37.09 37.047 37.052 37.045 36.985 36.95 36.965 36.935 36.882 36.815 36.78 36.772 36.817 36.797 36.505 36.357 36.535 36.57 36.552 36.412 36.295 36.157 36.012 35.93 35.87 35.837 35.877 35.88 35.895 35.91 35.905 35.905 35.942 35.967 36 36.067 36.145 36.165 36.172 36.155 36.135 36.067 35.997 35.95 35.93 35.955 36 36.007 36.007 36.03 35.99 35.682 35.352 35.642 35.855 35.855 35.752 35.717 35.66 35.622 35.64 35.675 35.72 35.712 35.662 35.635 35.632 35.655 35.627 35.645 35.69 35.76 35.775 35.832 35.895 35.97 36.052 36.022 36.077 36.435 36.467 36.332 36.392 36.532 36.67 36.81 36.95 36.792 36.76 36.797 36.782 36.83 36.842 36.85 36.882 36.912 36.887 36.91 36.962 36.97 36.992 37.035 37.04 37.02 37.135 37.142 37.215 37.225 37.247 37.255 37.21 37.11 37.03 36.997 36.95 36.947 36.935 36.935 36.92 36.89 36.917 36.93 36.862 36.842 36.862 36.847 36.81 36.815 36.837 36.82 36.835 36.85 36.872 36.92 36.927 36.925 36.935 36.957 36.947 36.957 36.987 36.995 37.02 37.03 37.042 37.065 37.04 37 36.96 36.927 36.895 36.865 36.822 36.81 36.777 36.77 36.782 36.775 36.792 36.812 36.8 36.785 36.8 36.777 36.767 36.79 36.807 36.81 36.805 36.84 36.862 36.885 36.935 36.937 36.945 37.007 37.03 37.037 37.065 37.035 37.025 37.042 37.022 37.02 37.002 36.992 36.97 36.922 36.872 36.842 36.817 36.82 36.717 36.687 36.627 36.607 36.557 36.547 36.542 36.562 36.552 36.525 36.507 36.512 36.512 36.495 36.467 36.632 37.045 37.095 37.072 37.062 37.1 37.075 37.195 37.26 37.3 37.307 37.347 37.315 37.272 37.282 37.21 37.127 37.05 36.987 36.917 36.84 36.745 36.687 36.612 36.59 36.572 36.482 36.472 36.435 36.47 36.385 36.395 36.46 36.437 36.432 36.457 36.417 36.432 36.454 36.427 36.469 36.494 36.507 36.552 36.584 36.604 36.599 36.577 36.609 36.619 36.632 36.637 36.644 36.617 36.637 36.602 36.612 36.579 36.562 36.562 36.527 36.502 36.469 36.434 36.354 36.307 36.244 36.159 36.082 36.022 35.964 35.897 35.837 35.754 35.714 35.722 35.677 35.649 35.622 35.649 35.697 35.242 34.549 33.979 33.677 33.709 33.707 33.879 34.202 34.469 34.834 35.174 35.654 35.854 35.949 35.752 35.537 35.457 35.519 35.554 35.552 35.607 35.637 35.637 35.644 35.672 35.719 35.797 35.832 35.814 35.697 35.654 35.599 35.564 35.529 35.514 35.504 35.499 35.472 35.494 35.442 35.447 35.494 35.489 35.349 35.179 35.119 35.094 35.147 35.192 35.187 35.227 35.239 35.269 35.332 35.379 35.359 35.192 35.044 35.017 35.062 35.309 35.487 35.542 35.492 35.482 35.447 35.347 35.287 35.269 35.269 35.257 35.244 35.227 35.217 35.167 35.137 35.124 35.092 35.082 35.039 34.997 35.002 34.984 34.937 34.942 34.932 34.919 34.924 34.939 34.934 34.902 34.909 34.829 34.897 34.889 34.899 35.002 35.134 35.139 35.169 35.202 34.824 34.032 34.257 34.429 34.462 34.804 34.604 34.662 34.692 34.647 34.639 34.679 34.702 34.784 34.837 34.874 34.979 35.094 35.152 35.257 35.359 35.399 35.482 35.547 35.589 35.634
