ncols 439
nrows 31
xllcorner    426050
yllcorner    488654
cellsize     2
NODATA_value -9999
42.6 42.598 42.568 42.578 42.61 42.615 42.545 42.525 42.473 42.495 42.54 42.528 42.458 42.433 42.435 42.435 42.398 42.378 42.348 42.305 42.343 42.365 42.3 42.34 42.32 42.255 42.327 42.227 42.277 42.257 42.282 42.285 42.345 42.335 42.142 42.11 42.002 41.955 41.917 41.94 41.922 41.915 41.972 41.957 41.987 42.015 41.985 41.917 41.837 41.685 41.557 41.522 41.565 41.592 41.65 41.7 41.745 41.785 41.845 41.895 41.975 42.042 42.085 42.18 42.275 42.41 42.547 42.66 42.807 42.95 43.117 43.17 43.285 43.41 43.535 43.627 43.725 43.78 43.867 43.917 43.952 43.95 43.932 43.945 43.895 43.897 43.842 43.79 43.72 43.715 43.65 43.61 43.552 43.52 43.485 43.44 43.387 43.367 43.38 43.34 43.297 43.252 43.215 43.177 43.132 43.08 43.09 43.025 42.96 42.92 42.907 42.827 42.777 42.722 42.592 42.592 42.537 42.47 42.4 42.36 42.267 42.232 42.12 42.032 41.937 41.857 41.737 41.632 41.517 41.44 41.397 41.302 41.25 41.177 41.077 41.022 40.972 40.922 40.84 40.792 40.7 40.66 40.562 40.482 40.46 40.365 40.3 40.232 40.182 40.162 40.132 40.08 40.07 40.062 40.022 40.017 40.027 40.05 40.035 40.022 40.025 39.985 39.912 39.87 39.832 39.75 39.71 39.645 39.617 39.585 39.58 39.57 39.57 39.562 39.535 39.537 39.5 39.482 39.517 39.48 39.487 39.445 39.372 39.352 39.332 39.285 39.267 39.222 39.232 39.175 39.16 39.09 39.027 39.017 38.945 38.872 38.832 38.755 38.685 38.64 38.587 38.505 38.41 38.355 38.312 38.23 38.132 38.062 38 37.89 37.81 37.732 37.582 37.47 37.265 37.07 36.852 36.702 36.592 36.477 36.332 36.205 36.075 35.94 35.862 35.727 35.655 35.55 35.477 35.397 35.315 35.257 35.197 35.145 35.055 34.952 34.89 34.815 34.71 34.65 34.595 34.5 34.482 34.412 34.152 33.822 34.185 34.13 34.092 34.037 33.97 33.96 33.987 33.982 33.965 34.012 33.957 33.92 33.82 33.63 33.47 33.507 33.597 33.505 33.365 33.3 33.257 33.262 33.28 33.332 33.392 33.39 33.417 33.442 33.517 33.642 33.717 33.702 33.167 32.682 32.774 32.904 33.057 33.359 33.589 33.602 33.544 33.529 33.469 33.482 33.602 33.632 33.739 33.912 34.162 34.432 34.744 35.089 35.357 35.704 36.209 36.734 37.177 37.442 37.547 37.632 37.627 37.659 37.682 37.747 37.809 37.867 37.857 37.882 37.967 38.039 38.199 38.332 38.499 38.642 38.739 38.872 39.039 39.129 38.787 38.519 38.534 38.729 39.732 40.049 40.099 40.187 40.249 40.399 40.579 40.727 40.819 40.834 40.944 41.077 41.182 41.332 41.394 41.402 41.349 41.304 41.347 41.342 41.322 41.347 41.329 41.329 41.344 41.379 41.407 41.409 41.462 41.567 41.594 41.662 41.697 41.757 41.889 41.974 42.104 42.242 42.414 42.542 42.692 42.809 42.997 43.187 43.347 43.492 43.694 43.892 44.067 44.202 44.394 44.517 44.659 44.804 44.964 45.094 45.194 45.304 45.452 45.522 45.657 45.804 45.929 46.042 46.169 46.257 46.392 46.534 46.662 46.832 46.907 47.077 47.157 47.204 47.347 47.482 47.552 47.652 47.677 47.764 47.842 47.872 47.932 47.974 48.029 48.102 48.104 48.162 48.229 48.302 48.367 48.364 48.404 48.484 48.544 48.642 48.694 48.792 48.875 48.942 49 49.057 49.145 49.2 49.22 49.272 49.407 49.487 49.572 49.66 49.732
42.833 42.818 42.833 42.81 42.788 42.785 42.715 42.708 42.633 42.675 42.643 42.705 42.673 42.623 42.62 42.57 42.518 42.563 42.47 42.46 42.443 42.438 42.393 42.435 42.38 42.307 42.342 42.285 42.247 42.12 42.072 42.097 42.242 42.232 42.067 42.125 42.202 42.092 42.015 41.917 41.892 41.912 41.915 41.905 41.937 41.93 41.935 41.882 41.997 41.927 41.757 41.717 41.67 41.642 41.685 41.765 41.817 41.86 41.93 41.97 42.035 42.107 42.15 42.187 42.3 42.41 42.557 42.68 42.865 42.98 43.087 43.19 43.292 43.45 43.57 43.65 43.737 43.792 43.857 43.937 43.957 43.975 43.955 43.955 43.912 43.89 43.842 43.827 43.792 43.732 43.715 43.642 43.597 43.587 43.522 43.48 43.5 43.427 43.397 43.412 43.377 43.31 43.33 43.275 43.207 43.152 43.195 43.125 43.077 43 42.975 42.915 42.872 42.82 42.737 42.68 42.587 42.53 42.452 42.392 42.315 42.265 42.172 42.092 41.992 41.895 41.762 41.687 41.6 41.517 41.455 41.375 41.3 41.232 41.187 41.112 41.03 40.95 40.88 40.825 40.767 40.707 40.645 40.59 40.497 40.445 40.335 40.285 40.272 40.217 40.172 40.152 40.142 40.095 40.105 40.045 40.057 40.087 40.097 40.055 40.022 40.002 39.982 39.917 39.897 39.825 39.772 39.73 39.675 39.627 39.625 39.635 39.58 39.6 39.587 39.59 39.547 39.56 39.552 39.487 39.472 39.45 39.42 39.39 39.355 39.337 39.272 39.222 39.235 39.19 39.142 39.082 39.04 39.005 38.925 38.835 38.815 38.767 38.68 38.615 38.587 38.467 38.407 38.367 38.307 38.237 38.145 38.067 37.997 37.887 37.79 37.672 37.507 37.372 37.197 36.975 36.795 36.647 36.512 36.415 36.317 36.155 36.05 35.875 35.822 35.725 35.617 35.532 35.45 35.367 35.295 35.225 35.165 35.112 35.03 34.957 34.87 34.797 34.707 34.615 34.557 34.545 34.485 34.345 34.127 34.17 34.227 34.165 34.072 33.98 33.947 33.99 34.017 34.042 34.05 34.045 34.02 33.94 33.84 33.665 33.535 33.502 33.615 33.522 33.357 33.28 33.235 33.25 33.292 33.39 33.41 33.385 33.38 33.422 33.507 33.624 33.734 33.654 33.089 32.652 32.737 32.822 32.924 33.302 33.629 33.687 33.599 33.507 33.504 33.434 33.602 33.627 33.714 33.864 34.159 34.467 34.772 35.157 35.432 35.807 36.309 36.732 37.154 37.427 37.497 37.537 37.549 37.649 37.707 37.804 37.884 37.854 37.822 37.852 37.974 38.079 38.202 38.299 38.449 38.569 38.692 38.819 39.029 39.169 38.877 38.537 38.507 38.579 39.354 40.107 40.259 40.369 40.424 40.599 40.812 40.839 40.892 40.932 41.004 41.069 41.162 41.324 41.394 41.422 41.389 41.382 41.362 41.412 41.372 41.382 41.354 41.362 41.399 41.397 41.422 41.444 41.504 41.562 41.629 41.662 41.737 41.834 41.919 42.019 42.167 42.297 42.417 42.584 42.747 42.884 43.039 43.232 43.422 43.552 43.772 43.952 44.167 44.299 44.469 44.592 44.744 44.839 45.002 45.114 45.264 45.369 45.502 45.604 45.672 45.812 45.977 46.069 46.167 46.309 46.452 46.567 46.727 46.849 46.964 47.099 47.207 47.334 47.432 47.552 47.654 47.719 47.757 47.822 47.867 47.927 48.019 48.027 48.047 48.129 48.194 48.204 48.289 48.407 48.444 48.524 48.542 48.562 48.679 48.752 48.769 48.825 48.925 49.01 49.06 49.087 49.15 49.24 49.295 49.345 49.452 49.517 49.615 49.695 49.75
43.02 42.993 43 42.995 42.945 42.868 42.823 42.858 42.888 42.873 42.853 42.878 42.765 42.705 42.72 42.725 42.665 42.69 42.643 42.563 42.548 42.56 42.465 42.468 42.378 42.295 42.33 42.312 42.267 42.24 42.117 42.115 42.135 42.062 42.035 42.01 42.147 42.15 42.09 42.037 41.987 41.897 41.867 41.895 41.887 41.845 41.865 41.865 41.917 41.947 41.932 41.95 41.842 41.8 41.762 41.772 41.905 41.95 41.992 42.025 42.107 42.152 42.22 42.262 42.34 42.437 42.58 42.69 42.805 42.95 43.072 43.192 43.335 43.442 43.56 43.67 43.755 43.797 43.867 43.902 43.957 43.977 43.99 43.962 43.937 43.905 43.89 43.835 43.772 43.737 43.72 43.697 43.652 43.615 43.59 43.55 43.535 43.49 43.442 43.44 43.425 43.417 43.387 43.35 43.335 43.3 43.277 43.205 43.14 43.097 43.032 43 42.942 42.89 42.812 42.727 42.652 42.55 42.495 42.4 42.347 42.32 42.22 42.125 42.05 41.95 41.855 41.762 41.655 41.577 41.52 41.437 41.362 41.28 41.222 41.177 41.095 41.017 40.94 40.897 40.82 40.725 40.702 40.647 40.522 40.482 40.44 40.365 40.285 40.29 40.26 40.23 40.177 40.165 40.16 40.11 40.135 40.145 40.15 40.132 40.1 40.06 40.05 40.002 39.965 39.882 39.835 39.802 39.755 39.72 39.657 39.677 39.64 39.645 39.637 39.61 39.595 39.605 39.6 39.567 39.505 39.485 39.445 39.447 39.38 39.357 39.292 39.247 39.22 39.21 39.142 39.105 39.065 38.987 38.957 38.87 38.777 38.737 38.655 38.602 38.547 38.52 38.46 38.352 38.302 38.252 38.165 38.082 37.982 37.867 37.77 37.617 37.465 37.302 37.13 36.915 36.787 36.612 36.49 36.357 36.222 36.102 35.985 35.86 35.787 35.672 35.592 35.517 35.44 35.33 35.257 35.207 35.15 35.06 34.985 34.932 34.812 34.8 34.697 34.64 34.595 34.572 34.312 33.97 34.067 34.272 34.242 34.14 34.05 33.962 33.947 34.015 34.075 34.09 34.107 34.065 33.997 33.935 33.872 33.727 33.547 33.487 33.615 33.522 33.312 33.242 33.237 33.262 33.337 33.387 33.38 33.347 33.38 33.42 33.492 33.632 33.702 33.594 33.117 32.622 32.652 32.727 32.809 33.314 33.634 33.637 33.599 33.514 33.504 33.379 33.532 33.609 33.687 33.834 34.099 34.417 34.822 35.112 35.364 35.822 36.277 36.697 37.044 37.279 37.434 37.564 37.639 37.717 37.769 37.827 37.834 37.822 37.804 37.867 37.969 38.082 38.172 38.337 38.489 38.634 38.752 38.862 39.072 39.247 39.192 38.709 38.482 38.507 38.962 40.074 40.474 40.522 40.607 40.784 40.937 40.962 41.009 41.012 41.082 41.129 41.232 41.287 41.369 41.467 41.447 41.412 41.409 41.417 41.424 41.384 41.419 41.454 41.477 41.472 41.499 41.549 41.584 41.572 41.642 41.717 41.754 41.842 41.949 42.064 42.197 42.324 42.479 42.629 42.762 42.929 43.082 43.284 43.444 43.622 43.814 44.004 44.212 44.364 44.492 44.647 44.807 44.922 45.052 45.204 45.307 45.424 45.549 45.674 45.757 45.859 46.017 46.144 46.219 46.357 46.474 46.634 46.792 46.887 47.032 47.182 47.287 47.412 47.497 47.584 47.684 47.779 47.837 47.872 47.932 47.974 48.037 48.097 48.124 48.164 48.262 48.297 48.372 48.482 48.572 48.637 48.699 48.709 48.734 48.762 48.854 48.882 48.912 49.032 49.06 49.107 49.187 49.257 49.357 49.39 49.457 49.58 49.67 49.732 49.812
43.02 43.073 43.083 43.068 43.073 42.988 42.945 42.968 42.94 42.91 42.863 42.9 42.868 42.75 42.748 42.763 42.71 42.735 42.665 42.595 42.585 42.58 42.513 42.465 42.44 42.34 42.28 42.3 42.297 42.272 42.265 42.232 42.117 42.107 42.03 42.117 42.017 41.925 41.992 42.097 42.01 42.007 41.972 41.917 41.86 41.832 41.847 41.837 41.877 41.89 41.885 41.952 41.872 41.915 41.987 41.965 41.9 41.947 42.02 42.08 42.142 42.17 42.252 42.342 42.402 42.495 42.597 42.67 42.815 42.94 43.042 43.215 43.34 43.467 43.572 43.655 43.742 43.797 43.837 43.9 43.952 43.957 44.01 43.952 43.965 43.965 43.932 43.872 43.82 43.752 43.775 43.727 43.69 43.677 43.655 43.62 43.592 43.552 43.54 43.495 43.495 43.485 43.462 43.447 43.412 43.405 43.352 43.31 43.25 43.197 43.14 43.095 43.017 42.94 42.875 42.807 42.725 42.63 42.53 42.472 42.415 42.317 42.255 42.175 42.085 41.982 41.905 41.832 41.73 41.65 41.575 41.477 41.407 41.355 41.267 41.222 41.135 41.095 41.005 40.987 40.94 40.785 40.73 40.685 40.587 40.562 40.532 40.437 40.327 40.357 40.292 40.245 40.202 40.227 40.2 40.192 40.172 40.162 40.16 40.165 40.177 40.165 40.117 40.08 40.03 39.99 39.922 39.847 39.862 39.82 39.775 39.727 39.715 39.65 39.69 39.665 39.637 39.662 39.652 39.625 39.565 39.512 39.49 39.45 39.412 39.385 39.312 39.26 39.23 39.165 39.122 39.1 39.067 38.992 38.942 38.862 38.797 38.717 38.685 38.635 38.572 38.51 38.432 38.35 38.285 38.24 38.167 38.07 37.977 37.877 37.765 37.592 37.387 37.25 37.087 36.922 36.732 36.577 36.452 36.305 36.167 36.062 35.937 35.855 35.76 35.672 35.622 35.507 35.42 35.307 35.252 35.21 35.157 35.047 34.975 34.877 34.8 34.74 34.662 34.57 34.64 34.427 34.095 34.052 34.237 34.287 34.227 34.137 34.01 34.007 33.97 33.997 34.107 34.13 34.115 34.075 33.975 33.95 33.92 33.785 33.51 33.187 33.3 33.437 33.305 33.247 33.227 33.295 33.342 33.367 33.377 33.39 33.397 33.467 33.577 33.667 33.677 33.612 33.187 32.782 32.609 32.622 32.682 33.197 33.652 33.592 33.569 33.512 33.502 33.389 33.524 33.599 33.649 33.834 34.114 34.367 34.697 34.969 35.352 35.769 36.164 36.549 36.852 37.182 37.464 37.587 37.674 37.722 37.767 37.777 37.784 37.779 37.802 37.882 37.999 38.089 38.222 38.432 38.644 38.809 38.924 39.009 39.219 39.394 39.539 38.989 38.487 38.527 38.627 39.697 40.637 40.734 40.719 40.809 40.944 41.059 41.067 41.039 41.114 41.219 41.332 41.404 41.449 41.464 41.472 41.464 41.482 41.492 41.469 41.494 41.454 41.489 41.492 41.514 41.507 41.584 41.629 41.672 41.697 41.752 41.837 41.914 42.009 42.107 42.214 42.359 42.492 42.652 42.799 42.982 43.139 43.304 43.482 43.664 43.877 44.059 44.212 44.369 44.534 44.707 44.862 45.002 45.119 45.229 45.354 45.452 45.584 45.722 45.834 45.942 46.057 46.167 46.272 46.404 46.542 46.692 46.824 46.957 47.082 47.207 47.359 47.454 47.567 47.627 47.767 47.822 47.854 47.867 47.977 48.007 48.029 48.094 48.174 48.224 48.279 48.392 48.454 48.567 48.647 48.712 48.814 48.852 48.814 48.839 48.952 48.975 48.972 49.032 49.115 49.147 49.217 49.3 49.372 49.43 49.517 49.612 49.695 49.792 49.84
43.033 43.103 43.105 43.115 43.143 43.118 43.053 43.04 43.023 42.975 42.948 42.943 42.953 42.94 42.888 42.855 42.795 42.805 42.788 42.743 42.673 42.63 42.585 42.49 42.493 42.435 42.382 42.33 42.322 42.347 42.3 42.325 42.287 42.215 42.177 42.222 42.072 41.915 41.89 41.99 41.735 41.922 42.13 42.222 42.105 41.95 41.827 41.812 41.832 41.835 41.812 41.85 41.905 41.937 42.01 42.025 41.982 42.012 42.082 42.09 42.152 42.21 42.295 42.39 42.485 42.555 42.642 42.73 42.81 42.955 43.057 43.19 43.315 43.447 43.555 43.62 43.707 43.807 43.83 43.865 43.935 43.972 43.975 43.955 43.945 43.962 43.935 43.862 43.862 43.817 43.792 43.74 43.707 43.73 43.697 43.625 43.612 43.597 43.592 43.567 43.57 43.58 43.53 43.542 43.497 43.482 43.407 43.382 43.322 43.28 43.24 43.185 43.08 42.995 42.947 42.862 42.792 42.717 42.595 42.495 42.432 42.367 42.305 42.23 42.11 42.017 41.955 41.865 41.772 41.712 41.61 41.537 41.455 41.397 41.335 41.265 41.207 41.165 41.062 40.97 40.96 40.902 40.805 40.735 40.632 40.61 40.572 40.517 40.47 40.412 40.397 40.325 40.312 40.267 40.265 40.205 40.197 40.2 40.2 40.19 40.165 40.207 40.212 40.16 40.132 40.057 40.012 39.942 39.872 39.847 39.815 39.742 39.747 39.725 39.76 39.74 39.697 39.692 39.677 39.662 39.602 39.565 39.527 39.48 39.447 39.43 39.347 39.297 39.26 39.192 39.122 39.08 39.06 39.002 38.962 38.872 38.775 38.737 38.717 38.617 38.572 38.505 38.447 38.377 38.29 38.227 38.192 38.092 37.992 37.877 37.722 37.575 37.377 37.217 37.052 36.87 36.715 36.53 36.395 36.24 36.127 36.03 35.917 35.845 35.732 35.627 35.567 35.527 35.405 35.277 35.23 35.195 35.122 35.037 34.98 34.857 34.822 34.762 34.665 34.612 34.575 34.202 34.03 34.315 34.287 34.26 34.18 34.107 34.035 34.025 33.98 34.012 34.075 34.115 34.107 34.09 34.015 33.925 33.905 33.807 33.467 33.077 33.24 33.397 33.347 33.247 33.242 33.297 33.33 33.337 33.39 33.405 33.392 33.455 33.587 33.657 33.657 33.614 33.052 32.622 32.619 32.567 32.654 33.189 33.672 33.624 33.604 33.514 33.489 33.422 33.507 33.639 33.694 33.867 34.122 34.399 34.744 34.957 35.322 35.714 36.064 36.352 36.809 37.249 37.489 37.609 37.692 37.687 37.747 37.752 37.764 37.782 37.864 37.939 38.054 38.172 38.309 38.519 38.819 39.002 39.109 39.222 39.382 39.607 39.769 39.322 38.522 38.499 38.509 39.159 40.302 40.827 40.892 40.942 41.027 41.079 41.119 41.072 41.177 41.319 41.462 41.562 41.617 41.522 41.462 41.439 41.482 41.502 41.539 41.534 41.537 41.477 41.474 41.474 41.484 41.557 41.604 41.694 41.749 41.819 41.904 41.992 42.067 42.137 42.279 42.429 42.512 42.687 42.867 43.057 43.167 43.359 43.534 43.704 43.924 44.114 44.264 44.422 44.614 44.759 44.897 45.019 45.142 45.287 45.412 45.517 45.592 45.724 45.894 45.984 46.094 46.202 46.332 46.457 46.559 46.712 46.872 47.012 47.137 47.239 47.407 47.527 47.614 47.722 47.767 47.827 47.839 47.937 48.007 48.017 48.067 48.139 48.227 48.297 48.324 48.417 48.524 48.597 48.709 48.829 48.917 48.949 48.942 48.934 48.992 49.007 49.045 49.072 49.102 49.21 49.247 49.35 49.4 49.442 49.56 49.645 49.717 49.817 49.885
43.098 43.193 43.185 43.183 43.193 43.22 43.155 43.168 43.148 43.118 43.078 43.07 43.1 43.123 43.058 43.038 43.015 42.953 42.923 42.913 42.885 42.775 42.735 42.693 42.62 42.552 42.545 42.482 42.455 42.427 42.337 42.282 42.37 42.357 42.27 42.277 42.207 42.077 42.032 41.905 41.315 41.055 41.987 42.417 42.525 42.295 42.1 41.97 41.867 41.747 41.81 41.817 41.86 41.897 41.92 41.972 41.982 42.072 42.087 42.065 42.145 42.232 42.347 42.42 42.485 42.577 42.685 42.74 42.85 42.935 43.042 43.165 43.275 43.387 43.495 43.605 43.687 43.775 43.84 43.872 43.895 43.935 43.957 43.977 43.96 43.962 43.917 43.872 43.842 43.81 43.787 43.765 43.725 43.747 43.705 43.685 43.692 43.637 43.652 43.645 43.642 43.655 43.62 43.6 43.585 43.547 43.48 43.46 43.415 43.35 43.287 43.21 43.11 43.022 42.96 42.875 42.822 42.76 42.657 42.587 42.485 42.422 42.312 42.242 42.152 42.085 41.995 41.907 41.845 41.787 41.69 41.6 41.517 41.445 41.375 41.325 41.29 41.202 41.112 41.012 40.962 40.93 40.89 40.827 40.72 40.702 40.647 40.58 40.552 40.487 40.412 40.387 40.37 40.37 40.315 40.257 40.247 40.245 40.252 40.242 40.27 40.27 40.235 40.222 40.212 40.172 40.117 40.04 39.965 39.925 39.877 39.807 39.852 39.83 39.822 39.792 39.78 39.782 39.727 39.68 39.657 39.632 39.572 39.52 39.477 39.44 39.387 39.31 39.285 39.24 39.172 39.097 39.072 39.002 38.942 38.872 38.785 38.762 38.705 38.655 38.605 38.527 38.465 38.382 38.367 38.292 38.185 38.087 38.01 37.877 37.71 37.532 37.36 37.177 37.005 36.797 36.657 36.505 36.372 36.212 36.097 36 35.91 35.807 35.72 35.632 35.527 35.505 35.415 35.24 35.212 35.2 35.087 35.002 34.912 34.852 34.817 34.762 34.677 34.622 34.385 34.055 34.325 34.337 34.315 34.242 34.182 34.08 34.067 34.042 34.035 34.02 34.03 34.062 34.15 34.12 34.047 33.96 33.915 33.855 33.572 33.065 33.462 33.507 33.367 33.285 33.267 33.305 33.322 33.35 33.375 33.355 33.385 33.45 33.595 33.652 33.647 33.549 33.094 32.664 32.569 32.699 32.864 33.372 33.717 33.649 33.577 33.524 33.514 33.424 33.624 33.734 33.754 33.889 34.172 34.469 34.767 34.969 35.277 35.679 35.899 36.339 36.854 37.304 37.504 37.592 37.647 37.687 37.777 37.794 37.782 37.857 37.919 38.007 38.122 38.232 38.374 38.699 38.924 39.137 39.249 39.344 39.484 39.714 39.927 39.579 38.707 38.479 38.509 38.817 39.992 40.817 40.977 41.104 41.097 41.049 41.097 41.099 41.249 41.409 41.639 41.717 41.667 41.539 41.412 41.417 41.454 41.482 41.512 41.564 41.627 41.564 41.522 41.507 41.512 41.482 41.527 41.669 41.782 41.882 41.974 42.017 42.132 42.212 42.324 42.467 42.582 42.739 42.889 43.079 43.267 43.437 43.609 43.742 43.982 44.154 44.322 44.474 44.614 44.767 44.927 45.052 45.207 45.319 45.439 45.542 45.682 45.817 45.897 46.024 46.164 46.249 46.347 46.459 46.617 46.759 46.892 47.014 47.157 47.282 47.434 47.554 47.649 47.732 47.767 47.802 47.899 47.992 47.997 48.039 48.122 48.187 48.267 48.334 48.397 48.477 48.577 48.684 48.777 48.887 48.919 48.994 49.052 49.034 49.002 49.052 49.077 49.115 49.14 49.242 49.267 49.345 49.43 49.51 49.59 49.687 49.752 49.835 49.902
42.893 43.035 43.123 43.175 43.188 43.12 43.205 43.265 43.308 43.27 43.195 43.19 43.255 43.203 43.16 43.138 43.09 43.065 42.965 42.96 42.958 42.893 42.785 42.733 42.655 42.602 42.535 42.5 42.457 42.422 42.305 42.212 42.325 42.345 42.28 42.055 42.007 42.07 42.02 41.89 41.405 40.252 41.44 42.372 42.467 42.49 42.445 42.257 42.042 41.967 41.842 41.775 41.78 41.815 41.835 41.91 41.927 42.005 42.03 42.062 42.172 42.282 42.362 42.51 42.557 42.58 42.665 42.74 42.85 42.952 43.042 43.17 43.28 43.375 43.432 43.572 43.687 43.742 43.79 43.87 43.902 43.94 43.93 43.942 43.962 43.937 43.905 43.88 43.837 43.817 43.78 43.765 43.762 43.752 43.727 43.735 43.717 43.712 43.702 43.71 43.71 43.707 43.697 43.66 43.652 43.612 43.587 43.527 43.485 43.43 43.35 43.24 43.187 43.11 43.057 42.98 42.837 42.782 42.677 42.59 42.535 42.482 42.355 42.272 42.212 42.137 42.045 41.99 41.922 41.8 41.752 41.675 41.57 41.527 41.442 41.382 41.307 41.245 41.175 41.11 41.065 41.01 40.947 40.897 40.832 40.762 40.727 40.637 40.61 40.595 40.492 40.44 40.427 40.377 40.35 40.302 40.325 40.25 40.305 40.3 40.317 40.32 40.335 40.305 40.28 40.242 40.157 40.127 40.045 40.007 39.962 39.952 39.942 39.885 39.86 39.852 39.815 39.812 39.81 39.717 39.672 39.65 39.615 39.565 39.502 39.452 39.4 39.317 39.312 39.265 39.19 39.112 39.087 39.002 38.942 38.877 38.832 38.802 38.747 38.695 38.615 38.567 38.497 38.43 38.36 38.29 38.202 38.095 38 37.882 37.717 37.547 37.372 37.167 36.99 36.82 36.652 36.492 36.34 36.202 36.102 36.002 35.882 35.802 35.707 35.645 35.567 35.517 35.467 35.295 35.265 35.18 35.092 35.002 34.907 34.875 34.83 34.76 34.78 34.642 34.29 34.207 34.362 34.355 34.285 34.247 34.202 34.167 34.12 34.15 34.145 34.085 34.075 34.125 34.147 34.167 34.132 34.037 33.96 33.872 33.64 33.057 33.55 33.522 33.37 33.305 33.287 33.305 33.317 33.34 33.35 33.325 33.382 33.47 33.537 33.612 33.657 33.497 33.054 32.697 32.682 32.717 32.962 33.417 33.709 33.667 33.577 33.442 33.462 33.402 33.564 33.702 33.757 33.729 34.104 34.422 34.662 34.817 35.237 35.569 35.897 36.339 36.794 37.204 37.482 37.607 37.649 37.682 37.752 37.777 37.852 37.934 37.987 38.044 38.164 38.327 38.497 38.804 39.057 39.234 39.367 39.392 39.559 39.797 40.069 39.959 38.992 38.499 38.494 38.607 39.512 40.552 40.962 41.049 41.087 40.999 41.064 41.142 41.279 41.384 41.704 41.782 41.647 41.524 41.489 41.482 41.519 41.532 41.504 41.612 41.657 41.622 41.572 41.544 41.547 41.522 41.532 41.612 41.727 41.874 41.932 42.064 42.164 42.299 42.387 42.502 42.637 42.769 42.949 43.114 43.294 43.462 43.637 43.812 43.999 44.187 44.389 44.554 44.677 44.839 44.962 45.107 45.234 45.369 45.459 45.607 45.734 45.867 45.949 46.024 46.149 46.272 46.392 46.519 46.632 46.804 46.892 47.027 47.179 47.312 47.449 47.527 47.652 47.724 47.762 47.794 47.849 47.924 48.042 48.074 48.117 48.182 48.297 48.359 48.472 48.564 48.634 48.734 48.869 48.919 48.989 49.019 49.082 49.089 49.052 49.052 49.105 49.127 49.15 49.217 49.305 49.36 49.42 49.515 49.63 49.702 49.782 49.862 49.925
42.943 43.06 43.12 43.165 43.205 43.163 43.245 43.335 43.37 43.333 43.265 43.308 43.368 43.288 43.245 43.158 43.1 43.123 43.08 42.96 42.87 42.885 42.798 42.783 42.715 42.592 42.502 42.502 42.497 42.452 42.355 42.302 42.337 42.347 42.302 42.025 41.947 42.045 41.962 41.792 41.045 40.2 41.175 42.132 42.41 42.405 42.295 42.097 42.047 42.19 42.257 42.062 41.922 41.785 41.797 41.827 41.877 41.937 41.977 42.077 42.17 42.237 42.297 42.397 42.535 42.657 42.697 42.792 42.887 43.012 43.12 43.182 43.26 43.375 43.382 43.522 43.627 43.715 43.797 43.852 43.885 43.93 43.917 43.915 43.935 43.895 43.9 43.88 43.86 43.845 43.825 43.785 43.79 43.747 43.78 43.77 43.765 43.777 43.782 43.76 43.762 43.747 43.802 43.73 43.702 43.7 43.64 43.575 43.515 43.465 43.432 43.332 43.235 43.152 43.11 43.025 42.95 42.852 42.727 42.657 42.582 42.502 42.42 42.342 42.262 42.155 42.107 41.995 41.91 41.825 41.785 41.707 41.645 41.557 41.48 41.43 41.347 41.265 41.24 41.18 41.095 41.042 41 40.902 40.857 40.815 40.765 40.677 40.65 40.592 40.58 40.547 40.487 40.435 40.407 40.385 40.367 40.342 40.332 40.38 40.355 40.382 40.362 40.332 40.342 40.31 40.26 40.192 40.132 40.08 40.045 40.007 39.982 39.97 39.935 39.927 39.865 39.827 39.835 39.802 39.735 39.675 39.64 39.585 39.535 39.48 39.45 39.39 39.322 39.25 39.215 39.147 39.102 39.065 38.985 38.917 38.862 38.815 38.76 38.712 38.655 38.59 38.527 38.495 38.415 38.32 38.252 38.135 38.02 37.875 37.762 37.565 37.365 37.157 36.98 36.82 36.65 36.525 36.395 36.25 36.122 35.992 35.892 35.8 35.715 35.662 35.577 35.55 35.515 35.377 35.262 35.135 35.095 35 34.917 34.887 34.792 34.762 34.72 34.67 34.492 34.395 34.372 34.355 34.312 34.25 34.2 34.192 34.182 34.167 34.177 34.13 34.102 34.097 34.145 34.207 34.192 34.137 34.017 33.87 33.577 33.047 33.31 33.422 33.307 33.265 33.267 33.267 33.322 33.31 33.31 33.312 33.38 33.47 33.465 33.534 33.487 33.294 32.912 32.769 32.772 32.779 32.977 33.582 33.747 33.697 33.554 33.494 33.504 33.404 33.567 33.689 33.782 33.892 34.069 34.422 34.599 34.804 35.147 35.429 35.872 36.269 36.662 37.077 37.442 37.592 37.532 37.554 37.719 37.787 37.859 37.979 38.069 38.127 38.224 38.387 38.629 38.897 39.107 39.314 39.367 39.472 39.587 39.864 40.232 40.282 39.504 38.617 38.489 38.512 39.087 40.232 40.832 40.919 40.977 40.992 41.027 41.167 41.324 41.424 41.532 41.612 41.527 41.539 41.522 41.547 41.609 41.582 41.542 41.609 41.664 41.677 41.657 41.627 41.749 41.862 41.804 41.752 41.757 41.839 41.914 41.997 42.129 42.344 42.462 42.574 42.689 42.827 42.937 43.144 43.342 43.539 43.667 43.864 44.059 44.214 44.404 44.577 44.709 44.862 44.984 45.147 45.274 45.432 45.539 45.644 45.747 45.892 45.989 46.057 46.207 46.329 46.434 46.529 46.657 46.782 46.964 47.089 47.187 47.307 47.454 47.557 47.669 47.677 47.804 47.852 47.877 47.914 48.029 48.099 48.164 48.219 48.317 48.389 48.484 48.612 48.732 48.779 48.912 48.967 49.034 49.047 49.067 49.094 49.127 49.12 49.085 49.147 49.185 49.24 49.32 49.397 49.48 49.532 49.66 49.742 49.817 49.87 49.93
42.957 43.09 43.125 43.2 43.165 43.172 43.24 43.255 43.252 43.27 43.24 43.25 43.235 43.18 43.157 43.187 43.132 43.01 42.985 42.915 42.842 42.852 42.782 42.742 42.677 42.58 42.505 42.487 42.4 42.312 42.39 42.312 42.267 42.357 42.285 42.212 42.05 42.042 42 41.72 40.695 40.232 40.922 41.857 42.232 42.027 41.93 41.952 42.16 42.332 42.565 42.462 42.147 41.965 41.922 41.85 41.87 41.882 41.917 41.99 42.072 42.137 42.23 42.315 42.482 42.615 42.772 42.835 42.892 42.97 43.09 43.18 43.242 43.315 43.39 43.485 43.597 43.66 43.742 43.815 43.857 43.897 43.892 43.885 43.865 43.855 43.875 43.865 43.817 43.847 43.837 43.797 43.817 43.807 43.825 43.795 43.785 43.807 43.825 43.83 43.832 43.822 43.835 43.805 43.797 43.765 43.7 43.625 43.605 43.567 43.48 43.44 43.342 43.225 43.172 43.055 42.995 42.895 42.795 42.7 42.615 42.542 42.442 42.362 42.297 42.222 42.165 42.042 41.995 41.92 41.84 41.772 41.705 41.622 41.535 41.472 41.405 41.33 41.277 41.207 41.137 41.105 41.055 40.967 40.92 40.892 40.835 40.802 40.745 40.69 40.647 40.612 40.547 40.51 40.48 40.487 40.42 40.437 40.392 40.402 40.457 40.437 40.422 40.445 40.42 40.367 40.372 40.27 40.225 40.16 40.15 40.112 40.047 40.002 39.975 39.977 39.927 39.887 39.88 39.88 39.81 39.71 39.712 39.627 39.567 39.527 39.472 39.372 39.382 39.312 39.252 39.185 39.12 39.077 39.035 38.965 38.925 38.81 38.78 38.732 38.675 38.62 38.58 38.507 38.44 38.35 38.29 38.17 38.055 37.932 37.75 37.577 37.417 37.175 37.022 36.835 36.685 36.515 36.392 36.257 36.12 36.007 35.877 35.79 35.71 35.659 35.597 35.564 35.484 35.392 35.289 35.194 35.072 35.029 34.967 34.894 34.802 34.677 34.457 34.482 34.529 34.437 34.404 34.317 34.269 34.237 34.269 34.234 34.202 34.184 34.142 34.134 34.127 34.139 34.184 34.239 34.252 34.202 34.092 33.877 33.519 33.077 33.207 33.372 33.339 33.277 33.244 33.272 33.304 33.309 33.292 33.284 33.344 33.452 33.549 33.632 33.669 33.512 32.882 32.767 32.749 32.739 32.794 33.539 33.667 33.647 33.554 33.537 33.469 33.407 33.547 33.677 33.819 33.879 34.072 34.399 34.494 34.759 35.054 35.312 35.764 36.174 36.529 36.917 37.262 37.319 37.319 37.459 37.614 37.757 37.912 38.012 38.107 38.227 38.424 38.594 38.809 38.994 39.167 39.339 39.397 39.519 39.709 39.929 40.237 40.382 39.884 38.874 38.527 38.507 38.687 39.754 40.632 40.789 40.834 40.917 40.967 41.142 41.344 41.447 41.474 41.557 41.524 41.527 41.557 41.639 41.649 41.694 41.642 41.674 41.767 41.769 41.722 41.734 41.894 42.087 42.089 42.072 42.042 41.972 41.959 42.002 42.087 42.209 42.439 42.579 42.729 42.907 42.999 43.197 43.362 43.522 43.717 43.887 44.072 44.275 44.417 44.585 44.71 44.885 45.017 45.202 45.28 45.45 45.57 45.72 45.767 45.902 46.01 46.11 46.24 46.347 46.46 46.57 46.672 46.802 46.955 47.092 47.195 47.337 47.442 47.58 47.637 47.692 47.717 47.812 47.902 47.937 48.002 48.105 48.207 48.26 48.327 48.447 48.532 48.645 48.785 48.877 48.907 48.992 49.032 49.065 49.075 49.112 49.152 49.155 49.082 49.105 49.202 49.257 49.332 49.38 49.477 49.537 49.647 49.742 49.83 49.897 49.97
42.95 43.04 43.07 43.117 43.155 43.132 43.162 43.145 43.147 43.16 43.132 43.137 43.11 43.057 43.055 43.1 43.032 42.905 42.745 42.785 42.8 42.777 42.72 42.657 42.577 42.535 42.39 42.34 42.34 42.335 42.31 42.19 42.19 42.247 42.157 42.19 42.167 42.052 41.987 41.54 40.367 40.505 41.27 41.945 41.872 41.677 41.577 41.827 42.155 42.352 42.527 42.577 42.375 42.282 42.195 42.137 42.022 41.892 41.852 41.907 42.01 42.09 42.13 42.26 42.355 42.54 42.792 42.865 42.955 43.007 43.067 43.175 43.247 43.337 43.377 43.432 43.532 43.622 43.685 43.762 43.775 43.845 43.88 43.912 43.875 43.84 43.85 43.822 43.807 43.805 43.82 43.822 43.83 43.86 43.827 43.825 43.847 43.847 43.85 43.862 43.892 43.892 43.902 43.86 43.855 43.805 43.742 43.71 43.647 43.6 43.52 43.465 43.367 43.305 43.217 43.135 43.032 42.96 42.857 42.765 42.645 42.545 42.482 42.415 42.315 42.27 42.177 42.095 42.037 41.962 41.892 41.815 41.737 41.68 41.6 41.537 41.475 41.41 41.317 41.275 41.225 41.147 41.112 41.065 40.992 40.98 40.922 40.855 40.8 40.755 40.737 40.66 40.602 40.552 40.57 40.552 40.505 40.48 40.457 40.51 40.487 40.495 40.472 40.46 40.48 40.487 40.41 40.372 40.292 40.26 40.222 40.197 40.135 40.092 40.06 40 39.992 39.957 39.912 39.857 39.825 39.807 39.735 39.69 39.605 39.557 39.497 39.442 39.392 39.342 39.272 39.197 39.145 39.127 39.045 39 38.945 38.852 38.807 38.747 38.725 38.652 38.597 38.537 38.485 38.397 38.312 38.197 38.082 37.907 37.785 37.642 37.447 37.26 37.082 36.867 36.737 36.565 36.405 36.28 36.135 36.02 35.927 35.815 35.705 35.609 35.582 35.537 35.397 35.299 35.289 35.187 35.109 35.069 35.002 34.927 34.827 34.572 34.272 34.334 34.462 34.414 34.374 34.309 34.282 34.262 34.282 34.252 34.244 34.197 34.152 34.122 34.122 34.149 34.209 34.274 34.249 34.229 34.139 33.907 33.537 33.159 33.209 33.384 33.362 33.274 33.247 33.279 33.267 33.264 33.252 33.277 33.332 33.444 33.562 33.574 33.602 33.379 32.682 32.634 32.657 32.682 32.782 33.464 33.582 33.549 33.509 33.489 33.447 33.414 33.564 33.734 33.909 33.964 34.159 34.349 34.479 34.734 35.052 35.289 35.634 36.007 36.309 36.607 36.867 37.072 37.332 37.522 37.674 37.824 37.967 38.069 38.197 38.352 38.569 38.874 39.044 39.129 39.254 39.392 39.472 39.637 39.812 39.972 40.212 40.434 40.229 39.229 38.582 38.492 38.534 39.347 40.299 40.662 40.742 40.834 40.967 41.194 41.412 41.467 41.489 41.592 41.579 41.574 41.632 41.707 41.697 41.807 41.802 41.782 41.867 41.869 41.832 41.889 42.054 42.137 42.159 42.149 42.189 42.199 42.187 42.154 42.124 42.222 42.324 42.469 42.704 42.924 43.089 43.237 43.397 43.562 43.719 43.937 44.112 44.302 44.45 44.57 44.752 44.867 45.022 45.195 45.347 45.447 45.58 45.707 45.82 45.947 46.067 46.13 46.26 46.355 46.45 46.57 46.71 46.822 46.957 47.08 47.22 47.302 47.402 47.542 47.617 47.687 47.695 47.75 47.887 47.957 48 48.102 48.237 48.322 48.4 48.475 48.6 48.702 48.782 48.877 48.927 48.98 49.02 49.052 49.107 49.082 49.165 49.2 49.16 49.132 49.225 49.28 49.36 49.41 49.497 49.572 49.632 49.77 49.842 49.87 50.01
42.99 43.06 43.087 43.105 43.125 43.107 43.132 43.122 43.08 43.085 43.092 43.037 43.02 42.982 42.975 42.96 42.887 42.86 42.78 42.69 42.68 42.647 42.647 42.552 42.575 42.54 42.37 42.302 42.342 42.282 42.23 42.16 42.147 42.167 42.137 42.125 42.027 41.922 41.825 40.895 40.22 40.995 41.8 42.115 41.862 41.59 41.637 41.802 42.082 42.372 42.492 42.477 42.51 42.567 42.527 42.392 42.335 42.435 42.122 41.97 41.992 42.03 42.08 42.137 42.215 42.38 42.607 42.78 42.9 43.042 43.055 43.147 43.23 43.302 43.357 43.422 43.525 43.567 43.63 43.69 43.725 43.797 43.902 43.875 43.88 43.865 43.855 43.84 43.825 43.815 43.815 43.82 43.812 43.835 43.842 43.84 43.905 43.915 43.905 43.905 43.935 43.932 43.92 43.877 43.897 43.892 43.795 43.787 43.705 43.66 43.577 43.52 43.452 43.372 43.237 43.172 43.065 42.997 42.902 42.827 42.705 42.587 42.527 42.442 42.36 42.292 42.217 42.125 42.082 42.002 41.92 41.875 41.772 41.74 41.637 41.587 41.52 41.45 41.372 41.352 41.287 41.25 41.167 41.085 41.037 41.012 40.982 40.872 40.845 40.812 40.762 40.74 40.685 40.672 40.625 40.57 40.597 40.55 40.545 40.552 40.565 40.55 40.552 40.542 40.562 40.527 40.467 40.437 40.39 40.327 40.257 40.247 40.195 40.177 40.117 40.097 40.062 40.022 39.995 39.93 39.862 39.845 39.777 39.7 39.64 39.577 39.542 39.485 39.392 39.355 39.312 39.232 39.18 39.115 39.065 39.01 38.957 38.887 38.815 38.807 38.742 38.687 38.662 38.585 38.535 38.442 38.3 38.235 38.102 37.97 37.847 37.662 37.512 37.305 37.127 36.947 36.815 36.635 36.462 36.32 36.177 36.067 35.972 35.86 35.745 35.642 35.607 35.499 35.399 35.332 35.294 35.219 35.137 35.077 35.024 34.924 34.769 34.439 34.309 34.452 34.462 34.409 34.349 34.312 34.282 34.284 34.262 34.259 34.224 34.204 34.177 34.169 34.137 34.169 34.217 34.269 34.294 34.254 34.112 33.842 33.479 33.169 33.129 33.429 33.417 33.284 33.224 33.279 33.267 33.259 33.247 33.259 33.342 33.484 33.542 33.589 33.579 33.322 32.609 32.614 32.667 32.752 33.032 33.494 33.539 33.594 33.532 33.514 33.482 33.414 33.564 33.737 33.914 34.049 34.227 34.307 34.449 34.712 34.992 35.297 35.567 35.859 36.159 36.444 36.734 37.127 37.624 37.734 37.754 37.852 37.984 38.057 38.264 38.469 38.764 39.057 39.174 39.249 39.379 39.537 39.717 39.817 39.929 40.009 40.169 40.367 40.377 39.587 38.702 38.489 38.482 38.969 39.932 40.597 40.674 40.749 40.949 41.217 41.422 41.524 41.542 41.567 41.594 41.619 41.702 41.787 41.729 41.822 41.854 41.897 41.982 41.974 41.974 42.059 42.114 42.154 42.197 42.217 42.282 42.334 42.359 42.309 42.269 42.324 42.382 42.542 42.674 42.827 43.074 43.289 43.464 43.629 43.794 43.944 44.137 44.305 44.48 44.6 44.772 44.907 45.067 45.207 45.377 45.515 45.607 45.717 45.86 45.962 46.092 46.19 46.29 46.367 46.47 46.6 46.71 46.84 46.967 47.08 47.192 47.302 47.41 47.475 47.547 47.622 47.707 47.76 47.832 47.93 48.022 48.117 48.252 48.332 48.427 48.517 48.637 48.737 48.787 48.85 48.922 48.96 49.042 49.072 49.075 49.107 49.122 49.165 49.197 49.17 49.21 49.29 49.31 49.422 49.52 49.612 49.672 49.77 49.882 49.935 50.075
43.027 43.077 43.1 43.127 43.12 43.082 43.08 43.052 43.05 43.052 43.075 43.05 43.025 42.99 42.987 42.917 42.85 42.825 42.807 42.727 42.625 42.595 42.582 42.515 42.502 42.477 42.322 42.257 42.287 42.185 42.147 42.157 42.122 42.095 42.04 42.022 41.91 41.83 41.307 40.34 40.52 41.482 42.122 42.112 41.962 41.79 41.727 41.825 42.037 42.342 42.46 42.492 42.555 42.665 42.63 42.56 42.527 42.75 42.715 42.38 42.047 42.04 42.06 42.11 42.142 42.252 42.38 42.515 42.77 42.965 43.08 43.172 43.26 43.295 43.352 43.425 43.477 43.527 43.57 43.592 43.667 43.75 43.805 43.832 43.832 43.85 43.84 43.822 43.82 43.79 43.795 43.8 43.837 43.897 43.895 43.87 43.905 43.92 43.935 43.947 43.97 43.945 43.972 43.952 43.927 43.9 43.857 43.855 43.762 43.665 43.632 43.547 43.48 43.437 43.327 43.207 43.12 43.072 42.96 42.87 42.755 42.645 42.565 42.5 42.425 42.34 42.265 42.195 42.112 42.082 41.957 41.89 41.83 41.78 41.71 41.632 41.577 41.525 41.45 41.357 41.32 41.26 41.202 41.157 41.107 41.06 41.037 40.98 40.957 40.875 40.817 40.775 40.757 40.745 40.705 40.652 40.642 40.655 40.592 40.62 40.637 40.61 40.615 40.642 40.625 40.602 40.552 40.505 40.452 40.42 40.367 40.282 40.3 40.247 40.202 40.165 40.125 40.082 40.05 39.992 39.955 39.855 39.83 39.762 39.7 39.67 39.62 39.525 39.45 39.395 39.307 39.252 39.232 39.16 39.092 39.06 38.997 38.927 38.847 38.792 38.785 38.76 38.705 38.642 38.58 38.465 38.335 38.23 38.165 38.04 37.897 37.715 37.537 37.367 37.21 37.035 36.892 36.717 36.555 36.387 36.282 36.147 36.03 35.9 35.807 35.737 35.612 35.492 35.422 35.379 35.317 35.234 35.174 35.109 35.059 34.909 34.644 34.399 34.544 34.557 34.534 34.432 34.347 34.309 34.289 34.294 34.292 34.279 34.264 34.174 34.172 34.204 34.172 34.199 34.247 34.264 34.284 34.177 33.947 33.684 33.414 33.139 33.022 33.374 33.424 33.334 33.247 33.254 33.252 33.269 33.244 33.279 33.362 33.472 33.529 33.577 33.624 33.214 32.624 32.647 32.659 32.897 33.362 33.567 33.559 33.587 33.544 33.472 33.417 33.424 33.597 33.752 33.899 34.114 34.249 34.352 34.484 34.737 34.994 35.289 35.549 35.862 36.142 36.462 36.839 37.352 37.729 37.822 37.779 37.809 37.937 38.084 38.299 38.612 38.952 39.089 39.219 39.367 39.557 39.752 39.932 39.997 40.024 40.074 40.134 40.367 40.479 40.052 39.044 38.497 38.492 38.699 39.594 40.399 40.669 40.749 40.969 41.222 41.454 41.549 41.559 41.587 41.614 41.659 41.747 41.797 41.777 41.862 41.932 41.989 42.029 42.052 42.099 42.127 42.144 42.174 42.204 42.247 42.314 42.369 42.417 42.414 42.352 42.424 42.504 42.669 42.757 42.872 43.022 43.187 43.479 43.659 43.834 43.979 44.102 44.317 44.497 44.622 44.767 44.935 45.085 45.262 45.375 45.527 45.642 45.762 45.91 46.017 46.102 46.205 46.282 46.392 46.495 46.592 46.697 46.83 46.975 47.095 47.172 47.232 47.38 47.462 47.505 47.557 47.642 47.73 47.772 47.872 48.04 48.15 48.252 48.335 48.412 48.555 48.66 48.692 48.8 48.865 48.962 48.992 49.002 49.03 49.07 49.062 49.107 49.122 49.18 49.22 49.197 49.292 49.335 49.44 49.497 49.605 49.692 49.767 49.875 49.982 50.115
43.037 43.102 43.142 43.137 43.127 43.147 43.132 43.115 43.122 43.107 43.13 43.135 43.082 43.05 43.02 42.975 42.912 42.845 42.832 42.78 42.695 42.61 42.572 42.525 42.46 42.375 42.327 42.277 42.24 42.215 42.157 42.137 42.11 42.017 42.015 41.982 41.83 41.67 40.625 40.302 41.055 41.847 42.142 42.025 41.902 41.887 41.83 41.875 41.917 42.017 42.42 42.465 42.46 42.492 42.542 42.532 42.565 42.61 42.72 42.785 42.607 42.232 42.095 42.105 42.16 42.202 42.275 42.375 42.585 42.805 42.995 43.175 43.285 43.312 43.375 43.432 43.477 43.485 43.532 43.557 43.61 43.677 43.725 43.745 43.792 43.82 43.79 43.8 43.802 43.82 43.792 43.807 43.81 43.872 43.855 43.925 43.945 43.942 43.985 44.012 43.987 44.01 44.03 44.005 43.997 43.962 43.905 43.865 43.777 43.76 43.675 43.61 43.532 43.45 43.35 43.272 43.18 43.082 43.017 42.917 42.805 42.72 42.617 42.567 42.477 42.365 42.272 42.23 42.162 42.115 42.035 41.97 41.905 41.817 41.735 41.702 41.635 41.557 41.485 41.442 41.392 41.327 41.262 41.255 41.21 41.152 41.112 41.065 41.025 40.972 40.92 40.88 40.842 40.78 40.747 40.722 40.732 40.695 40.662 40.7 40.67 40.69 40.665 40.667 40.637 40.662 40.65 40.587 40.54 40.472 40.467 40.372 40.36 40.335 40.282 40.242 40.192 40.177 40.135 40.102 40.05 39.955 39.895 39.84 39.757 39.692 39.652 39.585 39.507 39.442 39.365 39.315 39.24 39.205 39.155 39.105 39.04 38.975 38.915 38.867 38.792 38.78 38.75 38.665 38.635 38.54 38.417 38.307 38.207 38.075 37.96 37.797 37.63 37.452 37.295 37.107 36.92 36.777 36.642 36.455 36.34 36.207 36.077 35.937 35.842 35.749 35.667 35.597 35.474 35.424 35.342 35.292 35.209 35.114 35.109 34.829 34.387 34.552 34.652 34.594 34.509 34.417 34.339 34.324 34.332 34.332 34.327 34.314 34.269 34.197 34.182 34.237 34.279 34.267 34.264 34.299 34.279 34.122 33.804 33.554 33.362 33.177 33.117 33.382 33.472 33.357 33.282 33.242 33.244 33.242 33.259 33.324 33.367 33.454 33.512 33.584 33.589 33.257 32.664 32.734 32.812 33.149 33.457 33.544 33.577 33.594 33.527 33.464 33.394 33.379 33.627 33.742 33.854 33.997 34.187 34.294 34.549 34.789 35.072 35.359 35.672 35.959 36.262 36.602 36.994 37.454 37.739 37.787 37.804 37.794 37.904 38.094 38.392 38.777 39.034 39.147 39.307 39.572 39.809 40.007 40.112 40.147 40.097 40.132 40.189 40.457 40.582 40.302 39.297 38.544 38.474 38.557 39.229 40.252 40.687 40.782 41.024 41.262 41.472 41.587 41.627 41.642 41.649 41.667 41.759 41.744 41.807 41.889 41.964 42.044 42.067 42.127 42.112 42.107 42.094 42.192 42.244 42.287 42.367 42.442 42.474 42.487 42.487 42.544 42.664 42.794 42.907 43.022 43.107 43.224 43.397 43.649 43.882 44.014 44.109 44.27 44.462 44.637 44.82 44.975 45.097 45.262 45.415 45.537 45.715 45.812 45.93 46.04 46.13 46.207 46.33 46.422 46.487 46.575 46.675 46.807 46.917 47.037 47.147 47.22 47.317 47.4 47.475 47.525 47.585 47.702 47.775 47.867 48.01 48.125 48.247 48.325 48.412 48.572 48.667 48.685 48.777 48.85 48.905 48.94 48.982 48.985 49.037 49.032 49.1 49.137 49.172 49.217 49.202 49.242 49.322 49.425 49.532 49.59 49.667 49.767 49.892 50.047 50.177
43.037 43.092 43.11 43.07 43.082 43.122 43.14 43.115 43.11 43.135 43.167 43.117 43.09 43.06 43.065 43.03 42.965 42.89 42.815 42.792 42.685 42.642 42.58 42.525 42.472 42.372 42.332 42.272 42.242 42.19 42.14 42.11 42.132 42.145 42.09 42.035 41.837 41.547 40.41 40.695 41.572 41.922 42.047 41.945 41.857 41.917 41.862 41.925 41.98 42.112 42.257 42.385 42.305 42.247 42.345 42.492 42.357 42.365 42.38 42.652 42.94 42.752 42.312 42.187 42.16 42.195 42.287 42.332 42.412 42.482 42.715 43.092 43.23 43.327 43.337 43.392 43.457 43.495 43.547 43.557 43.557 43.57 43.63 43.702 43.727 43.725 43.77 43.792 43.82 43.82 43.85 43.827 43.83 43.872 43.877 43.937 43.977 43.977 44.007 44.027 44.067 44.065 44.04 44.03 44.017 43.982 43.94 43.88 43.83 43.807 43.737 43.655 43.597 43.502 43.412 43.33 43.23 43.105 43.017 42.945 42.817 42.745 42.652 42.61 42.517 42.405 42.36 42.257 42.197 42.127 42.055 42.02 41.94 41.875 41.812 41.765 41.692 41.617 41.56 41.535 41.455 41.405 41.335 41.312 41.265 41.21 41.16 41.122 41.08 41.01 40.975 40.932 40.907 40.857 40.835 40.82 40.817 40.785 40.765 40.775 40.755 40.782 40.717 40.732 40.745 40.732 40.722 40.66 40.645 40.562 40.555 40.517 40.475 40.42 40.35 40.322 40.265 40.252 40.2 40.137 40.085 40.022 39.95 39.875 39.787 39.742 39.685 39.61 39.55 39.5 39.4 39.372 39.315 39.257 39.185 39.155 39.08 39.027 38.972 38.95 38.875 38.845 38.802 38.707 38.647 38.572 38.512 38.395 38.272 38.15 38.005 37.855 37.675 37.562 37.382 37.19 37.02 36.877 36.722 36.562 36.412 36.257 36.155 36.035 35.925 35.812 35.702 35.624 35.529 35.492 35.399 35.347 35.312 35.207 35.092 34.564 34.517 34.702 34.667 34.604 34.459 34.392 34.412 34.387 34.384 34.342 34.334 34.342 34.297 34.242 34.232 34.269 34.327 34.334 34.299 34.342 34.277 34.059 33.714 33.489 33.327 33.147 33.064 33.329 33.454 33.432 33.349 33.282 33.257 33.247 33.277 33.347 33.419 33.499 33.567 33.597 33.594 33.214 32.627 32.729 32.944 33.212 33.484 33.567 33.652 33.604 33.479 33.492 33.457 33.354 33.592 33.704 33.884 34.087 34.232 34.374 34.579 34.849 35.162 35.504 35.864 36.197 36.482 36.767 37.032 37.402 37.642 37.729 37.777 37.852 37.947 38.192 38.529 38.802 38.984 39.152 39.479 39.769 40.002 40.184 40.202 40.197 40.159 40.182 40.279 40.467 40.577 40.452 39.632 38.739 38.469 38.489 38.882 39.944 40.689 40.852 41.052 41.314 41.517 41.634 41.647 41.657 41.669 41.659 41.689 41.687 41.757 41.882 41.964 42.009 42.117 42.142 42.187 42.132 42.124 42.222 42.312 42.364 42.399 42.474 42.522 42.542 42.594 42.667 42.794 42.914 42.939 43.097 43.172 43.269 43.427 43.627 43.812 44.007 44.202 44.327 44.477 44.63 44.827 44.985 45.147 45.282 45.422 45.592 45.717 45.847 45.93 46.05 46.155 46.232 46.305 46.377 46.482 46.555 46.71 46.797 46.902 46.955 47.062 47.165 47.26 47.325 47.42 47.492 47.565 47.65 47.767 47.862 47.992 48.092 48.232 48.31 48.417 48.547 48.632 48.702 48.742 48.802 48.882 48.915 48.965 48.985 48.985 49.032 49.067 49.105 49.125 49.192 49.205 49.227 49.297 49.387 49.492 49.542 49.7 49.792 49.912 50.065 50.242
43.077 43.13 43.142 43.122 43.125 43.135 43.182 43.162 43.135 43.165 43.185 43.147 43.09 43.07 43.055 42.997 42.925 42.862 42.825 42.765 42.695 42.642 42.587 42.517 42.507 42.415 42.33 42.305 42.237 42.182 42.13 42.157 42.167 42.167 42.182 42.152 41.882 41.26 40.47 41.307 41.882 41.99 41.955 41.877 41.83 41.94 41.915 41.995 42.045 42.135 42.127 42.16 42.07 42.067 42.135 42.277 42.12 42.185 42.212 42.397 42.665 42.657 42.475 42.362 42.26 42.215 42.287 42.342 42.422 42.395 42.507 42.765 42.96 43.207 43.33 43.42 43.452 43.505 43.57 43.535 43.562 43.582 43.605 43.652 43.662 43.672 43.72 43.76 43.827 43.82 43.837 43.845 43.865 43.907 43.902 43.955 43.985 44.045 44.042 44.075 44.097 44.115 44.095 44.092 44.087 44.027 44.012 43.955 43.905 43.84 43.785 43.7 43.61 43.547 43.465 43.387 43.267 43.17 43.077 43.01 42.885 42.782 42.712 42.642 42.555 42.47 42.402 42.335 42.245 42.195 42.112 42.017 42.022 41.945 41.862 41.81 41.75 41.685 41.62 41.58 41.53 41.455 41.41 41.387 41.352 41.287 41.192 41.182 41.132 41.105 41.065 41.005 40.977 40.962 40.92 40.915 40.897 40.897 40.835 40.835 40.81 40.83 40.807 40.785 40.815 40.827 40.785 40.715 40.722 40.712 40.64 40.617 40.562 40.492 40.407 40.377 40.382 40.317 40.232 40.22 40.135 40.12 40.022 39.937 39.842 39.805 39.732 39.667 39.592 39.545 39.437 39.417 39.367 39.297 39.232 39.192 39.135 39.07 39.022 38.975 38.94 38.872 38.837 38.785 38.722 38.632 38.547 38.485 38.37 38.252 38.115 37.957 37.812 37.642 37.477 37.302 37.1 36.975 36.792 36.65 36.495 36.33 36.232 36.115 35.975 35.862 35.757 35.654 35.624 35.582 35.482 35.389 35.329 35.157 34.659 34.387 34.719 34.752 34.644 34.517 34.417 34.412 34.432 34.399 34.382 34.357 34.359 34.324 34.309 34.282 34.274 34.299 34.354 34.387 34.424 34.384 34.289 34.024 33.699 33.484 33.352 33.209 33.042 33.249 33.447 33.447 33.362 33.307 33.249 33.252 33.314 33.372 33.442 33.509 33.567 33.607 33.587 33.199 32.644 32.707 32.944 33.197 33.502 33.592 33.639 33.579 33.494 33.389 33.452 33.377 33.594 33.789 33.962 34.134 34.254 34.442 34.679 34.917 35.287 35.717 36.104 36.477 36.744 36.899 37.074 37.312 37.529 37.687 37.807 37.957 38.184 38.442 38.637 38.817 38.994 39.257 39.597 39.874 40.134 40.249 40.264 40.217 40.169 40.202 40.354 40.469 40.554 40.579 39.964 38.972 38.469 38.482 38.637 39.462 40.457 40.927 41.102 41.359 41.509 41.652 41.662 41.607 41.629 41.654 41.659 41.664 41.757 41.847 41.927 42.039 42.069 42.099 42.237 42.177 42.194 42.272 42.349 42.389 42.459 42.537 42.579 42.647 42.692 42.742 42.899 43.029 43.072 43.109 43.197 43.402 43.559 43.682 43.784 43.957 44.179 44.367 44.487 44.635 44.792 44.992 45.16 45.3 45.445 45.577 45.715 45.825 45.967 46.022 46.112 46.235 46.302 46.402 46.44 46.552 46.692 46.762 46.855 46.93 47.022 47.13 47.195 47.255 47.37 47.445 47.517 47.6 47.72 47.83 47.97 48.06 48.177 48.277 48.38 48.495 48.572 48.652 48.745 48.775 48.802 48.885 48.935 48.95 48.932 48.985 49.04 49.047 49.112 49.155 49.207 49.23 49.232 49.332 49.407 49.49 49.665 49.835 49.937 50.155 50.397
43.14 43.19 43.187 43.167 43.172 43.187 43.215 43.215 43.185 43.22 43.237 43.2 43.122 43.107 43.115 43.012 42.952 42.892 42.84 42.777 42.685 42.61 42.572 42.497 42.462 42.375 42.312 42.272 42.247 42.217 42.152 42.172 42.23 42.245 42.262 42.07 41.572 40.972 40.76 41.662 41.84 41.85 41.855 41.817 41.82 41.92 41.917 41.917 41.945 42.002 42.012 42.047 42.02 42.012 42.092 42.125 42.067 42.055 42.097 42.175 42.307 42.405 42.357 42.385 42.395 42.415 42.36 42.357 42.412 42.47 42.552 42.582 42.707 42.945 43.21 43.402 43.452 43.48 43.535 43.565 43.585 43.605 43.602 43.59 43.617 43.65 43.692 43.715 43.757 43.787 43.815 43.832 43.892 43.922 43.947 43.975 44.02 44.097 44.09 44.117 44.117 44.137 44.155 44.135 44.107 44.07 44.06 44.025 43.962 43.895 43.815 43.735 43.635 43.565 43.495 43.417 43.305 43.205 43.155 43.055 42.947 42.86 42.762 42.665 42.587 42.517 42.45 42.39 42.307 42.232 42.16 42.085 42.037 42.032 41.97 41.837 41.81 41.76 41.662 41.635 41.612 41.557 41.48 41.45 41.4 41.372 41.297 41.22 41.2 41.145 41.13 41.08 41.042 41.027 41 41.007 40.992 40.995 40.94 40.922 40.947 40.927 40.91 40.872 40.9 40.87 40.842 40.777 40.82 40.82 40.747 40.71 40.687 40.62 40.512 40.492 40.455 40.382 40.3 40.272 40.24 40.172 40.08 40.035 39.965 39.89 39.76 39.697 39.645 39.59 39.542 39.482 39.437 39.342 39.285 39.272 39.182 39.13 39.09 39.035 38.995 38.945 38.855 38.857 38.782 38.705 38.587 38.545 38.445 38.34 38.182 38.042 37.902 37.74 37.57 37.395 37.217 37.052 36.895 36.717 36.587 36.43 36.282 36.152 36.035 35.972 35.839 35.792 35.722 35.629 35.579 35.479 35.444 35.219 34.837 34.772 34.794 34.757 34.639 34.509 34.464 34.467 34.469 34.447 34.442 34.417 34.369 34.349 34.354 34.307 34.314 34.349 34.399 34.414 34.454 34.419 34.234 34.014 33.762 33.562 33.379 33.262 33.092 33.147 33.407 33.504 33.357 33.324 33.257 33.287 33.342 33.374 33.447 33.522 33.579 33.582 33.619 33.139 32.624 32.667 32.829 33.067 33.457 33.609 33.589 33.482 33.402 33.347 33.454 33.432 33.647 33.912 34.042 34.259 34.362 34.547 34.724 35.007 35.447 35.847 36.277 36.692 36.944 37.097 37.194 37.317 37.509 37.689 37.869 38.122 38.439 38.637 38.767 38.932 39.084 39.297 39.614 39.897 40.122 40.252 40.282 40.242 40.162 40.209 40.352 40.479 40.554 40.592 40.309 39.329 38.554 38.467 38.429 39.064 40.017 40.817 41.144 41.362 41.587 41.674 41.677 41.647 41.634 41.652 41.657 41.687 41.732 41.837 41.914 41.979 41.979 42.039 42.207 42.172 42.192 42.299 42.362 42.432 42.494 42.564 42.652 42.712 42.762 42.787 42.904 42.999 43.062 43.179 43.329 43.454 43.609 43.664 43.789 43.947 44.137 44.397 44.535 44.685 44.797 44.98 45.152 45.305 45.472 45.567 45.697 45.835 45.955 46.017 46.095 46.202 46.307 46.387 46.442 46.505 46.59 46.74 46.797 46.867 46.96 47.017 47.115 47.17 47.227 47.362 47.46 47.54 47.66 47.78 47.905 48.04 48.11 48.227 48.352 48.482 48.54 48.6 48.685 48.712 48.767 48.77 48.85 48.89 48.932 48.94 48.957 49.022 49.027 49.082 49.15 49.212 49.255 49.307 49.4 49.465 49.637 49.827 49.985 50.207 50.477
43.21 43.222 43.197 43.197 43.185 43.212 43.232 43.217 43.235 43.237 43.255 43.212 43.13 43.13 43.095 43.04 42.952 42.922 42.85 42.8 42.705 42.655 42.597 42.54 42.462 42.362 42.305 42.265 42.225 42.175 42.175 42.227 42.297 42.312 42.222 41.89 41.152 40.655 41.352 41.812 41.82 41.79 41.775 41.782 41.812 41.852 41.882 41.897 41.947 41.952 41.95 42.025 42.04 42.065 42.052 42.047 42.035 42.092 42.08 42.117 42.19 42.302 42.317 42.365 42.485 42.592 42.53 42.382 42.385 42.455 42.527 42.552 42.592 42.687 42.892 43.217 43.367 43.497 43.53 43.547 43.587 43.592 43.622 43.61 43.61 43.597 43.655 43.712 43.75 43.755 43.825 43.887 43.887 43.93 43.97 44.012 44.025 44.1 44.122 44.157 44.147 44.15 44.155 44.18 44.115 44.072 44.092 44.022 43.96 43.917 43.89 43.792 43.695 43.602 43.525 43.427 43.355 43.25 43.162 43.097 43.012 42.915 42.81 42.69 42.612 42.565 42.465 42.412 42.357 42.277 42.195 42.162 42.117 42.072 41.997 41.902 41.88 41.81 41.797 41.707 41.695 41.627 41.522 41.5 41.46 41.372 41.332 41.297 41.305 41.227 41.182 41.187 41.13 41.117 41.092 41.077 41.087 41.04 41.035 41.045 41.015 40.985 40.972 40.965 40.985 40.932 40.945 40.93 40.897 40.872 40.837 40.802 40.765 40.715 40.642 40.6 40.547 40.49 40.392 40.342 40.305 40.232 40.162 40.095 40.005 39.962 39.86 39.787 39.692 39.637 39.61 39.542 39.487 39.407 39.352 39.307 39.255 39.17 39.137 39.092 39.035 39.012 38.885 38.842 38.795 38.755 38.692 38.607 38.527 38.41 38.285 38.165 38.015 37.882 37.67 37.515 37.33 37.155 37.002 36.82 36.695 36.515 36.365 36.215 36.145 36.042 35.947 35.864 35.824 35.734 35.642 35.604 35.389 35.144 34.977 34.859 34.814 34.782 34.614 34.549 34.529 34.514 34.489 34.502 34.484 34.467 34.412 34.387 34.374 34.362 34.392 34.427 34.432 34.442 34.499 34.434 34.204 33.959 33.834 33.674 33.414 33.287 33.089 33.024 33.364 33.472 33.349 33.297 33.262 33.297 33.359 33.409 33.447 33.502 33.557 33.597 33.612 33.274 32.557 32.652 32.802 33.037 33.424 33.637 33.594 33.504 33.382 33.304 33.354 33.297 33.569 33.994 34.067 34.304 34.527 34.692 34.892 35.219 35.562 35.999 36.412 36.809 37.099 37.324 37.414 37.394 37.519 37.672 37.984 38.332 38.599 38.762 38.887 39.097 39.264 39.407 39.657 39.862 40.014 40.132 40.197 40.152 40.119 40.207 40.369 40.462 40.539 40.642 40.569 39.724 38.634 38.439 38.457 38.814 39.787 40.722 41.242 41.432 41.629 41.722 41.677 41.649 41.672 41.714 41.687 41.734 41.787 41.874 41.932 41.957 41.982 42.024 42.122 42.179 42.217 42.344 42.402 42.457 42.517 42.597 42.697 42.757 42.829 42.887 42.952 43.019 43.124 43.227 43.329 43.419 43.494 43.464 43.597 43.902 44.112 44.282 44.575 44.73 44.83 45.01 45.13 45.31 45.462 45.567 45.665 45.802 45.907 46.027 46.07 46.195 46.275 46.32 46.385 46.455 46.577 46.68 46.735 46.78 46.837 46.94 46.99 47.077 47.152 47.26 47.382 47.487 47.612 47.727 47.862 48.005 48.125 48.192 48.27 48.41 48.467 48.577 48.592 48.682 48.695 48.742 48.762 48.817 48.887 48.922 48.875 48.977 49.002 49.045 49.105 49.212 49.252 49.232 49.375 49.487 49.612 49.822 50.065 50.28 50.547
43.235 43.247 43.227 43.217 43.197 43.257 43.265 43.237 43.26 43.27 43.282 43.202 43.152 43.15 43.122 43.047 42.972 42.957 42.872 42.78 42.715 42.677 42.617 42.557 42.477 42.385 42.33 42.3 42.232 42.167 42.19 42.28 42.352 42.34 42.085 41.35 40.547 41.025 41.78 41.807 41.805 41.782 41.742 41.785 41.835 41.88 41.907 41.942 41.98 41.977 41.945 41.96 41.967 41.975 42.032 42.062 42.09 42.137 42.097 42.117 42.207 42.337 42.367 42.355 42.372 42.517 42.607 42.555 42.522 42.487 42.505 42.552 42.625 42.647 42.717 42.96 43.117 43.39 43.51 43.577 43.595 43.582 43.627 43.645 43.642 43.66 43.67 43.685 43.72 43.735 43.787 43.867 43.91 43.94 44.002 44.047 44.085 44.135 44.147 44.18 44.177 44.197 44.177 44.182 44.157 44.127 44.117 44.085 44.022 43.955 43.89 43.847 43.742 43.67 43.555 43.492 43.392 43.285 43.192 43.122 43.047 42.982 42.862 42.73 42.672 42.63 42.512 42.482 42.405 42.337 42.247 42.222 42.18 42.112 42.065 42.002 41.937 41.865 41.822 41.752 41.752 41.707 41.637 41.572 41.55 41.462 41.422 41.395 41.352 41.312 41.27 41.282 41.28 41.187 41.177 41.192 41.122 41.105 41.127 41.12 41.11 41.065 41.052 41.055 41.015 41 40.977 41.012 41 40.935 40.945 40.94 40.877 40.825 40.752 40.682 40.64 40.572 40.507 40.477 40.392 40.32 40.225 40.207 40.08 39.992 39.935 39.87 39.81 39.74 39.675 39.6 39.54 39.495 39.442 39.37 39.322 39.257 39.195 39.15 39.11 39.065 38.985 38.89 38.847 38.795 38.755 38.717 38.605 38.487 38.397 38.245 38.122 37.96 37.79 37.617 37.455 37.29 37.14 36.95 36.777 36.642 36.437 36.315 36.245 36.137 36.049 35.984 35.882 35.784 35.722 35.637 35.389 35.099 35.062 34.969 34.817 34.722 34.634 34.599 34.574 34.542 34.544 34.517 34.507 34.469 34.442 34.424 34.402 34.412 34.462 34.497 34.477 34.494 34.494 34.404 34.152 33.942 33.809 33.657 33.429 33.307 33.182 32.959 33.309 33.422 33.372 33.297 33.277 33.294 33.339 33.377 33.407 33.474 33.532 33.584 33.592 33.457 32.862 32.784 32.867 33.032 33.362 33.612 33.627 33.429 33.352 33.377 33.352 33.242 33.629 34.072 34.294 34.397 34.657 34.872 35.139 35.459 35.772 36.139 36.484 36.879 37.177 37.422 37.507 37.494 37.589 37.759 38.094 38.419 38.659 38.869 39.049 39.259 39.449 39.629 39.782 39.929 40.024 40.082 40.094 40.107 40.119 40.252 40.362 40.444 40.547 40.722 40.709 40.022 38.949 38.479 38.459 38.582 39.467 40.647 41.237 41.457 41.634 41.719 41.694 41.687 41.704 41.739 41.799 41.914 41.927 41.912 41.917 41.939 41.957 42.014 42.104 42.197 42.287 42.387 42.419 42.449 42.559 42.677 42.732 42.799 42.847 42.942 42.997 43.064 43.142 43.224 43.324 43.394 43.402 43.414 43.437 43.664 44.062 44.3 44.432 44.695 44.872 44.987 45.14 45.28 45.43 45.572 45.712 45.787 45.882 45.96 46.082 46.137 46.232 46.292 46.335 46.422 46.497 46.59 46.68 46.712 46.752 46.805 46.845 46.945 47.092 47.187 47.277 47.42 47.562 47.655 47.805 47.915 48.047 48.132 48.237 48.287 48.422 48.5 48.587 48.607 48.65 48.692 48.75 48.75 48.765 48.822 48.85 48.927 48.947 49.002 49.067 49.162 49.185 49.21 49.33 49.482 49.682 49.845 50.095 50.365 50.657
43.265 43.292 43.272 43.235 43.282 43.35 43.307 43.282 43.287 43.32 43.3 43.237 43.18 43.162 43.115 43.032 43.012 42.97 42.89 42.767 42.712 42.68 42.635 42.572 42.477 42.375 42.327 42.287 42.212 42.167 42.242 42.33 42.367 42.267 41.762 40.695 40.472 41.442 41.882 41.882 41.775 41.777 41.787 41.845 41.925 41.97 41.957 41.957 41.965 41.972 41.952 41.925 41.902 41.952 42.015 42.065 42.092 42.127 42.11 42.145 42.262 42.32 42.335 42.377 42.39 42.4 42.522 42.632 42.695 42.645 42.555 42.542 42.657 42.66 42.692 42.74 42.87 43.155 43.382 43.55 43.61 43.61 43.652 43.68 43.717 43.71 43.665 43.685 43.722 43.747 43.757 43.847 43.885 43.925 44.025 44.087 44.127 44.152 44.142 44.21 44.207 44.235 44.232 44.197 44.177 44.165 44.142 44.105 44.062 44 43.94 43.875 43.787 43.695 43.6 43.51 43.415 43.345 43.24 43.15 43.085 43.01 42.932 42.8 42.725 42.652 42.602 42.532 42.475 42.417 42.337 42.287 42.205 42.132 42.105 42.06 41.972 41.93 41.867 41.83 41.832 41.757 41.707 41.677 41.615 41.555 41.515 41.47 41.42 41.375 41.32 41.332 41.3 41.272 41.252 41.262 41.225 41.24 41.197 41.192 41.177 41.142 41.11 41.125 41.1 41.082 41.087 41.065 41.087 41.055 41.04 41.012 40.952 40.892 40.852 40.815 40.727 40.677 40.575 40.507 40.432 40.377 40.3 40.252 40.185 40.082 40.04 39.935 39.88 39.852 39.767 39.702 39.61 39.565 39.467 39.437 39.395 39.345 39.29 39.212 39.16 39.115 39.035 39 38.93 38.852 38.812 38.81 38.715 38.612 38.497 38.375 38.252 38.097 37.927 37.767 37.572 37.422 37.227 37.065 36.87 36.71 36.575 36.43 36.36 36.282 36.177 36.094 36.024 35.904 35.852 35.622 35.367 35.189 35.159 35.042 34.892 34.777 34.724 34.657 34.647 34.602 34.592 34.577 34.584 34.522 34.522 34.474 34.459 34.449 34.489 34.572 34.539 34.494 34.502 34.367 34.109 33.919 33.764 33.647 33.449 33.332 33.274 32.994 33.242 33.322 33.329 33.294 33.274 33.287 33.352 33.389 33.399 33.467 33.524 33.569 33.579 33.409 33.102 32.909 32.782 32.899 33.302 33.529 33.602 33.459 33.382 33.459 33.382 33.267 33.654 33.992 34.277 34.539 34.864 35.169 35.442 35.729 36.039 36.294 36.604 36.952 37.277 37.472 37.562 37.597 37.669 37.829 38.157 38.492 38.674 38.904 39.217 39.514 39.709 39.837 39.919 40.039 40.112 40.119 40.164 40.154 40.229 40.359 40.487 40.482 40.562 40.727 40.797 40.449 39.449 38.554 38.439 38.499 39.124 40.374 41.194 41.494 41.637 41.739 41.714 41.679 41.702 41.739 41.872 41.962 41.959 41.972 42.024 42.029 42.019 42.032 42.104 42.187 42.347 42.427 42.422 42.474 42.599 42.689 42.787 42.842 42.884 43.014 43.042 43.117 43.187 43.257 43.327 43.397 43.377 43.374 43.367 43.432 43.797 44.21 44.457 44.562 44.73 44.94 45.16 45.272 45.41 45.512 45.68 45.775 45.862 45.925 45.985 46.04 46.145 46.212 46.28 46.342 46.417 46.542 46.585 46.64 46.7 46.75 46.822 46.877 46.995 47.127 47.25 47.377 47.46 47.595 47.737 47.81 47.927 48.082 48.17 48.25 48.335 48.415 48.475 48.505 48.547 48.62 48.667 48.655 48.72 48.765 48.797 48.83 48.902 48.932 48.95 49.05 49.125 49.222 49.31 49.475 49.712 49.93 50.14 50.427 50.735
43.307 43.332 43.292 43.275 43.307 43.342 43.355 43.345 43.355 43.367 43.322 43.265 43.235 43.225 43.142 43.102 43.045 42.965 42.91 42.8 42.735 42.702 42.64 42.57 42.467 42.387 42.322 42.277 42.202 42.207 42.297 42.375 42.37 42.062 41.437 40.535 40.94 41.692 41.842 41.87 41.807 41.83 41.935 41.987 41.992 42.022 41.995 41.977 41.937 41.952 41.912 41.865 41.832 41.892 41.982 42.025 42.03 42.095 42.152 42.212 42.312 42.307 42.307 42.357 42.377 42.407 42.47 42.52 42.63 42.732 42.845 42.71 42.63 42.637 42.717 42.752 42.79 42.872 43.1 43.427 43.51 43.617 43.665 43.657 43.705 43.687 43.702 43.757 43.767 43.77 43.79 43.845 43.9 43.942 44.042 44.095 44.125 44.17 44.212 44.237 44.235 44.25 44.262 44.27 44.245 44.19 44.2 44.15 44.097 44.027 43.972 43.912 43.807 43.752 43.647 43.57 43.44 43.357 43.285 43.185 43.127 43.06 42.942 42.865 42.775 42.685 42.647 42.58 42.507 42.427 42.38 42.32 42.26 42.235 42.18 42.117 42.06 41.99 41.935 41.927 41.892 41.82 41.757 41.732 41.665 41.622 41.585 41.547 41.52 41.46 41.422 41.385 41.405 41.407 41.36 41.342 41.34 41.317 41.317 41.292 41.272 41.232 41.215 41.207 41.175 41.177 41.155 41.16 41.167 41.165 41.14 41.097 41.047 40.995 40.955 40.912 40.837 40.77 40.705 40.64 40.522 40.497 40.397 40.362 40.265 40.177 40.127 40.05 39.96 39.915 39.865 39.787 39.692 39.66 39.582 39.51 39.485 39.42 39.34 39.302 39.252 39.177 39.11 39.12 39.022 38.987 38.882 38.872 38.825 38.715 38.587 38.505 38.385 38.225 38.07 37.917 37.725 37.555 37.38 37.192 37.025 36.837 36.707 36.56 36.482 36.397 36.277 36.204 36.092 36.019 35.862 35.602 35.384 35.284 35.244 35.124 34.957 34.882 34.812 34.764 34.724 34.679 34.674 34.667 34.647 34.614 34.637 34.602 34.554 34.522 34.582 34.609 34.624 34.572 34.527 34.374 34.099 33.894 33.752 33.634 33.477 33.364 33.312 33.037 33.164 33.332 33.314 33.272 33.262 33.292 33.332 33.337 33.427 33.462 33.499 33.544 33.567 33.439 33.032 32.702 32.602 32.814 33.092 33.379 33.557 33.449 33.409 33.327 33.224 33.237 33.564 33.927 34.469 34.739 35.112 35.494 35.742 35.999 36.219 36.449 36.699 37.007 37.304 37.509 37.602 37.669 37.757 37.874 38.137 38.474 38.719 38.967 39.287 39.609 39.839 40.057 40.124 40.172 40.237 40.229 40.264 40.249 40.324 40.477 40.594 40.579 40.609 40.707 40.839 40.744 39.974 38.809 38.442 38.487 38.819 39.867 40.997 41.449 41.619 41.749 41.744 41.697 41.679 41.727 41.967 42.042 42.042 42.079 42.144 42.122 42.082 42.062 42.149 42.219 42.279 42.314 42.374 42.472 42.609 42.717 42.804 42.862 42.924 42.969 42.999 43.082 43.157 43.224 43.309 43.377 43.402 43.389 43.357 43.364 43.474 43.892 44.52 44.532 44.667 44.85 45.032 45.22 45.35 45.457 45.587 45.7 45.815 45.872 45.932 45.952 46.045 46.12 46.187 46.255 46.315 46.462 46.495 46.572 46.63 46.687 46.747 46.815 46.925 47.045 47.187 47.297 47.432 47.532 47.647 47.76 47.865 47.995 48.117 48.212 48.292 48.345 48.402 48.425 48.46 48.502 48.595 48.577 48.585 48.62 48.677 48.732 48.815 48.857 48.912 49.025 49.125 49.225 49.365 49.5 49.75 50.04 50.267 50.492 50.782
43.377 43.367 43.33 43.332 43.352 43.405 43.387 43.387 43.397 43.41 43.362 43.325 43.27 43.252 43.197 43.15 43.02 42.982 42.917 42.82 42.745 42.717 42.637 42.55 42.472 42.407 42.33 42.252 42.217 42.257 42.322 42.367 42.262 41.742 40.982 40.735 41.382 41.8 41.8 41.74 41.822 41.925 42.007 42.077 42.102 42.047 41.997 41.962 41.98 41.972 41.897 41.887 41.857 41.872 41.937 42.035 42.04 42.027 42.1 42.18 42.327 42.335 42.3 42.337 42.402 42.382 42.46 42.53 42.555 42.65 42.817 42.815 42.782 42.692 42.745 42.762 42.827 42.815 42.9 43.11 43.252 43.47 43.605 43.697 43.707 43.682 43.742 43.815 43.775 43.762 43.8 43.85 43.917 43.957 44.037 44.1 44.14 44.19 44.192 44.245 44.285 44.285 44.255 44.337 44.3 44.277 44.257 44.197 44.142 44.057 43.99 43.95 43.827 43.76 43.665 43.575 43.497 43.43 43.32 43.247 43.11 43.075 43.017 42.91 42.852 42.767 42.717 42.662 42.585 42.53 42.435 42.355 42.322 42.292 42.222 42.17 42.112 42.077 42.015 41.992 41.94 41.9 41.837 41.827 41.782 41.697 41.665 41.59 41.602 41.597 41.5 41.512 41.51 41.502 41.475 41.447 41.41 41.407 41.377 41.367 41.342 41.342 41.292 41.272 41.262 41.262 41.232 41.26 41.252 41.232 41.207 41.177 41.155 41.112 41.02 40.96 40.947 40.862 40.795 40.725 40.64 40.595 40.535 40.432 40.365 40.305 40.2 40.142 40.072 39.99 39.955 39.905 39.787 39.722 39.685 39.615 39.56 39.49 39.437 39.38 39.302 39.255 39.212 39.157 39.1 39.04 39.022 38.98 38.922 38.865 38.75 38.64 38.545 38.355 38.232 38.072 37.885 37.67 37.505 37.342 37.145 37.007 36.852 36.695 36.63 36.547 36.404 36.297 36.282 36.122 35.872 35.612 35.447 35.357 35.297 35.162 35.014 34.949 34.902 34.862 34.819 34.789 34.799 34.769 34.774 34.744 34.712 34.659 34.629 34.654 34.674 34.669 34.689 34.644 34.582 34.434 34.154 33.944 33.742 33.637 33.507 33.362 33.332 33.174 33.104 33.312 33.322 33.267 33.259 33.307 33.322 33.369 33.404 33.487 33.519 33.529 33.552 33.452 32.877 32.604 32.544 32.527 32.842 33.344 33.477 33.412 33.377 33.277 33.209 33.174 33.509 33.967 34.644 35.009 35.424 35.784 36.009 36.207 36.377 36.557 36.752 37.017 37.302 37.534 37.632 37.674 37.779 37.957 38.237 38.472 38.717 38.984 39.277 39.604 39.894 40.167 40.307 40.384 40.377 40.337 40.367 40.427 40.514 40.577 40.729 40.759 40.699 40.677 40.817 40.789 40.389 39.182 38.509 38.459 38.572 39.367 40.542 41.354 41.587 41.724 41.777 41.702 41.704 41.829 41.997 42.134 42.129 42.122 42.142 42.129 42.122 42.134 42.182 42.274 42.302 42.294 42.392 42.439 42.604 42.739 42.842 42.977 42.974 42.917 42.962 43.052 43.119 43.202 43.314 43.354 43.402 43.402 43.379 43.387 43.482 44.065 44.522 44.617 44.662 44.765 44.89 45.092 45.32 45.435 45.56 45.612 45.745 45.82 45.857 45.897 45.97 46.04 46.122 46.137 46.247 46.342 46.43 46.497 46.545 46.555 46.665 46.77 46.855 46.955 47.122 47.26 47.357 47.445 47.565 47.682 47.802 47.9 48.017 48.137 48.19 48.272 48.29 48.32 48.395 48.417 48.472 48.507 48.532 48.575 48.585 48.612 48.66 48.785 48.797 48.922 49.077 49.252 49.41 49.592 49.857 50.092 50.38 50.585 50.825
43.415 43.385 43.387 43.377 43.425 43.472 43.447 43.447 43.462 43.43 43.402 43.342 43.292 43.265 43.242 43.147 43.097 43.007 42.932 42.867 42.76 42.725 42.662 42.57 42.48 42.41 42.325 42.255 42.267 42.3 42.347 42.32 42.082 41.425 40.68 40.875 41.565 41.855 41.8 41.805 41.907 41.992 42.08 42.112 42.117 42.04 41.99 42.002 42.037 42.025 41.972 41.97 42.017 42.037 42.04 42.045 42.075 42.057 42.077 42.112 42.217 42.312 42.4 42.437 42.45 42.41 42.442 42.542 42.622 42.725 42.8 42.877 42.907 42.815 42.782 42.775 42.837 42.91 42.907 42.942 43.057 43.31 43.505 43.657 43.705 43.715 43.755 43.795 43.795 43.837 43.865 43.892 43.955 43.985 44.055 44.107 44.165 44.212 44.262 44.29 44.297 44.31 44.317 44.355 44.332 44.287 44.285 44.245 44.162 44.127 44.057 43.977 43.862 43.805 43.697 43.617 43.572 43.497 43.362 43.267 43.18 43.107 43.03 42.957 42.89 42.805 42.742 42.687 42.64 42.575 42.48 42.412 42.39 42.307 42.267 42.215 42.167 42.132 42.097 42.037 42.002 41.985 41.912 41.865 41.837 41.757 41.742 41.712 41.662 41.66 41.612 41.602 41.562 41.537 41.507 41.507 41.485 41.475 41.46 41.447 41.407 41.395 41.357 41.332 41.355 41.325 41.347 41.352 41.347 41.317 41.272 41.3 41.27 41.22 41.175 41.09 41.052 40.977 40.89 40.812 40.74 40.675 40.607 40.507 40.452 40.36 40.325 40.26 40.142 40.092 40.025 39.98 39.885 39.812 39.777 39.722 39.615 39.587 39.512 39.467 39.417 39.352 39.28 39.245 39.207 39.182 39.122 39.08 39.01 38.95 38.892 38.76 38.657 38.512 38.37 38.157 38.057 37.825 37.655 37.497 37.312 37.147 36.985 36.88 36.792 36.664 36.572 36.492 36.359 36.169 35.904 35.697 35.552 35.407 35.299 35.157 35.089 35.029 34.982 34.934 34.912 34.912 34.897 34.854 34.874 34.832 34.792 34.747 34.719 34.739 34.817 34.827 34.779 34.724 34.609 34.454 34.217 34.004 33.807 33.659 33.504 33.389 33.327 33.204 32.994 33.324 33.339 33.242 33.259 33.302 33.342 33.364 33.387 33.457 33.499 33.532 33.559 33.532 32.912 32.512 32.424 32.437 32.774 33.277 33.489 33.429 33.359 33.274 33.199 33.139 33.407 34.024 34.784 35.264 35.677 35.979 36.142 36.319 36.492 36.624 36.812 37.022 37.312 37.464 37.617 37.702 37.819 38.009 38.327 38.584 38.749 38.939 39.279 39.622 39.907 40.152 40.332 40.409 40.407 40.362 40.442 40.542 40.634 40.667 40.787 40.847 40.814 40.762 40.804 40.819 40.584 39.669 38.649 38.482 38.459 38.989 40.039 41.062 41.532 41.682 41.789 41.767 41.722 41.799 41.972 42.124 42.144 42.129 42.114 42.122 42.164 42.192 42.172 42.204 42.272 42.407 42.489 42.559 42.707 42.764 42.867 43.014 43.007 42.949 42.919 43.019 43.087 43.232 43.292 43.334 43.379 43.407 43.382 43.404 43.857 44.367 44.49 44.615 44.677 44.707 44.807 44.94 45.185 45.357 45.432 45.532 45.632 45.7 45.777 45.84 45.865 45.967 46.06 46.082 46.18 46.237 46.3 46.372 46.435 46.51 46.602 46.707 46.822 46.915 47.035 47.17 47.26 47.387 47.482 47.592 47.682 47.782 47.9 48.027 48.087 48.16 48.192 48.26 48.3 48.355 48.357 48.427 48.412 48.48 48.515 48.545 48.557 48.7 48.767 48.902 49.067 49.297 49.51 49.662 49.865 50.13 50.422 50.632 50.885
43.457 43.437 43.42 43.472 43.51 43.525 43.492 43.47 43.495 43.462 43.435 43.377 43.342 43.315 43.225 43.177 43.13 43.072 42.977 42.885 42.807 42.752 42.695 42.6 42.517 42.432 42.372 42.285 42.262 42.282 42.297 42.202 41.877 41.032 40.552 41.297 41.812 41.822 41.837 41.927 42.06 42.07 42.162 42.155 42.095 42.03 42.01 42.057 42.202 42.2 42.08 42.08 42.21 42.37 42.385 42.312 42.17 42.08 42.102 42.16 42.172 42.255 42.362 42.462 42.442 42.397 42.43 42.555 42.715 42.8 42.862 42.917 42.99 42.962 42.95 42.907 42.872 42.915 42.965 42.957 43.022 43.095 43.29 43.502 43.7 43.75 43.805 43.785 43.85 43.905 43.907 43.957 43.965 44.03 44.052 44.082 44.167 44.217 44.305 44.327 44.377 44.387 44.41 44.392 44.37 44.337 44.307 44.215 44.202 44.125 44.065 43.97 43.93 43.845 43.707 43.647 43.575 43.492 43.365 43.315 43.235 43.15 43.065 43.007 42.902 42.855 42.755 42.722 42.655 42.592 42.542 42.487 42.45 42.365 42.292 42.275 42.245 42.2 42.142 42.102 42.055 42.045 42.015 41.95 41.885 41.835 41.827 41.81 41.752 41.727 41.707 41.672 41.647 41.617 41.602 41.645 41.562 41.537 41.52 41.487 41.455 41.44 41.44 41.43 41.435 41.397 41.42 41.407 41.435 41.425 41.412 41.412 41.365 41.31 41.275 41.197 41.125 41.045 40.982 40.902 40.852 40.782 40.71 40.617 40.56 40.452 40.387 40.36 40.255 40.182 40.13 40.047 40.015 39.93 39.872 39.792 39.705 39.682 39.615 39.55 39.512 39.45 39.382 39.317 39.272 39.25 39.217 39.172 39.09 39.05 38.985 38.88 38.765 38.597 38.47 38.317 38.18 37.975 37.812 37.64 37.46 37.285 37.145 37.055 36.937 36.804 36.764 36.649 36.404 36.164 35.984 35.852 35.682 35.504 35.332 35.232 35.132 35.067 35.009 34.989 34.987 34.994 34.969 34.924 34.922 34.882 34.812 34.799 34.827 34.882 34.947 34.929 34.869 34.762 34.617 34.484 34.244 33.997 33.859 33.679 33.572 33.412 33.342 33.277 32.959 33.117 33.297 33.292 33.239 33.289 33.322 33.339 33.394 33.429 33.439 33.507 33.547 33.544 33.254 32.547 32.402 32.439 32.699 33.082 33.359 33.477 33.459 33.349 33.247 33.152 33.267 33.894 34.667 35.357 35.804 36.139 36.242 36.347 36.477 36.612 36.827 37.047 37.309 37.442 37.562 37.639 37.782 38.047 38.379 38.627 38.814 38.999 39.262 39.599 39.912 40.109 40.284 40.304 40.362 40.382 40.464 40.594 40.709 40.764 40.812 40.897 40.914 40.827 40.754 40.779 40.809 40.239 39.054 38.532 38.389 38.624 39.757 40.737 41.407 41.582 41.747 41.802 41.804 41.839 41.939 42.024 42.062 42.129 42.134 42.152 42.197 42.204 42.172 42.222 42.339 42.477 42.567 42.672 42.734 42.777 42.882 42.987 42.984 42.957 42.979 42.979 43.139 43.224 43.264 43.309 43.354 43.359 43.382 43.604 44.154 44.287 44.437 44.522 44.647 44.715 44.802 44.867 44.99 45.217 45.322 45.457 45.542 45.602 45.635 45.732 45.785 45.89 45.94 46.025 46.08 46.14 46.21 46.242 46.325 46.427 46.522 46.63 46.75 46.85 46.957 47.087 47.19 47.345 47.422 47.537 47.63 47.715 47.825 47.922 47.985 48.062 48.075 48.145 48.217 48.182 48.217 48.275 48.33 48.387 48.452 48.49 48.527 48.617 48.75 48.82 49.02 49.31 49.527 49.78 49.962 50.21 50.462 50.717 50.902
43.457 43.457 43.45 43.49 43.522 43.512 43.492 43.497 43.52 43.512 43.442 43.395 43.38 43.345 43.267 43.172 43.15 43.082 43 42.895 42.837 42.76 42.697 42.627 42.542 42.41 42.362 42.3 42.272 42.205 42.165 41.977 41.525 40.68 40.697 41.68 41.86 41.865 41.94 42.032 42.087 42.2 42.22 42.182 42.147 42.115 42.16 42.307 42.347 42.127 42.002 41.995 42.022 42.13 42.267 42.4 42.45 42.327 42.217 42.2 42.205 42.255 42.305 42.35 42.43 42.447 42.442 42.51 42.67 42.845 42.892 42.885 42.98 42.99 42.99 43.007 43 42.93 42.947 43 43.065 43.115 43.135 43.315 43.645 43.737 43.78 43.867 43.89 43.927 43.927 44 44.037 44.082 44.1 44.122 44.187 44.252 44.295 44.332 44.405 44.415 44.397 44.41 44.43 44.387 44.315 44.25 44.222 44.145 44.095 43.987 43.925 43.85 43.747 43.652 43.61 43.5 43.377 43.31 43.25 43.155 43.107 43.037 42.95 42.9 42.827 42.785 42.69 42.66 42.58 42.562 42.507 42.422 42.37 42.34 42.3 42.262 42.212 42.182 42.125 42.077 42.035 42 41.945 41.92 41.905 41.87 41.855 41.842 41.802 41.777 41.742 41.71 41.682 41.662 41.615 41.6 41.58 41.537 41.552 41.505 41.495 41.495 41.487 41.48 41.487 41.497 41.517 41.49 41.507 41.5 41.447 41.437 41.38 41.32 41.245 41.157 41.112 41.025 40.922 40.862 40.792 40.71 40.665 40.575 40.492 40.432 40.407 40.317 40.25 40.21 40.132 40.062 39.947 39.867 39.802 39.77 39.737 39.622 39.59 39.535 39.475 39.42 39.385 39.33 39.297 39.245 39.205 39.147 39.08 39.007 38.895 38.76 38.622 38.465 38.342 38.17 37.965 37.797 37.64 37.445 37.342 37.222 37.065 36.967 36.942 36.719 36.529 36.294 36.122 36.024 35.829 35.607 35.414 35.292 35.189 35.132 35.092 35.057 35.087 35.062 35.044 34.987 34.982 34.909 34.894 34.892 34.967 35.064 35.054 35.017 34.932 34.837 34.722 34.522 34.274 33.969 33.782 33.669 33.577 33.444 33.414 33.347 33.124 32.992 33.269 33.307 33.252 33.279 33.317 33.304 33.347 33.407 33.437 33.479 33.507 33.557 33.452 32.772 32.452 32.457 32.482 32.837 33.169 33.467 33.564 33.497 33.389 33.284 33.194 33.649 34.534 35.449 36.079 36.334 36.364 36.342 36.412 36.557 36.769 37.019 37.267 37.452 37.554 37.577 37.764 38.094 38.382 38.659 38.917 39.132 39.339 39.617 39.847 40.039 40.129 40.192 40.257 40.302 40.434 40.597 40.762 40.852 40.877 40.909 40.964 40.967 40.834 40.769 40.789 40.509 39.442 38.552 38.399 38.412 39.379 40.462 41.194 41.474 41.682 41.822 41.859 41.849 41.909 41.999 42.102 42.139 42.172 42.234 42.257 42.207 42.204 42.287 42.469 42.592 42.599 42.652 42.742 42.847 42.904 42.942 42.974 42.999 42.969 42.992 43.087 43.137 43.247 43.317 43.314 43.344 43.467 43.889 44.097 44.192 44.317 44.455 44.54 44.667 44.797 44.885 44.932 44.995 45.12 45.335 45.39 45.46 45.55 45.59 45.67 45.75 45.837 45.937 45.985 46.087 46.137 46.215 46.267 46.36 46.41 46.552 46.635 46.762 46.852 46.987 47.125 47.245 47.292 47.472 47.512 47.605 47.707 47.8 47.89 47.937 47.995 48.022 48.095 48.1 48.135 48.177 48.222 48.282 48.357 48.375 48.452 48.577 48.73 48.865 49.097 49.36 49.587 49.842 50.092 50.3 50.525 50.75 50.945
43.465 43.465 43.472 43.537 43.56 43.532 43.492 43.5 43.53 43.505 43.445 43.415 43.415 43.395 43.275 43.215 43.165 43.082 43.002 42.892 42.822 42.76 42.677 42.595 42.527 42.407 42.352 42.305 42.187 42.087 41.98 41.735 41.157 40.54 41.187 41.95 41.952 41.947 41.982 41.98 42.127 42.31 42.305 42.297 42.287 42.297 42.36 42.332 42.09 41.957 41.92 41.917 41.93 41.927 41.99 42.122 42.342 42.485 42.492 42.385 42.282 42.305 42.347 42.417 42.462 42.462 42.43 42.465 42.582 42.757 42.785 42.82 42.91 42.935 42.977 43.047 43.11 43.06 43.025 43.005 43.057 43.127 43.142 43.117 43.292 43.5 43.68 43.792 43.902 43.937 43.965 44.012 44.1 44.132 44.155 44.19 44.23 44.252 44.305 44.375 44.412 44.432 44.462 44.46 44.48 44.42 44.342 44.297 44.232 44.145 44.067 44.042 43.937 43.875 43.787 43.707 43.625 43.51 43.445 43.375 43.27 43.212 43.152 43.09 43.04 42.92 42.842 42.83 42.755 42.725 42.665 42.6 42.56 42.475 42.457 42.412 42.375 42.31 42.272 42.22 42.2 42.165 42.11 42.07 42.06 42.017 41.975 41.952 41.932 41.94 41.882 41.862 41.802 41.805 41.767 41.677 41.685 41.652 41.615 41.597 41.57 41.582 41.56 41.53 41.532 41.54 41.572 41.587 41.6 41.577 41.6 41.58 41.557 41.537 41.49 41.4 41.325 41.257 41.207 41.115 41.067 41.005 40.92 40.845 40.797 40.68 40.602 40.555 40.495 40.43 40.375 40.315 40.217 40.182 40.08 40.01 39.967 39.875 39.845 39.73 39.69 39.63 39.575 39.502 39.497 39.427 39.347 39.332 39.325 39.217 39.15 39.085 38.99 38.885 38.737 38.605 38.482 38.3 38.112 37.932 37.822 37.655 37.485 37.337 37.26 37.242 37.029 36.757 36.599 36.422 36.279 36.169 35.924 35.682 35.509 35.389 35.274 35.224 35.197 35.142 35.167 35.134 35.104 35.067 35.057 35.029 35.007 35.042 35.157 35.262 35.169 35.067 34.949 34.887 34.782 34.572 34.294 33.947 33.752 33.572 33.507 33.432 33.379 33.354 33.164 32.879 33.194 33.297 33.297 33.244 33.272 33.284 33.312 33.397 33.437 33.422 33.442 33.522 33.502 33.052 32.559 32.474 32.459 32.729 33.159 33.452 33.557 33.499 33.467 33.297 33.152 33.459 34.572 35.584 36.034 36.389 36.502 36.422 36.402 36.494 36.664 36.929 37.204 37.404 37.512 37.589 37.787 38.117 38.424 38.692 38.944 39.194 39.454 39.684 39.797 39.929 40.012 40.077 40.077 40.177 40.344 40.527 40.689 40.824 40.887 40.917 40.992 41.009 40.874 40.754 40.677 40.662 39.837 38.682 38.402 38.372 38.819 40.079 40.969 41.327 41.597 41.777 41.862 41.867 41.934 42.009 42.022 42.052 42.164 42.259 42.259 42.177 42.227 42.369 42.524 42.582 42.642 42.739 42.799 42.844 42.884 42.914 42.947 42.977 43.007 43.032 43.099 43.164 43.239 43.299 43.284 43.349 43.582 43.934 44.027 44.112 44.282 44.39 44.475 44.58 44.697 44.825 44.927 44.942 44.955 45.045 45.18 45.39 45.44 45.49 45.605 45.655 45.772 45.812 45.872 46.005 46.075 46.19 46.23 46.24 46.347 46.482 46.56 46.692 46.805 46.887 47.02 47.137 47.23 47.315 47.41 47.477 47.612 47.67 47.742 47.815 47.842 47.932 47.97 47.995 48.055 48.082 48.137 48.175 48.27 48.347 48.43 48.542 48.702 48.872 49.132 49.397 49.665 49.945 50.182 50.372 50.505 50.71 50.922
43.46 43.467 43.487 43.567 43.577 43.552 43.507 43.537 43.54 43.502 43.462 43.445 43.42 43.377 43.282 43.217 43.177 43.12 42.992 42.885 42.847 42.765 42.715 42.605 42.48 42.395 42.325 42.267 42.122 42.04 41.855 41.482 40.697 40.795 41.63 41.965 41.957 41.91 42.05 42.265 42.345 42.387 42.345 42.355 42.345 42.372 42.35 42.067 41.912 41.887 41.91 41.91 41.925 41.987 42.027 42.072 42.13 42.285 42.492 42.442 42.345 42.352 42.355 42.432 42.462 42.457 42.445 42.447 42.505 42.587 42.642 42.71 42.797 42.887 42.932 43.015 43.147 43.175 43.197 43.12 43.095 43.075 43.155 43.182 43.225 43.26 43.402 43.712 43.875 43.965 44.032 44.05 44.13 44.195 44.212 44.252 44.27 44.307 44.317 44.352 44.41 44.465 44.495 44.465 44.46 44.412 44.35 44.357 44.275 44.187 44.062 44.05 43.99 43.907 43.825 43.735 43.652 43.557 43.482 43.362 43.28 43.235 43.185 43.135 43.08 42.99 42.897 42.857 42.797 42.722 42.712 42.657 42.57 42.53 42.502 42.43 42.407 42.382 42.332 42.295 42.245 42.22 42.187 42.147 42.145 42.132 42.065 42.022 41.992 41.987 41.932 41.927 41.882 41.877 41.837 41.765 41.725 41.71 41.67 41.67 41.61 41.62 41.605 41.56 41.572 41.607 41.612 41.625 41.595 41.637 41.652 41.652 41.635 41.645 41.585 41.52 41.427 41.382 41.302 41.225 41.152 41.1 41.04 40.97 40.907 40.815 40.74 40.652 40.617 40.522 40.492 40.455 40.335 40.27 40.227 40.177 40.11 40.032 39.935 39.867 39.792 39.742 39.712 39.667 39.605 39.53 39.455 39.44 39.397 39.332 39.24 39.15 39.08 38.95 38.855 38.752 38.605 38.422 38.255 38.072 37.925 37.795 37.67 37.567 37.472 37.272 37.024 36.817 36.729 36.554 36.409 36.217 35.954 35.757 35.604 35.487 35.369 35.327 35.309 35.274 35.239 35.202 35.162 35.097 35.132 35.114 35.139 35.212 35.264 35.269 35.179 35.034 34.947 34.837 34.744 34.554 34.269 33.972 33.729 33.569 33.452 33.369 33.389 33.367 33.167 32.892 33.069 33.267 33.334 33.287 33.247 33.282 33.319 33.377 33.419 33.407 33.427 33.502 33.517 32.994 32.604 32.489 32.489 32.652 33.054 33.394 33.447 33.509 33.472 33.189 33.167 33.442 34.674 35.669 35.872 36.204 36.594 36.507 36.434 36.447 36.569 36.752 37.017 37.234 37.419 37.564 37.769 38.139 38.419 38.704 38.964 39.259 39.497 39.649 39.767 39.897 39.949 39.969 39.979 40.099 40.287 40.482 40.622 40.729 40.859 40.864 40.862 40.814 40.709 40.662 40.674 40.624 40.159 39.019 38.437 38.417 38.519 39.569 40.727 41.182 41.464 41.719 41.844 41.939 41.969 41.974 41.954 41.904 42.029 42.167 42.159 42.109 42.309 42.479 42.599 42.634 42.684 42.734 42.779 42.824 42.857 42.889 42.922 42.949 42.954 43.049 43.112 43.177 43.222 43.252 43.304 43.379 43.547 43.799 43.959 44.072 44.197 44.295 44.41 44.502 44.58 44.675 44.81 44.892 44.892 44.91 44.917 45.12 45.297 45.412 45.497 45.567 45.662 45.752 45.852 45.895 45.952 46.1 46.14 46.185 46.265 46.382 46.5 46.575 46.7 46.8 46.922 47.027 47.152 47.222 47.315 47.375 47.46 47.565 47.61 47.705 47.74 47.82 47.89 47.885 47.9 47.995 48.05 48.112 48.165 48.207 48.392 48.527 48.69 48.922 49.2 49.455 49.7 49.962 50.18 50.395 50.522 50.697 50.902
43.46 43.475 43.525 43.572 43.597 43.59 43.535 43.565 43.56 43.522 43.452 43.442 43.417 43.362 43.282 43.22 43.167 43.095 42.982 42.915 42.835 42.79 42.687 42.565 42.49 42.43 42.402 42.26 42.085 41.96 41.662 41.217 40.46 41.127 41.93 41.955 41.93 42.055 42.39 42.575 42.47 42.425 42.375 42.375 42.367 42.372 42.19 41.955 41.915 41.92 41.967 41.987 41.987 42 42.052 42.132 42.15 42.182 42.277 42.322 42.27 42.362 42.39 42.395 42.437 42.452 42.437 42.415 42.447 42.5 42.545 42.6 42.697 42.78 42.887 42.987 43.08 43.217 43.347 43.347 43.23 43.132 43.165 43.237 43.257 43.27 43.277 43.427 43.71 43.977 44.037 44.137 44.182 44.2 44.262 44.317 44.295 44.327 44.337 44.407 44.39 44.44 44.472 44.497 44.467 44.43 44.432 44.392 44.312 44.235 44.175 44.067 43.982 43.94 43.832 43.715 43.655 43.612 43.537 43.43 43.347 43.255 43.212 43.16 43.08 43.015 42.952 42.857 42.852 42.787 42.747 42.687 42.637 42.617 42.565 42.497 42.502 42.427 42.39 42.37 42.31 42.287 42.275 42.215 42.185 42.165 42.125 42.067 42.06 42.025 41.99 41.982 41.942 41.92 41.872 41.792 41.762 41.75 41.767 41.732 41.652 41.672 41.68 41.647 41.62 41.64 41.677 41.67 41.642 41.722 41.732 41.735 41.732 41.7 41.655 41.632 41.53 41.507 41.407 41.347 41.27 41.217 41.145 41.077 40.99 40.925 40.862 40.79 40.737 40.615 40.587 40.527 40.465 40.392 40.3 40.28 40.197 40.147 40.065 39.987 39.92 39.84 39.807 39.75 39.682 39.61 39.53 39.522 39.45 39.39 39.32 39.215 39.165 39.075 38.972 38.862 38.725 38.57 38.402 38.255 38.15 37.987 37.847 37.752 37.675 37.479 37.084 36.967 36.829 36.669 36.499 36.267 35.977 35.829 35.679 35.552 35.477 35.437 35.369 35.332 35.267 35.202 35.159 35.147 35.194 35.244 35.247 35.247 35.279 35.197 35.134 35.014 34.872 34.784 34.679 34.539 34.252 34.022 33.752 33.562 33.432 33.359 33.314 33.277 33.227 33.107 32.879 33.167 33.294 33.284 33.242 33.259 33.294 33.332 33.372 33.372 33.407 33.482 33.534 33.384 32.929 32.549 32.472 32.582 32.924 33.254 33.409 33.479 33.512 33.342 33.157 33.502 34.469 35.402 35.824 36.177 36.637 36.584 36.477 36.444 36.502 36.609 36.787 37.054 37.302 37.502 37.789 38.162 38.427 38.714 39.014 39.252 39.469 39.647 39.809 39.907 39.917 39.944 39.964 40.079 40.294 40.432 40.514 40.662 40.749 40.734 40.687 40.619 40.542 40.507 40.507 40.529 40.339 39.374 38.492 38.454 38.309 39.057 40.382 41.024 41.344 41.657 41.834 41.867 41.912 41.907 41.889 41.892 41.899 41.929 42.004 42.177 42.442 42.589 42.632 42.624 42.664 42.714 42.759 42.802 42.832 42.864 42.892 42.894 42.897 43.012 43.067 43.179 43.154 43.267 43.317 43.369 43.527 43.724 43.909 44.027 44.132 44.237 44.322 44.417 44.45 44.522 44.657 44.79 44.847 44.872 44.825 44.88 45.022 45.257 45.4 45.47 45.53 45.617 45.725 45.835 45.882 45.955 46.027 46.097 46.172 46.292 46.435 46.535 46.6 46.692 46.827 46.95 47.012 47.132 47.242 47.3 47.362 47.442 47.53 47.59 47.677 47.687 47.735 47.785 47.825 47.922 47.952 48.052 48.1 48.185 48.37 48.507 48.715 48.967 49.21 49.492 49.76 49.99 50.202 50.427 50.582 50.687 50.885
43.46 43.495 43.542 43.585 43.587 43.575 43.565 43.587 43.572 43.535 43.497 43.462 43.425 43.34 43.27 43.255 43.177 43.065 42.997 42.912 42.827 42.765 42.652 42.545 42.477 42.43 42.432 42.27 42.07 41.895 41.525 40.787 40.39 41.235 41.822 41.895 41.985 42.3 42.502 42.447 42.45 42.425 42.39 42.385 42.372 42.3 42.1 42.015 42.002 41.982 42.027 42.017 42.01 42.03 42.067 42.145 42.207 42.215 42.135 42.207 42.252 42.35 42.402 42.425 42.42 42.442 42.45 42.442 42.48 42.475 42.505 42.562 42.61 42.697 42.84 42.977 43.065 43.202 43.29 43.337 43.385 43.327 43.24 43.22 43.265 43.295 43.297 43.317 43.46 43.75 43.997 44.12 44.195 44.26 44.28 44.347 44.357 44.4 44.387 44.415 44.432 44.435 44.46 44.467 44.482 44.452 44.467 44.385 44.29 44.25 44.172 44.115 44.022 43.937 43.835 43.742 43.702 43.615 43.497 43.44 43.362 43.3 43.242 43.175 43.122 43.037 42.992 42.897 42.887 42.845 42.8 42.75 42.705 42.645 42.6 42.567 42.535 42.47 42.457 42.407 42.36 42.367 42.307 42.282 42.272 42.2 42.177 42.165 42.115 42.092 42.05 42.032 41.962 41.955 41.92 41.86 41.84 41.807 41.765 41.817 41.747 41.727 41.69 41.705 41.665 41.687 41.727 41.76 41.737 41.727 41.805 41.79 41.775 41.757 41.745 41.74 41.635 41.577 41.522 41.452 41.38 41.295 41.267 41.2 41.095 41.07 40.97 40.912 40.855 40.79 40.75 40.675 40.597 40.527 40.45 40.412 40.342 40.26 40.162 40.117 40.035 39.97 39.937 39.87 39.76 39.687 39.632 39.617 39.505 39.45 39.4 39.345 39.277 39.165 39.06 38.962 38.86 38.722 38.567 38.455 38.32 38.165 38.115 38.012 37.777 37.419 37.249 37.142 36.944 36.782 36.562 36.329 36.087 35.922 35.749 35.644 35.594 35.549 35.479 35.434 35.339 35.264 35.212 35.224 35.267 35.297 35.234 35.222 35.234 35.174 35.087 34.952 34.807 34.689 34.627 34.472 34.242 34.034 33.784 33.549 33.399 33.347 33.267 33.239 33.222 33.174 32.912 32.942 33.202 33.279 33.242 33.252 33.264 33.332 33.339 33.362 33.387 33.444 33.519 33.457 33.022 32.434 32.427 32.479 32.727 33.219 33.424 33.484 33.484 33.369 33.117 33.487 34.302 35.222 35.894 36.214 36.619 36.664 36.554 36.499 36.527 36.584 36.689 36.862 37.109 37.402 37.757 38.134 38.462 38.737 38.999 39.247 39.457 39.694 39.849 39.942 39.947 39.977 40.009 40.129 40.254 40.324 40.384 40.449 40.482 40.462 40.422 40.342 40.312 40.329 40.304 40.364 40.367 39.904 38.724 38.349 38.244 38.647 40.052 40.742 41.097 41.522 41.729 41.802 41.844 41.877 41.884 41.872 41.869 41.869 42.059 42.344 42.592 42.554 42.622 42.607 42.649 42.694 42.739 42.774 42.807 42.834 42.839 42.829 42.847 42.957 43.002 43.144 43.209 43.282 43.302 43.389 43.452 43.674 43.882 44.015 44.102 44.185 44.265 44.317 44.36 44.417 44.525 44.602 44.707 44.785 44.762 44.825 44.857 45.007 45.245 45.34 45.387 45.495 45.567 45.682 45.825 45.847 45.877 45.98 46.07 46.19 46.295 46.402 46.537 46.607 46.725 46.85 46.92 47.027 47.137 47.187 47.267 47.312 47.35 47.417 47.522 47.572 47.62 47.68 47.735 47.772 47.852 47.967 48.047 48.202 48.362 48.55 48.747 49.02 49.27 49.515 49.76 49.977 50.2 50.387 50.567 50.765 50.865
43.502 43.505 43.542 43.612 43.615 43.582 43.57 43.59 43.605 43.577 43.505 43.487 43.47 43.387 43.287 43.255 43.187 43.09 42.98 42.9 42.845 42.755 42.685 42.552 42.47 42.46 42.432 42.272 42.135 41.897 41.33 40.42 40.505 41.1 41.705 41.832 42.067 42.435 42.485 42.457 42.477 42.445 42.387 42.4 42.38 42.23 42.025 42.075 42.085 42.05 42.045 42.057 42.067 42.072 42.085 42.15 42.235 42.265 42.205 42.222 42.315 42.36 42.35 42.457 42.437 42.437 42.482 42.467 42.447 42.502 42.51 42.555 42.627 42.707 42.775 42.88 43.045 43.182 43.265 43.295 43.417 43.437 43.417 43.34 43.222 43.272 43.35 43.432 43.42 43.46 43.66 43.932 44.21 44.267 44.322 44.392 44.417 44.447 44.447 44.457 44.482 44.482 44.432 44.43 44.472 44.442 44.435 44.395 44.322 44.255 44.17 44.095 44.002 43.915 43.792 43.755 43.68 43.625 43.567 43.465 43.417 43.365 43.265 43.202 43.122 43.065 43.005 42.937 42.917 42.885 42.842 42.767 42.752 42.702 42.7 42.63 42.57 42.532 42.507 42.49 42.472 42.432 42.382 42.35 42.337 42.287 42.225 42.225 42.182 42.135 42.1 42.032 42 41.98 41.96 41.91 41.897 41.867 41.815 41.825 41.82 41.76 41.775 41.73 41.722 41.772 41.78 41.805 41.795 41.832 41.902 41.877 41.877 41.852 41.85 41.822 41.762 41.685 41.627 41.55 41.495 41.425 41.362 41.28 41.225 41.17 41.06 41.02 40.955 40.875 40.827 40.747 40.687 40.645 40.597 40.527 40.462 40.377 40.327 40.245 40.145 40.067 40.02 39.957 39.9 39.805 39.742 39.672 39.625 39.535 39.467 39.392 39.355 39.252 39.132 39.057 38.967 38.842 38.727 38.602 38.475 38.355 38.325 38.162 37.825 37.502 37.407 37.307 37.114 36.882 36.654 36.424 36.197 36.034 35.862 35.777 35.734 35.694 35.622 35.537 35.457 35.407 35.297 35.299 35.289 35.269 35.219 35.192 35.182 35.134 35.029 34.934 34.787 34.632 34.532 34.404 34.227 34.069 33.832 33.644 33.469 33.367 33.322 33.254 33.219 33.199 33.079 32.839 33.122 33.219 33.214 33.209 33.264 33.294 33.322 33.354 33.402 33.452 33.479 33.424 33.069 32.442 32.407 32.467 32.547 33.002 33.312 33.427 33.434 33.392 33.299 33.287 34.019 34.962 35.827 36.122 36.487 36.654 36.637 36.534 36.537 36.594 36.647 36.752 36.932 37.274 37.717 38.114 38.427 38.717 38.959 39.257 39.487 39.694 39.832 39.952 39.954 39.997 40.069 40.177 40.252 40.287 40.249 40.174 40.154 40.094 40.072 40.037 40.094 40.094 40.087 40.137 40.209 40.027 39.039 38.379 38.277 38.372 39.639 40.614 40.979 41.302 41.559 41.707 41.767 41.809 41.842 41.854 41.817 41.932 42.322 42.454 42.577 42.517 42.587 42.597 42.629 42.674 42.714 42.749 42.782 42.787 42.777 42.769 42.799 42.892 42.947 43.032 43.207 43.294 43.364 43.407 43.444 43.624 43.844 43.97 44.035 44.105 44.14 44.19 44.245 44.3 44.392 44.445 44.562 44.645 44.73 44.77 44.812 44.852 44.94 45.085 45.205 45.345 45.43 45.535 45.665 45.75 45.797 45.905 46.03 46.127 46.227 46.32 46.45 46.545 46.645 46.735 46.83 46.902 46.977 47.082 47.165 47.175 47.255 47.342 47.385 47.452 47.517 47.562 47.622 47.7 47.777 47.885 47.997 48.18 48.355 48.53 48.787 49.057 49.275 49.53 49.765 49.97 50.17 50.355 50.535 50.737 50.832
43.542 43.52 43.585 43.622 43.637 43.592 43.592 43.632 43.637 43.582 43.522 43.497 43.487 43.41 43.312 43.252 43.185 43.075 42.965 42.905 42.837 42.752 42.637 42.542 42.462 42.482 42.432 42.32 42.175 41.797 40.897 40.355 40.785 41.362 41.8 41.842 42.025 42.282 42.422 42.43 42.362 42.415 42.44 42.39 42.39 42.21 42.015 42.07 42.145 42.14 42.115 42.112 42.115 42.107 42.105 42.165 42.24 42.262 42.252 42.292 42.38 42.19 42.155 42.395 42.515 42.455 42.475 42.497 42.507 42.492 42.505 42.53 42.612 42.65 42.732 42.825 42.925 43.112 43.272 43.35 43.435 43.47 43.48 43.517 43.415 43.365 43.352 43.38 43.397 43.42 43.47 43.71 44.047 44.207 44.322 44.412 44.465 44.512 44.535 44.55 44.497 44.502 44.495 44.457 44.422 44.46 44.447 44.385 44.342 44.245 44.185 44.097 43.997 43.942 43.85 43.767 43.725 43.622 43.57 43.535 43.45 43.347 43.305 43.272 43.2 43.167 43.085 43.005 42.98 42.925 42.915 42.86 42.817 42.747 42.715 42.667 42.612 42.605 42.552 42.53 42.507 42.447 42.442 42.39 42.34 42.297 42.262 42.245 42.2 42.187 42.135 42.067 42.035 42.035 42 41.945 41.932 41.89 41.837 41.847 41.857 41.85 41.827 41.802 41.772 41.792 41.825 41.83 41.87 41.942 41.955 41.942 41.947 41.942 41.94 41.897 41.845 41.782 41.722 41.647 41.61 41.525 41.482 41.377 41.305 41.25 41.185 41.147 41.065 41.027 40.962 40.877 40.845 40.74 40.707 40.692 40.615 40.54 40.45 40.367 40.292 40.167 40.097 40.052 40.002 39.922 39.817 39.77 39.7 39.627 39.557 39.49 39.455 39.355 39.227 39.147 39.065 38.94 38.875 38.757 38.657 38.56 38.38 38.012 37.707 37.554 37.522 37.434 37.204 37.007 36.802 36.569 36.369 36.202 36.064 35.959 35.919 35.879 35.814 35.672 35.604 35.529 35.444 35.317 35.269 35.217 35.207 35.197 35.154 35.122 35.039 34.934 34.797 34.642 34.489 34.382 34.222 34.064 33.949 33.752 33.549 33.404 33.319 33.292 33.239 33.189 33.137 32.964 32.822 33.154 33.197 33.204 33.239 33.254 33.299 33.327 33.397 33.422 33.459 33.379 33.079 32.459 32.442 32.449 32.454 32.607 32.954 33.357 33.402 33.359 33.247 33.182 33.682 34.489 35.449 35.937 36.264 36.589 36.652 36.614 36.584 36.599 36.629 36.674 36.862 37.182 37.627 38.042 38.419 38.682 38.909 39.207 39.439 39.652 39.827 39.959 39.997 40.054 40.139 40.192 40.204 40.164 40.092 39.957 39.897 39.884 39.844 39.839 39.869 39.909 39.899 39.977 40.104 40.067 39.397 38.509 38.329 38.289 39.172 40.324 40.897 41.142 41.419 41.552 41.682 41.757 41.807 41.762 41.714 41.819 42.414 42.537 42.569 42.484 42.534 42.587 42.609 42.654 42.694 42.722 42.734 42.724 42.714 42.704 42.754 42.824 42.889 42.954 43.132 43.267 43.382 43.379 43.427 43.504 43.729 43.87 43.962 44.017 44.045 44.102 44.145 44.165 44.267 44.347 44.435 44.522 44.617 44.702 44.787 44.812 44.807 44.845 44.957 45.2 45.345 45.397 45.502 45.61 45.747 45.8 45.92 46.03 46.132 46.22 46.37 46.455 46.527 46.63 46.725 46.762 46.852 46.985 47.007 47.07 47.157 47.25 47.29 47.335 47.402 47.485 47.532 47.585 47.702 47.797 47.947 48.13 48.382 48.585 48.827 49.087 49.327 49.545 49.735 49.985 50.172 50.35 50.485 50.67 50.795
43.542 43.547 43.607 43.645 43.645 43.58 43.625 43.64 43.642 43.587 43.555 43.555 43.507 43.425 43.33 43.257 43.182 43.072 42.975 42.93 42.82 42.757 42.677 42.51 42.462 42.472 42.417 42.322 42.115 41.597 40.52 40.545 41.18 41.622 41.797 41.915 42.09 42.227 42.277 42.43 42.45 42.435 42.43 42.432 42.405 42.297 42.052 42.087 42.167 42.192 42.165 42.147 42.162 42.185 42.157 42.195 42.247 42.277 42.28 42.305 42.46 42.257 42.082 42.175 42.462 42.54 42.475 42.462 42.51 42.505 42.497 42.535 42.58 42.63 42.675 42.752 42.855 43.015 43.177 43.285 43.355 43.415 43.52 43.552 43.585 43.545 43.445 43.372 43.397 43.455 43.472 43.52 43.647 43.882 44.155 44.415 44.457 44.505 44.547 44.542 44.535 44.537 44.535 44.525 44.46 44.43 44.412 44.38 44.332 44.257 44.18 44.075 44.002 43.95 43.827 43.797 43.702 43.65 43.595 43.517 43.46 43.39 43.35 43.292 43.182 43.132 43.142 43.08 43 42.937 42.91 42.885 42.842 42.815 42.777 42.72 42.69 42.65 42.627 42.582 42.552 42.507 42.457 42.432 42.41 42.35 42.307 42.315 42.262 42.197 42.147 42.12 42.09 42.102 42.04 41.99 41.96 41.95 41.937 41.902 41.897 41.877 41.827 41.812 41.862 41.862 41.895 41.892 41.947 41.982 41.992 42.007 42.03 42.032 42.025 41.95 41.937 41.9 41.837 41.795 41.732 41.637 41.565 41.485 41.472 41.365 41.292 41.227 41.195 41.145 41.077 41.002 41 40.915 40.86 40.807 40.725 40.667 40.605 40.53 40.42 40.342 40.275 40.18 40.13 40.04 39.93 39.847 39.775 39.7 39.605 39.555 39.47 39.397 39.342 39.242 39.162 39.085 39.037 38.905 38.822 38.805 38.437 38.02 37.825 37.737 37.679 37.542 37.312 37.142 36.939 36.779 36.587 36.422 36.294 36.189 36.124 36.062 35.984 35.847 35.702 35.612 35.484 35.362 35.279 35.222 35.217 35.209 35.199 35.152 35.074 34.942 34.812 34.647 34.497 34.402 34.167 34.012 33.947 33.799 33.602 33.447 33.279 33.247 33.229 33.184 33.162 33.069 32.754 33.019 33.202 33.192 33.192 33.217 33.229 33.287 33.367 33.397 33.392 33.407 33.234 32.582 32.402 32.422 32.444 32.564 32.954 33.359 33.377 33.384 33.134 33.027 33.317 33.952 34.974 35.712 35.979 36.359 36.577 36.629 36.629 36.629 36.664 36.662 36.819 37.119 37.507 37.982 38.374 38.647 38.822 39.107 39.392 39.637 39.817 39.917 39.982 40.062 40.147 40.234 40.159 40.014 39.857 39.787 39.762 39.754 39.719 39.757 39.747 39.739 39.772 39.812 39.959 40.014 39.779 38.787 38.344 38.304 38.702 39.924 40.774 41.034 41.264 41.424 41.639 41.734 41.744 41.684 41.622 41.614 41.792 42.109 42.494 42.482 42.474 42.577 42.589 42.634 42.667 42.679 42.669 42.659 42.652 42.644 42.702 42.767 42.832 42.879 43.044 43.194 43.269 43.342 43.394 43.492 43.567 43.76 43.857 43.917 43.952 43.987 44.045 44.077 44.145 44.225 44.3 44.417 44.505 44.62 44.715 44.815 44.792 44.767 44.802 44.977 45.225 45.31 45.407 45.48 45.627 45.707 45.832 45.982 46.035 46.145 46.25 46.347 46.442 46.547 46.635 46.7 46.767 46.82 46.89 46.97 47.067 47.127 47.177 47.2 47.28 47.37 47.417 47.51 47.667 47.762 47.942 48.122 48.367 48.66 48.882 49.085 49.332 49.565 49.715 49.917 50.127 50.34 50.452 50.627 50.795
