ncols 442
nrows 32
xllcorner    427080
yllcorner    487892
cellsize     2
NODATA_value -9999
32.25 32.303 32.3 32.318 32.365 32.388 32.38 32.35 32.345 32.353 32.375 32.355 32.408 32.433 32.413 32.358 32.308 32.175 32.08 32.075 31.995 32.035 32.01 31.943 31.855 31.753 31.66 31.648 31.623 31.633 31.638 31.533 31.55 31.62 31.628 31.778 32.023 32.105 32.305 32.438 32.405 32.35 32.318 32.285 32.195 32.163 32.193 32.043 31.733 31.593 31.538 31.468 31.378 31.178 31.198 31.165 30.915 30.558 30.198 29.698 28.86 28.483 28.688 28.815 28.843 28.948 29.278 29.848 30.18 30.363 30.523 30.618 30.643 30.555 30.088 29.403 29.205 29.09 29.49 29.53 29.333 29.325 29.703 30.418 30.535 30.503 30.618 30.74 30.8 30.868 31.055 31.18 31.25 31.37 31.49 31.595 31.713 31.788 31.9 31.985 32.038 32.11 32.238 32.298 32.27 32.268 32.4 32.475 32.51 32.563 32.67 32.723 32.598 32.57 32.575 32.57 32.53 32.48 32.528 32.568 32.603 32.558 32.563 32.608 32.605 32.603 32.638 32.673 32.688 32.718 32.773 32.808 32.825 32.888 32.923 32.935 33.015 33.175 33.338 33.295 33.138 33.143 33.15 33.088 33.018 32.953 32.823 32.813 32.76 32.733 32.723 32.7 32.67 32.613 32.555 32.523 32.518 32.448 32.373 32.393 32.38 32.36 32.335 32.322 32.297 32.31 32.317 32.265 32.26 32.252 32.257 32.202 32.15 32.11 32.145 32.217 32.275 32.29 32.21 32.13 32.107 32.212 32.292 32.255 32.207 32.197 32.237 32.312 32.342 32.385 32.395 32.37 32.362 32.385 32.437 32.462 32.457 32.417 32.367 32.397 32.492 32.54 32.597 32.627 32.625 32.625 32.622 32.722 32.782 32.872 32.91 32.922 32.907 32.842 32.797 32.732 32.67 32.657 32.695 32.687 32.66 32.677 32.647 32.677 32.69 32.552 32.46 32.562 32.787 32.89 32.88 33.035 33.272 33.17 32.977 33.05 33.025 33.025 32.957 32.957 32.947 32.917 32.892 32.89 32.9 32.877 32.857 32.872 32.877 32.932 32.955 32.932 32.912 32.89 32.877 32.872 32.902 32.877 32.877 32.865 32.867 32.87 32.882 32.89 32.89 32.895 32.892 32.935 32.927 32.96 32.967 32.977 32.997 32.975 32.972 32.967 32.965 32.985 32.97 32.967 32.94 32.91 32.92 32.905 32.915 32.905 32.942 32.88 32.902 32.897 32.87 32.867 32.852 32.865 32.862 32.852 32.867 32.852 32.852 32.83 32.84 32.847 32.82 32.87 32.855 32.81 32.8 32.752 32.74 32.795 32.797 32.795 32.777 32.79 32.767 32.77 32.767 32.775 32.72 32.712 32.715 32.715 32.72 32.702 32.735 32.727 32.737 32.705 32.72 32.727 32.725 32.735 32.705 32.687 32.647 32.627 32.582 32.562 32.562 32.56 32.55 32.542 32.542 32.532 32.497 32.485 32.482 32.467 32.43 32.425 32.41 32.38 32.345 32.34 32.327 32.312 32.322 32.315 32.305 32.267 32.252 32.287 32.265 32.24 32.202 32.155 32.135 32.102 32.05 32.045 32.01 31.985 31.93 31.905 31.895 31.862 31.802 31.81 31.817 31.835 31.807 31.812 31.782 31.76 31.702 31.715 31.65 31.605 31.612 31.6 31.602 31.6 31.555 31.532 31.525 31.505 31.47 31.46 31.48 31.495 31.47 31.447 31.435 31.407 31.405 31.41 31.422 31.435 31.395 31.412 31.412 31.402 31.399 31.397 31.384 31.324 31.242 31.214 31.097 31.012 30.899 30.799 30.679 30.592 30.477 30.449 30.342 30.284 30.172 30.124 30.082 30.002 29.949 29.914 29.892 29.859 29.849 29.839 29.807 29.789 29.792 29.842
32.275 32.278 32.295 32.303 32.36 32.388 32.345 32.33 32.348 32.38 32.39 32.415 32.42 32.455 32.435 32.395 32.345 32.26 32.208 32.12 32.115 32.198 32.148 32.035 31.918 31.855 31.763 31.683 31.648 31.593 31.603 31.59 31.5 31.483 31.473 31.57 31.925 31.993 32.035 32.213 32.343 32.315 32.293 32.265 32.12 32.113 32.175 32.21 32.118 31.808 31.725 31.638 31.505 31.388 31.188 31.155 31.07 30.958 30.73 30.355 30.003 29.548 29.118 29.098 29.013 28.805 28.528 29.078 29.73 30.073 30.288 30.423 30.585 30.54 30.123 29.435 29.163 29.165 29.578 29.723 29.603 29.63 29.91 30.498 30.548 30.468 30.525 30.628 30.658 30.755 30.918 31.065 31.153 31.275 31.413 31.513 31.593 31.688 31.783 31.84 31.943 31.988 32.093 32.135 32.175 32.238 32.273 32.34 32.355 32.408 32.448 32.53 32.605 32.52 32.538 32.548 32.485 32.483 32.475 32.49 32.478 32.535 32.558 32.57 32.558 32.538 32.588 32.64 32.673 32.685 32.723 32.758 32.815 32.838 32.843 32.865 32.91 33.02 33.13 33.225 33.145 33.07 33.033 33.03 32.905 32.798 32.773 32.745 32.765 32.665 32.603 32.618 32.608 32.56 32.54 32.495 32.43 32.395 32.328 32.288 32.315 32.277 32.267 32.242 32.207 32.247 32.23 32.247 32.225 32.202 32.187 32.177 32.115 32.087 32.025 32.077 32.18 32.21 32.207 32.187 32.075 32.102 32.195 32.22 32.195 32.175 32.115 32.23 32.275 32.305 32.352 32.32 32.29 32.34 32.347 32.43 32.45 32.445 32.392 32.38 32.377 32.435 32.515 32.62 32.63 32.642 32.63 32.68 32.75 32.82 32.865 32.872 32.802 32.772 32.7 32.625 32.58 32.617 32.63 32.62 32.615 32.607 32.635 32.612 32.657 32.627 32.48 32.455 32.617 32.842 32.812 32.77 33.125 33.212 33.08 32.97 32.99 33.005 32.97 32.907 32.872 32.85 32.865 32.847 32.855 32.82 32.805 32.81 32.84 32.882 32.915 32.9 32.842 32.85 32.862 32.835 32.807 32.822 32.822 32.835 32.825 32.837 32.845 32.852 32.86 32.872 32.905 32.937 32.927 32.947 32.94 32.94 32.977 32.995 32.982 32.967 32.96 32.985 32.957 32.93 32.912 32.895 32.9 32.895 32.87 32.887 32.917 32.885 32.872 32.882 32.877 32.865 32.852 32.83 32.865 32.862 32.872 32.897 32.872 32.825 32.85 32.865 32.825 32.822 32.822 32.79 32.755 32.757 32.775 32.772 32.752 32.755 32.76 32.772 32.757 32.75 32.73 32.695 32.682 32.705 32.73 32.69 32.695 32.705 32.7 32.687 32.722 32.72 32.702 32.692 32.69 32.71 32.657 32.652 32.612 32.602 32.575 32.54 32.542 32.595 32.54 32.512 32.495 32.515 32.495 32.49 32.452 32.41 32.39 32.4 32.355 32.325 32.31 32.305 32.297 32.292 32.262 32.272 32.26 32.27 32.23 32.27 32.242 32.225 32.192 32.155 32.082 32.042 32.04 31.985 31.94 31.93 31.885 31.88 31.875 31.822 31.825 31.787 31.785 31.792 31.79 31.77 31.742 31.73 31.677 31.627 31.607 31.575 31.592 31.595 31.565 31.575 31.507 31.49 31.505 31.502 31.475 31.495 31.502 31.477 31.435 31.385 31.422 31.367 31.41 31.407 31.417 31.425 31.412 31.405 31.404 31.412 31.387 31.332 31.332 31.264 31.194 31.122 31.004 30.884 30.817 30.692 30.597 30.512 30.454 30.382 30.324 30.222 30.132 30.069 30.032 29.947 29.932 29.907 29.889 29.844 29.797 29.814 29.824 29.807 29.819 29.852
32.343 32.32 32.278 32.288 32.315 32.34 32.348 32.34 32.345 32.353 32.393 32.428 32.383 32.48 32.45 32.415 32.373 32.323 32.178 32.173 32.09 32.205 32.18 32.113 32.02 31.965 31.83 31.748 31.743 31.603 31.55 31.55 31.538 31.49 31.438 31.455 31.54 31.768 31.883 31.93 32.048 32.153 32.213 32.195 32.098 32.083 32.13 32.158 32.198 32.188 32.075 31.94 31.748 31.465 31.265 31.195 31.18 31.103 31.005 30.903 30.705 30.273 29.845 29.635 29.445 29.255 28.898 28.528 28.935 29.218 29.855 30.19 30.42 30.538 30.14 29.383 29.143 29.26 29.808 29.883 29.868 29.86 30.07 30.523 30.543 30.46 30.463 30.513 30.47 30.57 30.79 30.915 31.033 31.14 31.238 31.315 31.453 31.543 31.663 31.748 31.833 31.923 31.96 32.038 32.075 32.14 32.163 32.223 32.243 32.258 32.29 32.358 32.53 32.473 32.453 32.485 32.488 32.5 32.453 32.435 32.45 32.49 32.493 32.508 32.52 32.483 32.508 32.593 32.625 32.633 32.653 32.698 32.78 32.78 32.773 32.808 32.835 32.853 32.885 32.903 33 32.99 32.953 32.89 32.83 32.79 32.775 32.768 32.733 32.58 32.495 32.533 32.568 32.53 32.453 32.408 32.37 32.295 32.248 32.23 32.25 32.232 32.222 32.217 32.177 32.165 32.12 32.137 32.19 32.075 32.035 32.097 32.107 32.062 31.982 31.99 32.047 32.102 32.155 32.135 32.077 32.025 32.105 32.112 32.127 32.117 32.102 32.137 32.2 32.25 32.312 32.312 32.3 32.285 32.322 32.365 32.4 32.43 32.412 32.395 32.357 32.385 32.447 32.51 32.58 32.657 32.655 32.7 32.71 32.745 32.777 32.752 32.69 32.625 32.585 32.542 32.465 32.552 32.625 32.605 32.575 32.557 32.57 32.572 32.602 32.64 32.595 32.51 32.465 32.6 32.785 32.732 32.887 33.022 33.11 32.967 32.91 32.947 32.915 32.847 32.83 32.85 32.822 32.807 32.82 32.805 32.81 32.79 32.797 32.79 32.825 32.842 32.797 32.792 32.772 32.8 32.805 32.787 32.76 32.797 32.817 32.807 32.797 32.83 32.82 32.865 32.875 32.895 32.925 32.947 32.925 32.907 32.93 32.972 32.995 32.952 32.957 32.93 32.912 32.945 32.912 32.895 32.877 32.9 32.897 32.885 32.875 32.865 32.847 32.832 32.857 32.85 32.822 32.835 32.85 32.84 32.842 32.865 32.867 32.837 32.865 32.85 32.802 32.82 32.767 32.772 32.775 32.752 32.767 32.755 32.76 32.747 32.74 32.76 32.747 32.725 32.675 32.652 32.67 32.685 32.652 32.66 32.672 32.677 32.652 32.657 32.662 32.682 32.657 32.65 32.65 32.63 32.642 32.602 32.585 32.562 32.557 32.525 32.525 32.537 32.525 32.502 32.462 32.442 32.475 32.462 32.437 32.39 32.357 32.332 32.332 32.277 32.277 32.28 32.235 32.26 32.245 32.227 32.242 32.242 32.222 32.18 32.172 32.172 32.132 32.092 32.077 32.015 31.98 31.947 31.902 31.895 31.89 31.882 31.87 31.825 31.822 31.802 31.765 31.742 31.767 31.715 31.705 31.682 31.67 31.62 31.595 31.597 31.567 31.555 31.542 31.53 31.482 31.472 31.5 31.495 31.457 31.452 31.46 31.462 31.407 31.395 31.415 31.417 31.415 31.41 31.417 31.415 31.382 31.392 31.377 31.382 31.312 31.262 31.239 31.199 31.139 31.022 30.922 30.834 30.704 30.604 30.514 30.474 30.369 30.322 30.229 30.174 30.079 30.029 29.992 29.967 29.932 29.917 29.902 29.882 29.819 29.827 29.812 29.817 29.862 29.877
32.388 32.35 32.325 32.335 32.325 32.328 32.368 32.34 32.335 32.328 32.36 32.41 32.398 32.468 32.44 32.393 32.355 32.3 32.235 32.175 32.15 32.23 32.225 32.195 32.098 32.025 31.95 31.89 31.763 31.545 31.503 31.55 31.538 31.488 31.478 31.435 31.425 31.435 31.55 31.608 31.775 31.883 31.99 32.018 32.043 32.043 32.055 32.083 32.145 32.185 32.178 32.17 31.975 31.825 31.623 31.238 31.208 31.138 31.045 31.113 31.11 30.8 30.373 30.175 29.975 29.775 29.423 28.93 28.615 29.01 29.41 29.65 30.068 30.395 29.973 29.395 29.103 29.243 29.768 30.075 30.188 30.24 30.323 30.503 30.515 30.455 30.433 30.433 30.358 30.39 30.583 30.773 30.908 31.013 31.105 31.173 31.34 31.445 31.545 31.61 31.758 31.86 31.888 31.94 31.993 31.945 31.99 32.053 32.108 32.13 32.188 32.21 32.318 32.375 32.42 32.425 32.453 32.443 32.385 32.34 32.373 32.395 32.408 32.44 32.46 32.475 32.475 32.538 32.563 32.583 32.608 32.643 32.705 32.753 32.753 32.783 32.8 32.785 32.8 32.808 32.818 32.923 32.843 32.783 32.785 32.758 32.728 32.698 32.673 32.575 32.5 32.505 32.465 32.46 32.403 32.34 32.303 32.248 32.205 32.165 32.147 32.165 32.165 32.15 32.097 32.07 32.055 32.04 32.075 32.015 31.975 32.005 32.055 32.012 31.945 31.937 31.95 32.025 32.092 32.147 32.09 32.025 31.997 32.062 32.092 32.112 32.087 32.052 32.105 32.17 32.227 32.285 32.272 32.247 32.23 32.315 32.37 32.37 32.41 32.427 32.417 32.392 32.41 32.467 32.525 32.6 32.66 32.67 32.677 32.64 32.615 32.64 32.587 32.525 32.462 32.452 32.477 32.502 32.522 32.535 32.532 32.537 32.542 32.542 32.55 32.585 32.607 32.615 32.43 32.372 32.582 32.792 32.812 32.835 32.992 33.05 32.915 32.837 32.852 32.817 32.772 32.797 32.78 32.762 32.787 32.792 32.752 32.752 32.72 32.745 32.74 32.752 32.765 32.777 32.752 32.76 32.737 32.732 32.727 32.74 32.78 32.802 32.792 32.82 32.81 32.847 32.872 32.86 32.9 32.915 32.935 32.915 32.892 32.935 32.952 32.925 32.93 32.895 32.897 32.897 32.902 32.89 32.885 32.892 32.897 32.9 32.87 32.887 32.85 32.822 32.832 32.84 32.825 32.84 32.83 32.82 32.84 32.847 32.847 32.842 32.847 32.837 32.807 32.8 32.78 32.797 32.787 32.745 32.735 32.727 32.742 32.747 32.712 32.712 32.725 32.685 32.667 32.625 32.647 32.65 32.63 32.6 32.64 32.617 32.595 32.617 32.61 32.64 32.622 32.592 32.592 32.577 32.555 32.545 32.545 32.525 32.512 32.49 32.515 32.515 32.472 32.49 32.475 32.437 32.412 32.407 32.385 32.32 32.322 32.307 32.28 32.275 32.24 32.25 32.235 32.215 32.207 32.215 32.207 32.222 32.2 32.16 32.14 32.115 32.055 32.077 31.992 31.975 31.9 31.9 31.882 31.882 31.852 31.88 31.855 31.822 31.78 31.795 31.76 31.747 31.73 31.707 31.657 31.63 31.622 31.595 31.58 31.58 31.527 31.492 31.472 31.465 31.48 31.455 31.455 31.45 31.44 31.447 31.452 31.43 31.42 31.425 31.422 31.39 31.407 31.405 31.43 31.395 31.372 31.38 31.419 31.347 31.297 31.257 31.219 31.159 31.077 30.927 30.824 30.729 30.677 30.517 30.462 30.347 30.294 30.227 30.157 30.097 30.037 30.019 29.957 29.954 29.927 29.894 29.924 29.877 29.837 29.832 29.802 29.807 29.852 29.892
32.403 32.34 32.368 32.393 32.35 32.355 32.39 32.383 32.353 32.365 32.363 32.348 32.36 32.415 32.448 32.37 32.36 32.27 32.258 32.25 32.25 32.25 32.23 32.19 32.145 32.125 32.123 31.978 31.613 31.433 31.503 31.548 31.563 31.43 31.428 31.468 31.465 31.333 31.368 31.37 31.548 31.665 31.743 31.888 31.938 31.95 31.978 32.02 32.093 32.158 32.21 32.233 32.263 32.268 31.99 31.445 31.285 31.203 31.105 31.165 31.215 31.103 30.86 30.663 30.395 30.135 29.885 29.325 28.785 29.29 29.395 29.253 29.48 29.87 29.738 29.363 29.115 29.28 29.763 30.145 30.338 30.41 30.425 30.488 30.513 30.475 30.418 30.378 30.35 30.29 30.425 30.618 30.765 30.885 30.958 30.993 31.198 31.338 31.448 31.515 31.605 31.725 31.788 31.795 31.783 31.798 31.883 31.915 31.94 32.025 32.103 32.155 32.223 32.315 32.43 32.418 32.418 32.42 32.368 32.345 32.35 32.37 32.358 32.378 32.428 32.443 32.458 32.48 32.538 32.583 32.605 32.62 32.65 32.69 32.72 32.728 32.748 32.77 32.775 32.778 32.75 32.838 32.795 32.75 32.695 32.7 32.655 32.603 32.563 32.513 32.455 32.403 32.383 32.358 32.353 32.333 32.253 32.213 32.15 32.07 32.04 32.035 32.065 32.067 32.077 32 32.007 32.06 32.02 32.017 31.957 31.97 31.977 31.987 31.955 31.92 31.897 31.907 32.017 32.072 32.07 32.01 31.967 31.977 32.035 32.047 32.087 32.037 32.025 32.087 32.14 32.167 32.185 32.23 32.235 32.287 32.282 32.297 32.347 32.407 32.437 32.44 32.447 32.5 32.535 32.562 32.627 32.635 32.595 32.572 32.547 32.557 32.485 32.4 32.385 32.43 32.432 32.427 32.437 32.447 32.462 32.477 32.467 32.487 32.482 32.545 32.545 32.57 32.49 32.305 32.3 32.607 32.782 32.637 32.67 32.945 33.015 32.807 32.772 32.79 32.747 32.75 32.747 32.74 32.745 32.77 32.745 32.7 32.722 32.695 32.677 32.71 32.727 32.727 32.72 32.727 32.725 32.71 32.72 32.735 32.732 32.757 32.78 32.802 32.81 32.827 32.862 32.87 32.88 32.902 32.912 32.9 32.897 32.915 32.925 32.907 32.91 32.885 32.875 32.872 32.89 32.88 32.89 32.867 32.877 32.845 32.867 32.837 32.842 32.835 32.815 32.807 32.817 32.837 32.802 32.807 32.847 32.825 32.805 32.82 32.807 32.81 32.797 32.775 32.747 32.747 32.75 32.75 32.71 32.702 32.7 32.73 32.722 32.695 32.672 32.627 32.627 32.615 32.62 32.64 32.607 32.622 32.612 32.597 32.557 32.56 32.577 32.565 32.557 32.557 32.56 32.527 32.505 32.495 32.522 32.517 32.507 32.51 32.485 32.472 32.465 32.48 32.465 32.415 32.34 32.297 32.315 32.27 32.275 32.232 32.255 32.235 32.23 32.202 32.187 32.19 32.195 32.195 32.18 32.19 32.18 32.155 32.1 32.085 32.035 32.01 31.977 31.945 31.925 31.895 31.865 31.865 31.867 31.847 31.84 31.817 31.795 31.777 31.787 31.752 31.722 31.675 31.647 31.592 31.587 31.58 31.552 31.57 31.5 31.472 31.442 31.437 31.46 31.462 31.432 31.405 31.405 31.435 31.435 31.41 31.407 31.437 31.445 31.395 31.412 31.407 31.422 31.4 31.37 31.367 31.374 31.319 31.267 31.214 31.147 31.094 30.964 30.857 30.752 30.674 30.572 30.472 30.397 30.272 30.197 30.169 30.097 30.079 30.029 29.972 29.939 29.942 29.862 29.859 29.874 29.832 29.804 29.812 29.819 29.807 29.837 29.917
32.413 32.43 32.41 32.41 32.358 32.345 32.375 32.4 32.385 32.375 32.355 32.378 32.343 32.36 32.378 32.333 32.355 32.33 32.305 32.268 32.265 32.268 32.215 32.155 32.125 32.125 32.078 31.883 31.53 31.44 31.48 31.485 31.51 31.45 31.458 31.425 31.445 31.458 31.373 31.373 31.44 31.445 31.553 31.688 31.79 31.883 31.913 31.965 32.04 32.158 32.215 32.21 32.32 32.458 32.34 31.955 31.583 31.333 31.253 31.238 31.228 31.18 31.02 30.85 30.673 30.448 30.133 29.655 29.475 29.58 29.478 29.253 29.098 29.175 29.288 29.248 29.128 29.353 29.748 30.16 30.383 30.423 30.44 30.503 30.565 30.503 30.458 30.383 30.348 30.35 30.405 30.518 30.653 30.753 30.783 30.923 31.05 31.205 31.323 31.383 31.44 31.558 31.628 31.618 31.558 31.613 31.75 31.785 31.828 31.955 31.983 32.08 32.155 32.313 32.49 32.458 32.373 32.39 32.39 32.33 32.318 32.345 32.358 32.35 32.355 32.435 32.458 32.443 32.485 32.523 32.588 32.618 32.615 32.645 32.653 32.643 32.645 32.695 32.755 32.713 32.72 32.753 32.778 32.855 32.62 32.623 32.64 32.573 32.518 32.475 32.445 32.348 32.315 32.283 32.278 32.253 32.263 32.108 32.038 32.035 32 31.97 31.977 31.985 32.002 31.957 31.945 31.967 31.952 31.935 31.935 31.93 31.935 31.92 31.925 31.925 31.9 31.827 31.895 31.977 32.02 31.992 31.955 31.922 31.92 31.975 32.032 32.062 32.02 32.002 32.062 32.095 32.132 32.23 32.275 32.282 32.247 32.205 32.262 32.322 32.4 32.452 32.467 32.52 32.527 32.535 32.545 32.53 32.517 32.477 32.44 32.425 32.407 32.347 32.375 32.387 32.392 32.367 32.362 32.38 32.41 32.415 32.452 32.48 32.457 32.475 32.462 32.475 32.53 32.45 32.287 32.302 32.582 32.59 32.537 32.637 32.9 32.942 32.725 32.73 32.77 32.732 32.73 32.73 32.705 32.687 32.677 32.655 32.682 32.665 32.62 32.632 32.687 32.692 32.69 32.702 32.705 32.692 32.697 32.7 32.7 32.725 32.745 32.772 32.812 32.807 32.832 32.847 32.867 32.887 32.917 32.892 32.892 32.87 32.875 32.905 32.875 32.875 32.865 32.855 32.877 32.87 32.84 32.852 32.852 32.817 32.83 32.832 32.817 32.795 32.765 32.78 32.78 32.797 32.815 32.827 32.83 32.815 32.77 32.785 32.787 32.747 32.77 32.745 32.735 32.74 32.72 32.725 32.72 32.7 32.665 32.677 32.692 32.655 32.622 32.577 32.607 32.59 32.605 32.565 32.58 32.6 32.57 32.557 32.547 32.507 32.525 32.537 32.512 32.502 32.497 32.495 32.487 32.472 32.515 32.507 32.487 32.475 32.467 32.452 32.45 32.435 32.407 32.375 32.322 32.282 32.257 32.232 32.252 32.23 32.2 32.182 32.165 32.195 32.185 32.18 32.2 32.19 32.162 32.147 32.122 32.09 32.047 32.027 31.982 31.972 31.937 31.91 31.855 31.89 31.865 31.872 31.84 31.855 31.827 31.832 31.765 31.757 31.75 31.717 31.697 31.625 31.585 31.565 31.567 31.545 31.525 31.515 31.482 31.452 31.452 31.417 31.432 31.44 31.43 31.415 31.397 31.41 31.415 31.412 31.402 31.422 31.415 31.402 31.402 31.407 31.387 31.36 31.362 31.34 31.312 31.254 31.227 31.147 31.039 30.982 30.879 30.782 30.679 30.622 30.497 30.399 30.324 30.214 30.144 30.112 30.054 30.019 29.992 29.964 29.939 29.889 29.824 29.834 29.842 29.817 29.767 29.799 29.784 29.809 29.877 29.919
32.49 32.528 32.515 32.475 32.408 32.453 32.565 32.478 32.41 32.383 32.373 32.373 32.348 32.333 32.3 32.33 32.373 32.37 32.375 32.31 32.285 32.29 32.215 32.125 32.105 32.073 31.805 31.663 31.508 31.49 31.533 31.53 31.488 31.485 31.428 31.35 31.393 31.395 31.358 31.37 31.338 31.348 31.395 31.485 31.63 31.753 31.878 31.955 32.098 32.193 32.188 32.215 32.335 32.355 32.205 32.1 32.03 31.775 31.53 31.563 31.333 31.198 31.138 31.06 30.92 30.743 30.48 30.183 29.958 29.92 29.533 29.263 29.068 28.793 28.888 28.918 28.848 29.253 29.655 29.998 30.348 30.49 30.443 30.565 30.66 30.543 30.468 30.42 30.373 30.413 30.413 30.413 30.505 30.598 30.67 30.78 30.965 31.135 31.22 31.3 31.368 31.44 31.448 31.445 31.463 31.555 31.633 31.745 31.88 31.945 31.955 32.058 32.135 32.275 32.44 32.453 32.373 32.303 32.368 32.368 32.325 32.323 32.305 32.315 32.303 32.36 32.423 32.435 32.483 32.445 32.528 32.568 32.598 32.575 32.588 32.625 32.635 32.655 32.68 32.658 32.658 32.69 32.745 32.825 32.633 32.533 32.56 32.528 32.468 32.42 32.398 32.34 32.24 32.225 32.208 32.16 32.155 32.085 31.985 31.95 31.91 31.88 31.875 31.892 31.877 31.875 31.882 31.852 31.885 31.897 31.925 31.93 31.962 31.875 31.857 31.9 31.907 31.825 31.822 31.867 31.927 31.972 31.935 31.882 31.885 31.902 31.955 32.06 32.052 32.04 31.987 32.022 32.075 32.18 32.255 32.287 32.272 32.18 32.175 32.265 32.337 32.37 32.47 32.52 32.51 32.472 32.492 32.47 32.41 32.382 32.347 32.352 32.332 32.347 32.36 32.36 32.347 32.32 32.287 32.312 32.36 32.352 32.375 32.397 32.39 32.392 32.39 32.422 32.432 32.445 32.365 32.23 32.297 32.51 32.482 32.512 32.812 32.895 32.817 32.727 32.71 32.742 32.72 32.692 32.7 32.652 32.62 32.615 32.622 32.627 32.572 32.582 32.612 32.602 32.635 32.617 32.657 32.652 32.66 32.677 32.677 32.702 32.732 32.75 32.772 32.812 32.807 32.84 32.855 32.85 32.867 32.852 32.86 32.865 32.865 32.862 32.845 32.827 32.845 32.872 32.852 32.837 32.8 32.815 32.837 32.81 32.805 32.805 32.835 32.8 32.775 32.767 32.755 32.777 32.79 32.805 32.83 32.797 32.787 32.787 32.78 32.745 32.735 32.717 32.745 32.727 32.705 32.692 32.702 32.685 32.662 32.632 32.615 32.625 32.597 32.555 32.585 32.557 32.565 32.552 32.537 32.507 32.545 32.522 32.497 32.47 32.475 32.502 32.48 32.45 32.47 32.487 32.475 32.467 32.467 32.5 32.452 32.44 32.46 32.475 32.422 32.407 32.377 32.342 32.297 32.265 32.23 32.205 32.235 32.19 32.157 32.147 32.13 32.155 32.167 32.17 32.172 32.172 32.137 32.125 32.067 32.05 32.01 31.962 31.942 31.922 31.902 31.87 31.855 31.855 31.84 31.837 31.82 31.807 31.805 31.782 31.77 31.735 31.73 31.68 31.64 31.602 31.56 31.545 31.545 31.522 31.522 31.487 31.45 31.437 31.485 31.43 31.387 31.395 31.4 31.385 31.405 31.38 31.37 31.385 31.385 31.397 31.385 31.345 31.37 31.367 31.38 31.357 31.325 31.272 31.274 31.234 31.182 31.087 30.987 30.912 30.792 30.707 30.587 30.532 30.462 30.367 30.284 30.207 30.119 30.089 30.014 29.984 29.957 29.914 29.869 29.817 29.759 29.784 29.787 29.767 29.757 29.779 29.782 29.794 29.864 29.917
32.56 32.595 32.583 32.528 32.48 32.618 32.675 32.528 32.47 32.385 32.383 32.363 32.348 32.34 32.325 32.345 32.37 32.403 32.443 32.38 32.305 32.308 32.215 32.11 32.108 31.955 31.678 31.595 31.523 31.493 31.508 31.523 31.475 31.47 31.398 31.395 31.4 31.38 31.363 31.355 31.338 31.33 31.335 31.368 31.418 31.515 31.653 31.82 32.003 32.073 32.17 32.213 32.233 32.235 32.128 32.118 32.07 32.053 32.008 31.833 31.43 31.313 31.288 31.223 31.118 30.998 30.815 30.653 30.448 30.225 29.86 29.333 29.06 28.9 28.75 28.653 28.64 28.86 29.368 29.79 30.035 30.273 30.348 30.468 30.613 30.595 30.535 30.513 30.468 30.47 30.44 30.423 30.425 30.49 30.56 30.695 30.903 31.02 31.093 31.208 31.265 31.323 31.318 31.355 31.408 31.473 31.59 31.858 31.983 31.995 32.01 32.098 32.15 32.313 32.333 32.408 32.413 32.3 32.283 32.333 32.305 32.263 32.295 32.29 32.325 32.355 32.403 32.44 32.463 32.453 32.483 32.528 32.545 32.505 32.55 32.55 32.6 32.62 32.638 32.61 32.603 32.635 32.665 32.665 32.595 32.508 32.46 32.475 32.423 32.4 32.345 32.288 32.2 32.125 32.08 32.055 32.07 32.005 31.91 31.88 31.835 31.807 31.817 31.837 31.805 31.797 31.845 31.832 31.835 31.865 31.92 31.992 31.967 31.862 31.767 31.84 31.9 31.847 31.805 31.772 31.802 31.922 31.98 31.93 31.862 31.85 31.9 31.975 32.06 32.057 32.007 31.967 32 32.085 32.21 32.29 32.29 32.197 32.177 32.232 32.315 32.362 32.447 32.462 32.445 32.395 32.395 32.37 32.315 32.272 32.245 32.275 32.3 32.335 32.325 32.337 32.342 32.325 32.312 32.262 32.282 32.277 32.35 32.345 32.342 32.372 32.357 32.365 32.38 32.39 32.425 32.307 32.207 32.29 32.517 32.527 32.602 32.64 32.82 32.81 32.662 32.685 32.7 32.697 32.647 32.642 32.62 32.582 32.585 32.572 32.532 32.53 32.532 32.545 32.597 32.632 32.63 32.622 32.61 32.642 32.682 32.667 32.71 32.742 32.77 32.78 32.797 32.795 32.84 32.825 32.85 32.842 32.862 32.855 32.845 32.832 32.855 32.795 32.797 32.85 32.845 32.82 32.78 32.81 32.787 32.77 32.772 32.802 32.8 32.78 32.77 32.785 32.8 32.81 32.802 32.777 32.805 32.8 32.767 32.777 32.765 32.745 32.73 32.725 32.73 32.725 32.705 32.687 32.71 32.687 32.67 32.585 32.567 32.522 32.572 32.54 32.532 32.527 32.535 32.505 32.515 32.497 32.487 32.472 32.447 32.432 32.44 32.455 32.455 32.452 32.422 32.44 32.447 32.45 32.445 32.412 32.435 32.455 32.437 32.42 32.392 32.33 32.335 32.302 32.27 32.235 32.237 32.215 32.182 32.16 32.155 32.18 32.155 32.165 32.162 32.15 32.147 32.12 32.1 32.05 32.035 32.022 31.985 31.927 31.902 31.875 31.862 31.88 31.87 31.852 31.842 31.817 31.805 31.772 31.795 31.752 31.727 31.715 31.677 31.642 31.61 31.585 31.527 31.537 31.5 31.475 31.477 31.432 31.455 31.46 31.435 31.415 31.397 31.38 31.35 31.347 31.382 31.387 31.357 31.36 31.365 31.352 31.352 31.352 31.37 31.357 31.312 31.31 31.29 31.227 31.217 31.169 31.084 30.999 30.929 30.829 30.737 30.652 30.559 30.472 30.417 30.324 30.247 30.167 30.122 30.072 30.002 29.934 29.912 29.849 29.772 29.704 29.682 29.724 29.744 29.749 29.747 29.757 29.802 29.852 29.927 29.952
32.593 32.593 32.598 32.658 32.708 32.745 32.718 32.573 32.528 32.42 32.433 32.405 32.375 32.34 32.36 32.38 32.365 32.395 32.398 32.383 32.31 32.325 32.288 32.178 32.11 31.94 31.673 31.545 31.573 31.588 31.575 31.555 31.448 31.44 31.47 31.45 31.405 31.39 31.413 31.365 31.28 31.365 31.368 31.328 31.29 31.345 31.4 31.583 31.743 31.845 31.985 32.073 32.173 32.15 32.148 32.08 32.005 32.01 32.03 31.988 31.723 31.475 31.385 31.323 31.245 31.17 31.04 30.868 30.693 30.505 30.21 29.745 29.348 29.02 28.833 28.648 28.663 28.653 29.045 29.583 29.77 29.89 29.955 30.22 30.503 30.62 30.56 30.57 30.53 30.49 30.453 30.393 30.378 30.365 30.403 30.578 30.733 30.835 30.963 31.105 31.17 31.175 31.19 31.238 31.323 31.35 31.505 31.668 31.815 31.898 31.988 32.08 32.183 32.308 32.298 32.38 32.438 32.373 32.25 32.233 32.275 32.295 32.285 32.323 32.318 32.35 32.365 32.398 32.408 32.42 32.435 32.468 32.483 32.488 32.495 32.515 32.56 32.583 32.595 32.598 32.603 32.555 32.595 32.625 32.658 32.545 32.438 32.365 32.365 32.345 32.278 32.218 32.153 32.088 32.023 31.96 31.925 31.92 31.84 31.785 31.747 31.725 31.74 31.735 31.715 31.717 31.755 31.795 31.79 31.825 31.882 31.99 31.932 31.85 31.782 31.825 31.887 31.912 31.865 31.777 31.725 31.822 31.937 31.945 31.87 31.81 31.855 31.91 32.002 32.057 31.997 31.98 31.977 32.032 32.122 32.227 32.28 32.217 32.195 32.247 32.262 32.272 32.315 32.375 32.375 32.312 32.332 32.322 32.255 32.175 32.167 32.22 32.27 32.305 32.32 32.317 32.315 32.327 32.265 32.242 32.212 32.227 32.275 32.262 32.267 32.312 32.307 32.335 32.325 32.352 32.395 32.382 32.207 32.102 32.365 32.557 32.492 32.535 32.717 32.827 32.695 32.602 32.655 32.687 32.615 32.602 32.627 32.575 32.552 32.555 32.522 32.51 32.475 32.502 32.532 32.557 32.58 32.6 32.567 32.57 32.61 32.645 32.677 32.695 32.737 32.765 32.757 32.767 32.777 32.785 32.81 32.822 32.81 32.84 32.842 32.83 32.812 32.795 32.777 32.767 32.83 32.79 32.762 32.79 32.755 32.742 32.71 32.747 32.78 32.76 32.787 32.79 32.81 32.81 32.782 32.78 32.762 32.77 32.78 32.762 32.757 32.732 32.697 32.687 32.655 32.715 32.695 32.662 32.64 32.612 32.6 32.555 32.535 32.507 32.497 32.467 32.51 32.497 32.47 32.462 32.467 32.432 32.437 32.445 32.427 32.402 32.427 32.417 32.4 32.407 32.367 32.38 32.385 32.395 32.402 32.397 32.422 32.415 32.372 32.397 32.35 32.27 32.285 32.272 32.245 32.212 32.17 32.177 32.172 32.162 32.165 32.137 32.155 32.132 32.125 32.122 32.115 32.105 32.022 32.012 31.977 31.967 31.935 31.905 31.887 31.88 31.862 31.887 31.852 31.837 31.832 31.807 31.752 31.78 31.767 31.725 31.737 31.702 31.65 31.602 31.585 31.54 31.5 31.5 31.467 31.452 31.432 31.437 31.452 31.412 31.42 31.37 31.365 31.355 31.355 31.352 31.32 31.352 31.36 31.352 31.38 31.357 31.332 31.367 31.347 31.335 31.277 31.23 31.185 31.155 31.119 31.074 31.007 30.932 30.839 30.787 30.684 30.582 30.509 30.402 30.319 30.287 30.244 30.179 30.092 30.029 29.972 29.877 29.819 29.797 29.749 29.689 29.644 29.672 29.732 29.759 29.787 29.779 29.837 29.887 29.927 29.964
32.655 32.643 32.69 32.755 32.833 32.828 32.825 32.67 32.618 32.568 32.535 32.463 32.423 32.445 32.393 32.42 32.4 32.418 32.415 32.398 32.318 32.29 32.19 32.11 31.928 31.758 31.528 31.538 31.6 31.61 31.58 31.558 31.495 31.515 31.505 31.458 31.425 31.42 31.44 31.425 31.368 31.33 31.38 31.41 31.333 31.325 31.29 31.395 31.525 31.65 31.853 31.96 32.095 32.168 32.12 32.02 31.948 32.005 31.993 31.99 31.938 31.688 31.485 31.435 31.358 31.263 31.15 30.983 30.828 30.655 30.47 30.295 29.99 29.465 28.938 28.64 28.698 28.695 28.743 29.045 29.555 29.675 29.9 30.13 30.503 30.558 30.583 30.563 30.543 30.528 30.458 30.373 30.378 30.468 30.393 30.465 30.52 30.665 30.798 30.93 31.02 31.025 31.043 31.113 31.183 31.235 31.358 31.433 31.585 31.81 32.008 32.163 32.21 32.275 32.295 32.355 32.38 32.378 32.29 32.188 32.215 32.33 32.3 32.258 32.303 32.293 32.313 32.345 32.368 32.445 32.44 32.433 32.44 32.475 32.483 32.475 32.48 32.523 32.535 32.533 32.545 32.52 32.53 32.55 32.568 32.558 32.433 32.293 32.303 32.3 32.248 32.175 32.14 32.023 31.965 31.863 31.843 31.855 31.79 31.753 31.667 31.64 31.675 31.67 31.642 31.652 31.69 31.737 31.762 31.78 31.837 31.882 31.892 31.86 31.787 31.757 31.82 31.897 31.88 31.785 31.692 31.732 31.82 31.872 31.85 31.805 31.797 31.83 31.92 31.962 31.937 31.94 31.897 31.96 32.045 32.105 32.17 32.187 32.185 32.237 32.24 32.222 32.245 32.285 32.302 32.24 32.252 32.227 32.187 32.16 32.185 32.187 32.215 32.265 32.297 32.315 32.327 32.315 32.28 32.252 32.22 32.23 32.227 32.232 32.21 32.237 32.25 32.28 32.282 32.285 32.315 32.362 32.26 32.152 32.105 32.385 32.462 32.462 32.585 32.697 32.672 32.635 32.577 32.622 32.652 32.627 32.545 32.555 32.54 32.51 32.507 32.455 32.462 32.472 32.492 32.48 32.535 32.55 32.56 32.572 32.597 32.632 32.657 32.69 32.695 32.745 32.72 32.73 32.762 32.77 32.795 32.797 32.765 32.81 32.785 32.775 32.805 32.792 32.78 32.755 32.782 32.775 32.772 32.747 32.747 32.732 32.717 32.735 32.747 32.745 32.755 32.767 32.812 32.79 32.802 32.79 32.75 32.702 32.717 32.722 32.685 32.695 32.675 32.675 32.65 32.682 32.67 32.645 32.562 32.555 32.535 32.507 32.495 32.507 32.467 32.477 32.46 32.427 32.402 32.405 32.415 32.41 32.38 32.375 32.377 32.352 32.375 32.347 32.337 32.36 32.357 32.367 32.402 32.352 32.397 32.387 32.362 32.385 32.345 32.355 32.337 32.29 32.267 32.2 32.192 32.182 32.195 32.16 32.155 32.135 32.147 32.155 32.137 32.132 32.087 32.065 32.067 32.002 31.977 31.945 31.937 31.922 31.907 31.892 31.877 31.857 31.867 31.842 31.857 31.822 31.795 31.77 31.75 31.74 31.725 31.725 31.69 31.632 31.625 31.597 31.577 31.545 31.507 31.472 31.467 31.417 31.405 31.385 31.39 31.387 31.362 31.335 31.37 31.35 31.322 31.33 31.305 31.335 31.342 31.362 31.33 31.372 31.345 31.357 31.312 31.33 31.267 31.232 31.167 31.135 31.067 31.014 30.952 30.859 30.757 30.677 30.614 30.519 30.434 30.329 30.277 30.229 30.197 30.147 30.074 29.977 29.932 29.834 29.802 29.754 29.689 29.642 29.652 29.699 29.724 29.784 29.797 29.812 29.837 29.897 29.942 29.982
32.685 32.673 32.775 32.86 32.878 32.885 32.823 32.773 32.745 32.688 32.62 32.565 32.52 32.53 32.53 32.445 32.465 32.46 32.423 32.325 32.31 32.25 32.18 32.055 31.743 31.638 31.533 31.588 31.633 31.63 31.6 31.57 31.53 31.56 31.535 31.44 31.44 31.403 31.385 31.388 31.388 31.465 31.4 31.368 31.335 31.35 31.313 31.26 31.31 31.448 31.638 31.78 31.885 31.985 31.99 31.958 31.93 31.998 32 31.995 31.873 31.643 31.575 31.53 31.465 31.345 31.27 31.138 31.02 30.908 30.858 30.743 30.433 30.165 29.563 28.955 28.71 28.678 28.665 28.698 29.005 29.125 29.663 29.953 30.348 30.538 30.608 30.633 30.508 30.475 30.323 30.168 30.375 30.515 30.305 30.28 30.315 30.468 30.643 30.733 30.883 30.915 30.923 30.973 31.05 31.1 31.243 31.3 31.503 31.738 31.915 32.063 32.09 32.088 32.183 32.248 32.308 32.395 32.355 32.2 32.123 32.283 32.355 32.308 32.278 32.283 32.295 32.295 32.353 32.413 32.433 32.415 32.405 32.453 32.47 32.455 32.453 32.495 32.505 32.503 32.475 32.48 32.493 32.495 32.5 32.455 32.385 32.233 32.23 32.24 32.185 32.138 32.08 32.003 31.885 31.793 31.785 31.755 31.743 31.663 31.595 31.59 31.607 31.602 31.612 31.607 31.647 31.67 31.717 31.762 31.815 31.882 31.902 31.88 31.777 31.697 31.74 31.805 31.812 31.77 31.732 31.675 31.702 31.76 31.787 31.755 31.717 31.745 31.797 31.822 31.84 31.837 31.82 31.842 31.887 31.965 31.992 32.097 32.135 32.17 32.18 32.17 32.2 32.217 32.187 32.167 32.122 32.14 32.18 32.175 32.2 32.207 32.212 32.225 32.262 32.275 32.297 32.312 32.26 32.252 32.222 32.192 32.195 32.157 32.215 32.192 32.212 32.227 32.265 32.267 32.282 32.312 32.34 32.275 32.085 32.127 32.3 32.47 32.552 32.615 32.627 32.642 32.627 32.557 32.602 32.602 32.532 32.522 32.487 32.482 32.52 32.465 32.435 32.43 32.452 32.47 32.505 32.54 32.562 32.565 32.562 32.612 32.627 32.645 32.662 32.685 32.732 32.747 32.745 32.775 32.782 32.755 32.77 32.757 32.77 32.785 32.745 32.742 32.77 32.755 32.74 32.717 32.702 32.72 32.712 32.707 32.71 32.712 32.752 32.745 32.757 32.765 32.775 32.797 32.78 32.757 32.735 32.702 32.712 32.677 32.707 32.672 32.66 32.655 32.632 32.635 32.607 32.585 32.552 32.547 32.54 32.507 32.472 32.467 32.477 32.442 32.432 32.412 32.397 32.36 32.377 32.367 32.36 32.33 32.34 32.31 32.327 32.32 32.32 32.292 32.285 32.34 32.367 32.33 32.36 32.387 32.35 32.352 32.315 32.32 32.285 32.275 32.217 32.195 32.172 32.157 32.175 32.147 32.125 32.115 32.127 32.135 32.13 32.127 32.057 32.042 32.01 31.977 31.927 31.915 31.867 31.877 31.882 31.832 31.84 31.832 31.842 31.84 31.81 31.79 31.772 31.762 31.735 31.717 31.7 31.702 31.665 31.622 31.595 31.56 31.532 31.517 31.482 31.455 31.457 31.445 31.407 31.372 31.365 31.355 31.34 31.307 31.312 31.32 31.347 31.312 31.332 31.317 31.355 31.335 31.332 31.332 31.337 31.31 31.267 31.257 31.212 31.175 31.095 31.055 30.947 30.907 30.839 30.732 30.687 30.612 30.507 30.452 30.407 30.297 30.249 30.169 30.139 30.074 30.052 29.969 29.909 29.829 29.782 29.702 29.652 29.639 29.684 29.734 29.744 29.827 29.822 29.847 29.859 29.909 29.927 29.992
32.668 32.705 32.883 32.955 32.94 32.855 32.815 32.815 32.828 32.768 32.723 32.65 32.623 32.598 32.59 32.533 32.498 32.455 32.34 32.253 32.225 32.21 32.243 32.065 31.685 31.598 31.605 31.628 31.643 31.65 31.618 31.585 31.548 31.525 31.468 31.375 31.343 31.358 31.355 31.373 31.37 31.395 31.42 31.353 31.32 31.315 31.35 31.273 31.24 31.303 31.393 31.513 31.623 31.655 31.775 31.885 31.948 31.99 32.01 31.995 31.81 31.705 31.66 31.605 31.55 31.458 31.453 31.345 31.265 31.245 31.163 31.048 30.853 30.633 30.258 29.828 29.293 28.725 28.608 28.615 28.548 28.715 29.275 29.728 29.913 30.218 30.443 30.548 30.48 30.448 30.245 29.99 30.155 30.34 30.25 30.175 30.185 30.33 30.44 30.618 30.725 30.8 30.79 30.793 30.83 30.97 31.215 31.253 31.443 31.645 31.883 31.973 31.913 31.88 32.008 32.12 32.225 32.338 32.368 32.313 32.13 32.163 32.255 32.325 32.288 32.27 32.315 32.293 32.278 32.338 32.398 32.428 32.41 32.413 32.458 32.475 32.5 32.453 32.463 32.458 32.438 32.448 32.475 32.47 32.463 32.46 32.458 32.265 32.135 32.15 32.138 32.075 31.998 31.99 31.868 31.738 31.71 31.67 31.663 31.63 31.565 31.535 31.547 31.54 31.597 31.605 31.615 31.65 31.687 31.712 31.802 31.895 31.867 31.817 31.687 31.657 31.687 31.735 31.737 31.702 31.68 31.66 31.67 31.702 31.69 31.645 31.637 31.59 31.632 31.677 31.695 31.69 31.71 31.695 31.71 31.775 31.837 31.945 31.997 32.02 32.037 32.09 32.087 32.09 32.092 32.067 32.06 32.137 32.175 32.175 32.175 32.23 32.235 32.21 32.207 32.23 32.275 32.277 32.267 32.242 32.202 32.165 32.15 32.117 32.145 32.157 32.172 32.185 32.215 32.235 32.247 32.277 32.32 32.33 32.22 32.127 32.122 32.375 32.535 32.467 32.442 32.632 32.72 32.582 32.5 32.557 32.565 32.507 32.497 32.487 32.467 32.467 32.452 32.435 32.437 32.45 32.452 32.5 32.512 32.552 32.56 32.61 32.627 32.59 32.627 32.695 32.7 32.697 32.755 32.767 32.737 32.722 32.735 32.73 32.747 32.725 32.737 32.73 32.74 32.705 32.707 32.7 32.665 32.692 32.707 32.702 32.71 32.73 32.762 32.775 32.777 32.78 32.767 32.75 32.74 32.732 32.707 32.692 32.672 32.645 32.65 32.672 32.647 32.642 32.61 32.59 32.577 32.585 32.53 32.512 32.475 32.465 32.452 32.46 32.427 32.4 32.392 32.337 32.357 32.345 32.34 32.305 32.295 32.267 32.275 32.305 32.275 32.25 32.277 32.245 32.262 32.307 32.3 32.325 32.325 32.32 32.307 32.287 32.282 32.262 32.232 32.21 32.175 32.167 32.17 32.157 32.137 32.122 32.14 32.13 32.082 32.09 32.077 32.022 32.057 31.985 31.965 31.912 31.892 31.83 31.847 31.832 31.83 31.797 31.815 31.83 31.8 31.817 31.795 31.775 31.775 31.74 31.717 31.687 31.665 31.685 31.627 31.56 31.575 31.56 31.515 31.482 31.437 31.45 31.417 31.402 31.385 31.337 31.335 31.335 31.317 31.3 31.282 31.295 31.292 31.292 31.322 31.335 31.295 31.315 31.31 31.32 31.32 31.29 31.24 31.212 31.16 31.107 31.03 30.982 30.889 30.834 30.739 30.672 30.597 30.519 30.457 30.407 30.319 30.257 30.177 30.149 30.077 30.022 29.967 29.892 29.839 29.769 29.729 29.684 29.642 29.657 29.682 29.727 29.767 29.792 29.834 29.844 29.872 29.894 29.897 29.927
32.698 32.84 32.993 33.005 32.903 32.843 32.87 32.85 32.828 32.828 32.798 32.72 32.653 32.648 32.635 32.575 32.535 32.465 32.355 32.243 32.19 32.21 32.208 32.023 31.735 31.68 31.63 31.633 31.673 31.67 31.635 31.575 31.525 31.503 31.368 31.338 31.318 31.323 31.338 31.34 31.303 31.318 31.328 31.325 31.335 31.348 31.335 31.308 31.263 31.195 31.2 31.368 31.43 31.478 31.635 31.705 31.843 31.955 32.005 31.973 31.85 31.783 31.74 31.675 31.625 31.56 31.558 31.525 31.563 31.605 31.183 30.96 30.885 30.848 30.783 30.473 30.088 29.513 28.885 28.615 28.58 28.588 28.738 29.21 29.593 29.83 30 30.29 30.418 30.493 30.438 30.26 30.083 30.243 30.25 30.193 30.178 30.148 30.318 30.513 30.613 30.65 30.653 30.625 30.67 30.9 31.068 31.23 31.398 31.708 31.833 31.745 31.673 31.72 31.773 31.965 32.088 32.153 32.24 32.283 32.19 32.073 32.105 32.32 32.323 32.305 32.288 32.305 32.268 32.3 32.36 32.408 32.43 32.43 32.42 32.453 32.448 32.433 32.433 32.415 32.418 32.41 32.44 32.48 32.435 32.43 32.44 32.298 32.108 32.065 32.073 31.993 31.935 31.91 31.823 31.713 31.675 31.635 31.61 31.58 31.552 31.515 31.492 31.48 31.515 31.58 31.592 31.58 31.65 31.71 31.767 31.795 31.822 31.827 31.812 31.727 31.622 31.645 31.615 31.625 31.635 31.635 31.66 31.635 31.625 31.525 31.53 31.452 31.462 31.467 31.52 31.57 31.545 31.532 31.53 31.567 31.682 31.732 31.827 31.832 31.892 31.932 31.975 32.002 32.025 32.075 32.077 32.125 32.167 32.175 32.2 32.215 32.19 32.195 32.207 32.207 32.232 32.25 32.222 32.227 32.177 32.162 32.15 32.135 32.12 32.16 32.147 32.147 32.157 32.2 32.235 32.26 32.295 32.322 32.305 32.262 32.097 32.2 32.51 32.502 32.43 32.505 32.642 32.722 32.532 32.477 32.542 32.537 32.5 32.49 32.49 32.457 32.465 32.445 32.435 32.427 32.45 32.487 32.48 32.535 32.545 32.557 32.585 32.592 32.61 32.677 32.672 32.68 32.71 32.71 32.705 32.702 32.69 32.722 32.727 32.692 32.705 32.7 32.717 32.695 32.692 32.657 32.645 32.642 32.685 32.727 32.695 32.7 32.737 32.77 32.735 32.732 32.742 32.752 32.727 32.702 32.67 32.66 32.635 32.615 32.615 32.592 32.635 32.607 32.587 32.54 32.53 32.512 32.475 32.45 32.447 32.427 32.385 32.392 32.352 32.31 32.292 32.3 32.292 32.29 32.275 32.257 32.245 32.237 32.232 32.23 32.235 32.222 32.23 32.245 32.232 32.26 32.232 32.3 32.272 32.265 32.265 32.267 32.212 32.205 32.22 32.177 32.162 32.16 32.16 32.132 32.13 32.087 32.087 32.1 32.075 32.067 32.027 32.002 32.005 31.965 31.92 31.907 31.855 31.807 31.81 31.827 31.79 31.79 31.787 31.775 31.777 31.795 31.792 31.74 31.76 31.712 31.67 31.657 31.64 31.61 31.592 31.557 31.537 31.54 31.505 31.467 31.427 31.43 31.42 31.382 31.342 31.347 31.325 31.312 31.292 31.272 31.282 31.275 31.275 31.285 31.3 31.292 31.297 31.295 31.275 31.3 31.287 31.25 31.212 31.16 31.095 31.04 30.982 30.922 30.854 30.764 30.639 30.584 30.527 30.462 30.379 30.319 30.227 30.182 30.144 30.072 29.999 29.982 29.917 29.844 29.814 29.727 29.659 29.637 29.644 29.652 29.644 29.687 29.769 29.772 29.799 29.829 29.874 29.869 29.864 29.884
32.78 32.988 33.058 33.025 32.98 32.928 32.885 32.835 32.845 32.88 32.853 32.835 32.773 32.705 32.68 32.575 32.535 32.47 32.405 32.265 32.208 32.155 32.098 31.935 31.915 31.838 31.75 31.668 31.638 31.67 31.608 31.575 31.565 31.43 31.31 31.31 31.305 31.308 31.26 31.268 31.288 31.285 31.323 31.35 31.395 31.403 31.37 31.318 31.295 31.22 31.21 31.225 31.225 31.313 31.43 31.528 31.668 31.773 31.893 31.978 31.908 31.87 31.803 31.75 31.7 31.648 31.715 31.763 31.765 31.733 31.49 31.158 30.908 30.875 30.878 30.828 30.685 30.365 29.85 29.138 28.715 28.595 28.6 28.635 28.965 29.238 29.695 29.933 30.158 30.32 30.393 30.44 30.343 30.298 30.273 30.22 30.105 30.105 30.238 30.368 30.53 30.513 30.473 30.46 30.533 30.673 30.86 31.08 31.29 31.665 31.538 31.443 31.448 31.503 31.58 31.773 31.873 31.953 32.158 32.2 32.275 32.205 32.005 32.088 32.275 32.33 32.29 32.298 32.325 32.343 32.295 32.343 32.405 32.425 32.398 32.393 32.4 32.43 32.433 32.408 32.408 32.383 32.38 32.413 32.395 32.403 32.398 32.35 32.163 32.108 32.018 31.978 31.933 31.87 31.815 31.71 31.675 31.603 31.568 31.505 31.475 31.492 31.47 31.47 31.497 31.545 31.575 31.585 31.64 31.652 31.695 31.74 31.782 31.817 31.942 31.847 31.57 31.532 31.505 31.462 31.53 31.527 31.55 31.56 31.462 31.395 31.397 31.315 31.29 31.322 31.337 31.392 31.382 31.382 31.372 31.345 31.417 31.547 31.65 31.697 31.79 31.86 31.87 31.935 31.995 32.057 32.075 32.065 32.107 32.185 32.177 32.17 32.16 32.2 32.212 32.22 32.2 32.205 32.185 32.187 32.187 32.177 32.13 32.107 32.115 32.105 32.082 32.105 32.12 32.147 32.192 32.255 32.252 32.232 32.265 32.295 32.162 32.075 32.162 32.4 32.482 32.52 32.427 32.652 32.622 32.49 32.502 32.517 32.492 32.442 32.445 32.452 32.427 32.4 32.4 32.445 32.435 32.43 32.475 32.49 32.53 32.555 32.54 32.575 32.612 32.63 32.625 32.637 32.637 32.655 32.677 32.7 32.672 32.682 32.682 32.665 32.675 32.672 32.7 32.677 32.675 32.652 32.672 32.667 32.687 32.682 32.73 32.72 32.7 32.737 32.722 32.705 32.707 32.71 32.682 32.697 32.675 32.61 32.582 32.592 32.572 32.56 32.55 32.527 32.537 32.512 32.502 32.48 32.48 32.427 32.41 32.39 32.345 32.332 32.28 32.287 32.277 32.242 32.252 32.23 32.227 32.227 32.19 32.177 32.18 32.182 32.195 32.222 32.212 32.2 32.217 32.202 32.202 32.227 32.235 32.24 32.247 32.232 32.195 32.192 32.167 32.147 32.147 32.142 32.127 32.13 32.127 32.087 32.075 32.09 32.025 32.01 32.002 31.937 31.95 31.907 31.91 31.83 31.817 31.787 31.772 31.762 31.78 31.762 31.79 31.792 31.787 31.772 31.74 31.735 31.715 31.657 31.662 31.637 31.625 31.56 31.537 31.527 31.5 31.487 31.452 31.427 31.415 31.42 31.385 31.362 31.337 31.31 31.31 31.275 31.23 31.26 31.267 31.267 31.295 31.275 31.287 31.282 31.262 31.277 31.272 31.275 31.23 31.192 31.13 31.112 31.03 30.987 30.915 30.862 30.749 30.679 30.592 30.509 30.452 30.382 30.312 30.252 30.172 30.119 30.099 30.052 29.959 29.934 29.857 29.807 29.784 29.754 29.674 29.642 29.662 29.669 29.694 29.714 29.774 29.779 29.794 29.822 29.829 29.817 29.824 29.844
32.92 32.998 33.06 33.063 33.003 32.94 32.92 32.88 32.975 32.935 32.9 32.9 32.885 32.83 32.73 32.6 32.545 32.515 32.38 32.245 32.213 32.17 32.095 32.045 32 31.965 31.878 31.798 31.623 31.62 31.618 31.6 31.55 31.425 31.343 31.343 31.35 31.318 31.258 31.228 31.283 31.305 31.328 31.358 31.36 31.395 31.47 31.418 31.328 31.233 31.26 31.278 31.243 31.248 31.245 31.308 31.42 31.615 31.758 31.87 31.913 31.933 31.868 31.808 31.745 31.755 31.8 31.788 31.755 31.718 31.665 31.333 30.97 30.93 30.9 30.87 30.878 30.62 30.403 30.133 29.373 28.778 28.635 28.6 28.633 28.648 28.965 29.483 29.788 29.93 30.15 30.32 30.395 30.373 30.318 30.265 30.175 30.208 30.183 30.285 30.393 30.343 30.295 30.455 30.51 30.553 30.84 30.953 31.103 31.275 31.205 31.16 31.208 31.363 31.455 31.558 31.705 31.858 31.955 32.038 32.14 32.338 32.048 31.958 32.088 32.258 32.31 32.305 32.333 32.348 32.313 32.29 32.34 32.403 32.42 32.403 32.378 32.393 32.405 32.37 32.353 32.343 32.345 32.348 32.365 32.36 32.335 32.335 32.295 32.208 32.113 32.025 31.893 31.868 31.83 31.72 31.66 31.605 31.555 31.488 31.445 31.447 31.482 31.512 31.492 31.537 31.547 31.567 31.597 31.582 31.58 31.672 31.697 31.65 31.67 31.507 31.472 31.485 31.347 31.317 31.337 31.375 31.387 31.397 31.345 31.297 31.255 31.24 31.19 31.247 31.275 31.315 31.365 31.352 31.312 31.3 31.352 31.405 31.507 31.63 31.727 31.822 31.837 31.867 31.982 32.005 32.055 32.04 32.04 32.09 32.12 32.132 32.167 32.167 32.182 32.187 32.182 32.137 32.097 32.137 32.185 32.205 32.142 32.067 32.085 32.06 32.032 32.1 32.12 32.127 32.14 32.175 32.19 32.182 32.23 32.265 32.237 32.147 32.055 32.152 32.402 32.47 32.377 32.415 32.545 32.592 32.43 32.457 32.487 32.435 32.437 32.445 32.45 32.42 32.402 32.447 32.47 32.455 32.457 32.482 32.487 32.515 32.525 32.507 32.55 32.617 32.59 32.602 32.59 32.612 32.627 32.655 32.642 32.647 32.657 32.652 32.65 32.685 32.655 32.625 32.617 32.6 32.612 32.652 32.667 32.685 32.695 32.725 32.692 32.712 32.697 32.705 32.66 32.647 32.62 32.645 32.635 32.597 32.557 32.572 32.547 32.552 32.527 32.5 32.52 32.52 32.482 32.437 32.422 32.397 32.4 32.362 32.337 32.317 32.27 32.24 32.23 32.19 32.217 32.2 32.18 32.185 32.175 32.137 32.157 32.122 32.175 32.167 32.147 32.162 32.19 32.19 32.192 32.207 32.215 32.185 32.167 32.2 32.162 32.142 32.142 32.11 32.11 32.112 32.097 32.09 32.072 32.092 32.045 32.027 32.027 31.995 31.967 31.942 31.895 31.867 31.837 31.795 31.79 31.777 31.757 31.76 31.752 31.755 31.752 31.762 31.772 31.75 31.702 31.71 31.682 31.65 31.622 31.622 31.582 31.552 31.517 31.51 31.465 31.465 31.427 31.412 31.372 31.365 31.355 31.34 31.302 31.305 31.285 31.27 31.227 31.275 31.247 31.265 31.247 31.27 31.255 31.265 31.275 31.247 31.235 31.185 31.177 31.147 31.1 31.035 30.987 30.887 30.83 30.782 30.699 30.614 30.517 30.447 30.399 30.334 30.252 30.172 30.117 30.082 30.017 30.012 29.969 29.934 29.837 29.769 29.774 29.757 29.699 29.692 29.677 29.667 29.744 29.779 29.809 29.779 29.789 29.809 29.804 29.797 29.809 29.797
32.96 33.015 33.058 33.058 33.013 32.958 32.953 32.948 33.003 33.05 32.99 32.973 32.953 32.91 32.825 32.638 32.56 32.503 32.41 32.298 32.225 32.178 32.095 32.078 32.035 32.003 31.943 31.85 31.793 31.7 31.605 31.59 31.518 31.425 31.388 31.393 31.375 31.325 31.318 31.298 31.305 31.31 31.323 31.363 31.443 31.51 31.528 31.508 31.408 31.34 31.28 31.253 31.248 31.285 31.225 31.238 31.328 31.465 31.6 31.713 31.773 31.87 31.858 31.74 31.713 31.76 31.765 31.755 31.738 31.703 31.693 31.618 31.26 31.068 31.003 30.985 30.998 30.863 30.695 30.578 30.178 29.525 29.025 28.84 28.76 28.668 28.625 28.785 29.163 29.17 29.575 29.983 30.323 30.475 30.375 30.26 30.255 30.203 30.178 30.145 30.325 30.3 30.31 30.498 30.578 30.833 31.095 30.953 30.98 30.99 30.913 30.91 30.985 31.14 31.28 31.425 31.568 31.693 31.783 31.863 31.985 32.163 32.123 31.938 31.913 32.128 32.265 32.268 32.323 32.325 32.293 32.293 32.258 32.313 32.363 32.368 32.323 32.34 32.363 32.33 32.305 32.295 32.32 32.32 32.333 32.305 32.28 32.265 32.288 32.195 32.13 32.023 31.878 31.853 31.86 31.755 31.653 31.65 31.583 31.533 31.477 31.44 31.45 31.49 31.495 31.53 31.572 31.565 31.575 31.522 31.507 31.455 31.385 31.307 31.197 31.145 31.31 31.432 31.19 31.142 31.147 31.187 31.23 31.285 31.275 31.247 31.21 31.142 31.185 31.235 31.25 31.302 31.345 31.372 31.36 31.322 31.307 31.305 31.35 31.48 31.622 31.717 31.787 31.83 31.902 31.947 31.962 32.002 32.032 32.062 32.067 32.1 32.15 32.175 32.14 32.195 32.207 32.157 32.115 32.122 32.162 32.182 32.17 32.11 32.062 32.057 32.055 32.07 32.112 32.117 32.092 32.115 32.12 32.175 32.167 32.19 32.272 32.277 32.14 32.007 32.235 32.487 32.465 32.427 32.457 32.6 32.49 32.452 32.44 32.447 32.395 32.412 32.425 32.452 32.41 32.407 32.447 32.46 32.455 32.447 32.505 32.502 32.52 32.527 32.517 32.572 32.545 32.55 32.557 32.585 32.592 32.595 32.6 32.62 32.647 32.652 32.595 32.602 32.57 32.577 32.615 32.585 32.6 32.655 32.675 32.635 32.637 32.657 32.682 32.685 32.7 32.672 32.662 32.647 32.602 32.585 32.58 32.547 32.552 32.54 32.505 32.52 32.52 32.477 32.45 32.455 32.442 32.41 32.36 32.382 32.37 32.322 32.31 32.252 32.267 32.19 32.167 32.177 32.162 32.147 32.11 32.117 32.132 32.122 32.112 32.1 32.12 32.11 32.132 32.142 32.155 32.14 32.157 32.142 32.145 32.132 32.115 32.117 32.125 32.092 32.09 32.082 32.092 32.077 32.08 32.075 32.072 32.057 32.027 32 32.01 31.947 31.937 31.89 31.842 31.827 31.832 31.785 31.767 31.785 31.79 31.772 31.745 31.735 31.747 31.727 31.697 31.705 31.675 31.65 31.63 31.62 31.587 31.577 31.555 31.512 31.51 31.5 31.47 31.437 31.4 31.382 31.35 31.345 31.322 31.332 31.31 31.292 31.292 31.29 31.285 31.262 31.245 31.242 31.247 31.237 31.245 31.242 31.23 31.207 31.177 31.145 31.11 31.077 31.022 30.97 30.895 30.837 30.755 30.7 30.622 30.559 30.482 30.402 30.334 30.299 30.207 30.137 30.084 30.042 29.974 29.962 29.909 29.864 29.847 29.807 29.769 29.702 29.729 29.709 29.724 29.732 29.794 29.814 29.814 29.844 29.842 29.824 29.804 29.769 29.734 29.729
32.995 33.01 33.043 33.063 33.023 32.985 32.99 32.993 33.01 33.1 33.143 33.128 33.088 33.028 32.985 32.775 32.69 32.568 32.545 32.43 32.295 32.198 32.123 32.093 32.093 32.018 31.955 31.888 31.86 31.788 31.69 31.645 31.59 31.455 31.44 31.42 31.39 31.35 31.373 31.37 31.355 31.343 31.335 31.388 31.5 31.44 31.438 31.41 31.405 31.413 31.373 31.355 31.28 31.28 31.28 31.303 31.255 31.32 31.42 31.57 31.673 31.753 31.73 31.695 31.728 31.733 31.728 31.718 31.71 31.745 31.703 31.703 31.653 31.55 31.283 31.143 31.083 30.953 30.925 30.833 30.503 30.215 29.983 29.693 29.17 28.758 28.628 28.538 28.523 28.65 29.03 29.545 29.83 30.33 30.328 30.22 30.205 30.275 30.353 30.478 30.333 30.31 30.385 30.55 30.748 31.433 31.45 31.075 30.845 30.79 30.74 30.698 30.805 30.923 31.108 31.263 31.473 31.503 31.615 31.665 31.753 31.92 32.01 31.898 31.858 31.895 32.085 32.185 32.253 32.263 32.23 32.225 32.213 32.235 32.298 32.278 32.293 32.28 32.288 32.308 32.285 32.258 32.283 32.29 32.265 32.253 32.228 32.208 32.185 32.088 32.028 31.93 31.808 31.835 31.888 31.813 31.715 31.66 31.615 31.56 31.487 31.447 31.45 31.47 31.5 31.552 31.62 31.547 31.507 31.432 31.325 31.185 31.085 31.037 30.985 30.937 31.087 31.217 31.012 31.01 31.04 31.037 31.102 31.18 31.157 31.13 31.112 31.122 31.155 31.21 31.247 31.235 31.267 31.3 31.337 31.35 31.32 31.302 31.335 31.402 31.522 31.615 31.702 31.742 31.852 31.882 31.897 31.955 31.985 32.047 32.072 32.07 32.072 32.12 32.162 32.207 32.212 32.155 32.107 32.107 32.14 32.14 32.155 32.127 32.085 32.06 32.052 32.042 32.032 32.05 32.097 32.102 32.105 32.115 32.142 32.18 32.205 32.222 32.232 32.047 32.022 32.225 32.495 32.525 32.687 32.657 32.407 32.47 32.385 32.402 32.415 32.44 32.46 32.45 32.432 32.412 32.417 32.425 32.475 32.452 32.455 32.47 32.45 32.48 32.505 32.487 32.51 32.54 32.545 32.532 32.547 32.572 32.575 32.577 32.59 32.597 32.585 32.57 32.55 32.555 32.615 32.605 32.612 32.647 32.65 32.615 32.627 32.635 32.64 32.645 32.655 32.632 32.61 32.612 32.572 32.555 32.54 32.54 32.497 32.517 32.497 32.512 32.48 32.432 32.402 32.412 32.39 32.367 32.342 32.32 32.322 32.282 32.235 32.2 32.182 32.155 32.102 32.125 32.122 32.077 32.085 32.07 32.062 32.085 32.085 32.11 32.07 32.092 32.11 32.125 32.135 32.125 32.085 32.105 32.085 32.077 32.06 32.077 32.065 32.065 32.06 32.067 32.082 32.067 32.077 32.06 32.065 32.057 32.035 31.982 31.94 31.927 31.892 31.85 31.812 31.822 31.795 31.78 31.762 31.737 31.735 31.752 31.732 31.727 31.7 31.7 31.677 31.685 31.635 31.595 31.602 31.595 31.527 31.525 31.515 31.49 31.472 31.467 31.442 31.42 31.347 31.34 31.317 31.31 31.322 31.302 31.312 31.29 31.277 31.247 31.247 31.232 31.227 31.227 31.205 31.22 31.24 31.21 31.197 31.17 31.16 31.13 31.045 30.977 30.935 30.872 30.835 30.742 30.667 30.637 30.572 30.512 30.479 30.372 30.284 30.239 30.164 30.104 30.082 29.987 29.957 29.932 29.919 29.812 29.842 29.829 29.794 29.732 29.712 29.734 29.759 29.794 29.792 29.794 29.832 29.844 29.844 29.787 29.794 29.732 29.694 29.662
33.15 33.128 33.118 33.068 33.053 33.01 33.023 33.038 33.075 33.195 33.263 33.245 33.173 33.125 33.1 32.995 33 32.848 32.745 32.583 32.438 32.345 32.19 32.123 32.105 32.048 31.98 31.903 31.9 31.925 31.845 31.728 31.625 31.465 31.478 31.445 31.405 31.403 31.43 31.42 31.36 31.39 31.323 31.435 31.435 31.3 31.393 31.425 31.428 31.41 31.418 31.395 31.333 31.253 31.293 31.29 31.32 31.31 31.42 31.508 31.633 31.693 31.67 31.663 31.675 31.708 31.713 31.715 31.725 31.75 31.785 31.733 31.738 31.668 31.418 31.245 31.175 31.093 31.03 30.998 30.768 30.595 30.455 30.313 29.845 29.278 28.865 28.665 28.548 28.555 28.798 29.125 29.158 29.615 30.095 30.138 30.118 30.303 30.655 31 30.81 30.588 30.613 30.89 31.365 31.58 31.255 30.795 30.63 30.66 30.658 30.585 30.568 30.745 30.923 31.033 31.265 31.335 31.45 31.528 31.653 31.785 31.885 31.908 31.875 31.815 31.853 32.028 32.09 32.113 32.113 32.138 32.143 32.158 32.14 32.158 32.21 32.215 32.193 32.218 32.205 32.218 32.225 32.213 32.205 32.193 32.198 32.14 32.14 32.058 31.983 31.89 31.725 31.765 31.838 31.83 31.705 31.64 31.588 31.545 31.517 31.51 31.517 31.467 31.547 31.572 31.582 31.462 31.345 31.217 31.055 31.012 30.977 30.84 30.837 30.857 30.887 30.962 30.915 30.882 30.922 30.91 30.937 30.985 31.052 31.052 31.025 31.052 31.1 31.127 31.145 31.185 31.187 31.215 31.27 31.3 31.36 31.37 31.36 31.4 31.477 31.52 31.615 31.672 31.777 31.86 31.847 31.88 31.922 31.975 31.995 32.037 32.067 32.082 32.12 32.2 32.232 32.19 32.137 32.13 32.085 32.13 32.142 32.112 32.095 32.067 32.05 32.035 32.012 31.997 32.027 32.075 32.11 32.087 32.1 32.142 32.11 32.152 32.19 32.182 32.037 31.967 32.26 32.535 32.662 32.52 32.377 32.47 32.472 32.377 32.417 32.452 32.46 32.44 32.41 32.412 32.432 32.407 32.427 32.435 32.442 32.427 32.455 32.437 32.457 32.47 32.48 32.49 32.51 32.475 32.485 32.502 32.537 32.537 32.542 32.562 32.512 32.525 32.532 32.537 32.575 32.587 32.605 32.622 32.637 32.58 32.617 32.627 32.622 32.612 32.615 32.572 32.607 32.552 32.572 32.525 32.53 32.51 32.502 32.507 32.467 32.427 32.432 32.412 32.367 32.377 32.352 32.347 32.302 32.282 32.24 32.247 32.21 32.162 32.17 32.132 32.102 32.107 32.092 32.07 32.062 32.055 32.032 32.047 32.065 32.057 32.057 32.08 32.09 32.085 32.092 32.072 32.052 32.052 32.062 32.057 32.035 32.05 32.05 32.03 32.045 32.045 32.055 32.077 32.075 32.072 32.072 32.027 32.002 31.94 31.93 31.84 31.835 31.82 31.817 31.817 31.782 31.775 31.772 31.73 31.735 31.727 31.697 31.707 31.717 31.662 31.657 31.632 31.602 31.585 31.552 31.565 31.512 31.492 31.49 31.462 31.437 31.425 31.402 31.367 31.325 31.295 31.315 31.287 31.262 31.29 31.297 31.28 31.262 31.257 31.237 31.227 31.235 31.225 31.207 31.22 31.212 31.212 31.202 31.152 31.117 31.097 30.995 30.95 30.867 30.775 30.745 30.7 30.647 30.6 30.567 30.477 30.419 30.344 30.264 30.212 30.134 30.074 30.029 30.009 29.939 29.932 29.844 29.829 29.834 29.814 29.779 29.762 29.762 29.749 29.769 29.787 29.817 29.829 29.802 29.799 29.792 29.802 29.764 29.707 29.662 29.629
33.308 33.228 33.205 33.145 33.135 33.105 33.06 33.055 33.135 33.23 33.328 33.31 33.26 33.258 33.218 33.215 33.235 33.193 32.975 32.623 32.63 32.548 32.298 32.205 32.15 32.08 32.018 32.03 31.983 31.935 31.835 31.793 31.718 31.643 31.528 31.47 31.438 31.433 31.458 31.42 31.41 31.39 31.433 31.468 31.45 31.355 31.37 31.478 31.495 31.443 31.453 31.423 31.39 31.385 31.28 31.29 31.378 31.365 31.42 31.525 31.603 31.655 31.64 31.645 31.64 31.705 31.718 31.705 31.728 31.788 31.778 31.695 31.74 31.688 31.458 31.278 31.283 31.28 31.213 31.125 31.023 30.885 30.703 30.603 30.503 30.253 29.578 28.993 28.778 28.648 28.633 28.68 28.665 28.928 29.2 29.67 30.02 30.268 30.733 31.225 31.368 31.215 31.19 31.458 31.74 31.315 30.903 30.663 30.565 30.56 30.61 30.568 30.458 30.578 30.718 30.868 31.12 31.183 31.318 31.405 31.498 31.545 31.725 31.905 31.87 31.785 31.743 31.81 31.905 31.925 31.993 32.038 32.088 32.105 32.058 32.038 32.075 32.095 32.085 32.103 32.113 32.135 32.145 32.135 32.12 32.135 32.133 32.125 32.1 31.995 31.89 31.805 31.713 31.69 31.738 31.808 31.755 31.638 31.563 31.533 31.557 31.557 31.592 31.542 31.522 31.525 31.375 31.285 31.147 31.065 30.967 30.93 30.89 30.827 30.822 30.822 30.852 30.86 30.805 30.775 30.827 30.802 30.817 30.84 30.882 30.927 30.982 31.005 31.06 31.067 31.037 31.052 31.072 31.122 31.152 31.19 31.285 31.347 31.347 31.36 31.415 31.427 31.532 31.645 31.69 31.775 31.802 31.825 31.86 31.925 31.95 32.002 32.015 32.04 32.092 32.13 32.137 32.162 32.187 32.16 32.107 32.11 32.155 32.137 32.117 32.107 32.07 32.055 32.022 32.012 32.007 32.032 32.117 32.095 32.052 32.107 32.092 32.085 32.142 32.137 32.16 32.005 31.997 32.262 32.315 32.302 32.357 32.392 32.492 32.52 32.397 32.407 32.47 32.435 32.425 32.415 32.42 32.427 32.42 32.425 32.45 32.432 32.42 32.395 32.4 32.43 32.452 32.467 32.462 32.47 32.462 32.45 32.5 32.5 32.48 32.487 32.472 32.502 32.56 32.562 32.575 32.53 32.562 32.58 32.595 32.577 32.587 32.587 32.56 32.542 32.565 32.535 32.535 32.525 32.51 32.502 32.485 32.477 32.452 32.455 32.43 32.425 32.37 32.362 32.36 32.355 32.322 32.302 32.265 32.237 32.222 32.192 32.152 32.132 32.14 32.092 32.067 32.065 32.047 32.037 32.037 32.035 32.02 32.03 32.015 32.052 32.067 32.072 32.062 32.07 32.07 32.052 32.045 32.027 32.017 31.99 31.977 32.02 32.03 32.022 32.037 32.027 32.025 32.065 32.062 32.047 32.05 31.997 31.975 31.925 31.88 31.825 31.79 31.785 31.782 31.775 31.755 31.735 31.715 31.715 31.72 31.685 31.687 31.675 31.687 31.627 31.6 31.585 31.555 31.545 31.53 31.527 31.5 31.487 31.505 31.447 31.4 31.387 31.377 31.36 31.312 31.3 31.275 31.27 31.257 31.277 31.267 31.262 31.217 31.235 31.227 31.23 31.227 31.215 31.202 31.23 31.2 31.185 31.18 31.135 31.08 31.01 30.942 30.872 30.792 30.735 30.672 30.632 30.6 30.557 30.524 30.447 30.384 30.294 30.272 30.194 30.132 30.087 30.012 29.979 29.947 29.899 29.857 29.787 29.824 29.797 29.767 29.739 29.742 29.762 29.764 29.794 29.814 29.797 29.797 29.814 29.759 29.772 29.784 29.687 29.652 29.594
33.463 33.385 33.328 33.31 33.31 33.28 33.198 33.168 33.253 33.285 33.335 33.343 33.343 33.323 33.325 33.335 33.325 33.215 33.185 32.963 32.68 32.553 32.43 32.31 32.263 32.193 32.103 32.055 32.033 31.973 31.858 31.83 31.765 31.718 31.663 31.52 31.473 31.488 31.438 31.42 31.468 31.43 31.478 31.453 31.433 31.46 31.48 31.625 31.755 31.59 31.515 31.5 31.458 31.4 31.415 31.425 31.398 31.398 31.5 31.485 31.54 31.618 31.655 31.705 31.695 31.708 31.708 31.688 31.705 31.71 31.713 31.723 31.735 31.603 31.385 31.335 31.353 31.363 31.343 31.248 31.165 31.06 30.903 30.773 30.738 30.67 30.333 29.945 29.395 28.905 28.755 28.585 28.605 28.773 28.808 28.78 29.783 30.028 30.405 30.95 31.27 31.58 31.688 31.823 31.645 31.103 30.763 30.623 30.563 30.513 30.538 30.528 30.488 30.493 30.503 30.643 30.853 30.978 31.11 31.275 31.393 31.46 31.548 31.708 31.753 31.723 31.688 31.655 31.715 31.74 31.813 31.94 31.978 32.003 31.98 31.925 31.923 31.95 31.985 31.983 31.98 32.035 32.058 32.053 32.005 32.01 32.05 32.023 32.033 31.955 31.823 31.7 31.705 31.773 31.728 31.755 31.758 31.685 31.633 31.67 31.645 31.72 31.672 31.512 31.427 31.295 31.242 31.16 31.09 31.045 30.96 30.927 30.875 30.79 30.782 30.795 30.86 30.822 30.792 30.767 30.765 30.775 30.75 30.73 30.76 30.81 30.842 30.942 30.98 30.992 30.982 30.967 30.967 30.98 31.027 31.072 31.157 31.217 31.27 31.315 31.35 31.37 31.437 31.53 31.6 31.677 31.742 31.812 31.822 31.837 31.88 31.922 31.947 31.987 32.005 32.072 32.112 32.162 32.175 32.192 32.185 32.187 32.145 32.112 32.11 32.14 32.072 32.065 32.03 32.017 32.015 32.035 32.067 32.047 32.05 32.047 32.067 32.062 32.085 32.11 32.145 32.07 31.975 32.03 32.217 32.352 32.402 32.337 32.355 32.645 32.487 32.42 32.442 32.43 32.4 32.45 32.447 32.437 32.4 32.375 32.335 32.412 32.417 32.387 32.375 32.415 32.42 32.42 32.425 32.427 32.437 32.417 32.427 32.427 32.415 32.395 32.44 32.48 32.525 32.547 32.535 32.517 32.565 32.567 32.555 32.582 32.557 32.55 32.505 32.49 32.522 32.512 32.485 32.475 32.505 32.472 32.437 32.44 32.455 32.415 32.362 32.365 32.35 32.335 32.337 32.285 32.252 32.235 32.205 32.2 32.172 32.182 32.137 32.08 32.095 32.095 32.017 32.037 32.012 32.02 32.005 32.02 32.007 31.987 31.99 32.015 32.01 32.032 32.045 32.025 32.015 31.98 32.002 31.98 31.965 31.952 31.96 31.972 31.977 32.002 32.01 32.017 32.02 32.027 32.037 32.005 32.017 31.962 31.962 31.902 31.855 31.81 31.802 31.802 31.745 31.712 31.74 31.745 31.707 31.7 31.69 31.692 31.642 31.627 31.645 31.617 31.575 31.557 31.502 31.497 31.477 31.472 31.46 31.462 31.455 31.41 31.377 31.347 31.347 31.292 31.29 31.285 31.277 31.245 31.247 31.26 31.255 31.22 31.237 31.25 31.225 31.212 31.22 31.2 31.215 31.215 31.167 31.18 31.15 31.125 31.047 30.96 30.902 30.805 30.74 30.705 30.642 30.592 30.567 30.55 30.454 30.422 30.327 30.282 30.242 30.192 30.147 30.069 30.022 29.967 29.957 29.854 29.824 29.779 29.779 29.787 29.759 29.749 29.734 29.732 29.747 29.754 29.772 29.782 29.809 29.794 29.754 29.744 29.709 29.649 29.597 29.539
33.57 33.53 33.533 33.495 33.485 33.45 33.393 33.36 33.373 33.36 33.395 33.413 33.39 33.355 33.353 33.358 33.315 33.24 33.218 33.208 33.038 32.75 32.583 32.453 32.348 32.293 32.198 32.17 32.23 32.008 31.893 31.863 31.81 31.748 31.73 31.728 31.665 31.563 31.468 31.46 31.483 31.483 31.503 31.458 31.523 31.543 31.645 31.86 32.058 31.928 31.748 31.623 31.57 31.535 31.513 31.548 31.508 31.48 31.54 31.583 31.633 31.638 31.683 31.708 31.695 31.685 31.69 31.7 31.7 31.72 31.615 31.738 31.723 31.695 31.558 31.47 31.41 31.395 31.375 31.325 31.278 31.213 31.31 30.995 30.868 30.87 30.763 30.538 30.27 29.685 29.32 29 28.55 28.63 28.7 28.598 28.875 29.22 29.753 30.375 30.988 31.603 31.838 31.885 31.503 30.93 30.635 30.528 30.478 30.473 30.51 30.533 30.47 30.373 30.373 30.423 30.598 30.783 30.938 31.11 31.24 31.325 31.41 31.473 31.525 31.583 31.55 31.515 31.51 31.59 31.655 31.778 31.863 31.895 31.883 31.86 31.83 31.803 31.838 31.868 31.853 31.903 31.935 31.955 31.933 31.943 31.945 31.935 31.965 31.908 31.77 31.67 31.685 31.77 31.76 31.738 31.788 31.805 31.818 31.793 31.695 31.637 31.492 31.47 31.435 31.292 31.187 31.14 31.052 30.98 30.91 30.905 30.837 30.79 30.78 30.845 30.845 30.785 30.735 30.725 30.732 30.7 30.73 30.72 30.682 30.732 30.742 30.845 30.92 30.93 30.96 30.92 30.91 30.887 30.927 30.972 31.03 31.117 31.167 31.252 31.272 31.28 31.325 31.427 31.455 31.552 31.645 31.757 31.802 31.795 31.82 31.82 31.852 31.9 31.96 31.982 32.062 32.087 32.135 32.15 32.16 32.187 32.18 32.135 32.11 32.12 32.105 32.052 32.022 32.025 31.987 31.997 32.007 32.01 32.055 31.995 32.012 32.022 32.045 32.017 32.047 32.087 32.05 31.962 31.985 32.267 32.415 32.232 32.115 32.422 32.502 32.425 32.357 32.447 32.425 32.41 32.375 32.432 32.405 32.367 32.332 32.335 32.367 32.362 32.325 32.35 32.352 32.382 32.347 32.385 32.405 32.367 32.372 32.335 32.38 32.372 32.427 32.472 32.47 32.525 32.537 32.517 32.525 32.515 32.525 32.535 32.515 32.532 32.487 32.435 32.432 32.407 32.412 32.48 32.462 32.44 32.42 32.392 32.392 32.357 32.322 32.335 32.31 32.302 32.287 32.24 32.202 32.172 32.15 32.135 32.14 32.115 32.1 32.067 32.06 32.055 31.985 32 32 31.99 31.982 32.01 31.987 31.972 31.99 31.99 31.96 31.987 31.99 31.997 31.987 31.962 31.96 31.96 31.945 31.935 31.935 31.952 31.955 31.97 31.967 31.987 32.01 31.995 31.98 31.975 31.995 31.95 31.912 31.867 31.827 31.807 31.772 31.765 31.75 31.717 31.73 31.702 31.71 31.685 31.647 31.647 31.592 31.577 31.602 31.552 31.545 31.507 31.475 31.495 31.45 31.462 31.467 31.425 31.405 31.375 31.357 31.327 31.305 31.26 31.24 31.23 31.247 31.257 31.267 31.23 31.232 31.237 31.217 31.237 31.232 31.192 31.215 31.23 31.2 31.205 31.157 31.135 31.12 31.067 30.98 30.947 30.882 30.78 30.7 30.65 30.597 30.547 30.512 30.475 30.414 30.397 30.319 30.259 30.234 30.199 30.134 30.079 30.029 29.949 29.944 29.872 29.864 29.809 29.787 29.767 29.772 29.752 29.719 29.734 29.712 29.712 29.727 29.739 29.754 29.769 29.719 29.684 29.649 29.592 29.522 29.449
33.713 33.688 33.66 33.688 33.693 33.66 33.593 33.543 33.45 33.395 33.443 33.428 33.418 33.39 33.375 33.373 33.275 33.235 33.208 33.218 33.168 32.925 32.725 32.645 32.495 32.413 32.333 32.313 32.308 32.108 31.993 31.925 31.85 31.825 31.808 31.778 31.75 31.68 31.625 31.595 31.573 31.568 31.57 31.593 31.645 31.71 31.895 32.083 32.238 32.095 31.92 31.78 31.69 31.618 31.588 31.608 31.61 31.573 31.653 31.665 31.645 31.715 31.71 31.73 31.718 31.69 31.693 31.723 31.723 31.75 31.74 31.793 31.805 31.813 31.68 31.62 31.615 31.515 31.423 31.388 31.398 31.318 31.383 31.155 30.985 30.953 30.918 30.84 30.688 30.43 30.055 29.678 29.045 28.64 28.593 28.603 28.578 28.715 29.095 29.705 30.328 31.105 31.568 31.62 31.145 30.785 30.598 30.433 30.435 30.468 30.468 30.508 30.468 30.333 30.29 30.318 30.443 30.595 30.73 30.948 31.1 31.185 31.258 31.305 31.345 31.438 31.54 31.49 31.433 31.425 31.508 31.568 31.688 31.775 31.788 31.768 31.758 31.698 31.69 31.723 31.76 31.788 31.818 31.838 31.855 31.853 31.838 31.813 31.805 31.805 31.773 31.728 31.685 31.638 31.638 31.698 31.853 31.945 31.71 31.578 31.55 31.53 31.45 31.415 31.445 31.277 31.16 31.082 31.045 30.957 30.875 30.882 30.957 30.89 30.817 30.83 30.732 30.697 30.66 30.69 30.685 30.597 30.6 30.66 30.617 30.64 30.662 30.74 30.887 30.927 30.955 30.945 30.91 30.875 30.862 30.887 30.942 30.987 31.04 31.142 31.17 31.187 31.197 31.247 31.282 31.39 31.55 31.627 31.717 31.782 31.8 31.792 31.802 31.832 31.867 31.925 31.977 32.012 32.072 32.107 32.122 32.157 32.157 32.147 32.105 32.105 32.077 32.04 32.01 32.017 31.995 31.96 31.965 31.975 32.002 32.005 31.977 31.975 31.98 32.007 32.022 32.015 32.007 31.977 31.89 31.97 32.287 32.267 32.16 32.21 32.407 32.585 32.46 32.337 32.392 32.387 32.382 32.362 32.362 32.36 32.377 32.33 32.337 32.347 32.335 32.295 32.335 32.307 32.287 32.302 32.337 32.322 32.315 32.312 32.337 32.377 32.417 32.447 32.465 32.47 32.477 32.512 32.472 32.465 32.495 32.5 32.48 32.462 32.445 32.397 32.385 32.395 32.38 32.382 32.405 32.35 32.345 32.315 32.315 32.295 32.285 32.237 32.235 32.24 32.227 32.2 32.165 32.12 32.117 32.115 32.082 32.075 32.045 32.027 32.015 32.025 32.005 32 31.98 31.95 31.942 31.947 31.962 31.92 31.95 31.955 31.942 31.932 31.947 31.947 31.925 31.917 31.91 31.92 31.935 31.912 31.952 31.957 31.937 31.97 31.972 31.992 31.995 31.967 31.935 31.947 31.945 31.89 31.87 31.852 31.79 31.785 31.762 31.735 31.73 31.725 31.712 31.682 31.662 31.672 31.642 31.63 31.58 31.565 31.552 31.515 31.5 31.495 31.452 31.442 31.432 31.427 31.415 31.39 31.35 31.352 31.337 31.302 31.277 31.255 31.227 31.207 31.235 31.225 31.227 31.22 31.24 31.215 31.215 31.197 31.237 31.222 31.245 31.222 31.192 31.172 31.152 31.135 31.087 31.025 30.967 30.877 30.85 30.742 30.642 30.6 30.557 30.522 30.482 30.417 30.382 30.359 30.344 30.262 30.264 30.179 30.119 30.067 30.024 29.967 29.909 29.854 29.837 29.809 29.739 29.739 29.709 29.664 29.667 29.684 29.697 29.704 29.707 29.729 29.727 29.724 29.694 29.654 29.587 29.537 29.472 29.409
33.843 33.825 33.788 33.805 33.855 33.885 33.848 33.83 33.765 33.518 33.408 33.43 33.42 33.42 33.408 33.355 33.27 33.28 33.285 33.285 33.143 32.975 32.913 32.815 32.628 32.57 32.478 32.393 32.298 32.168 32.013 31.955 31.89 31.84 31.82 31.8 31.788 31.73 31.685 31.648 31.628 31.618 31.68 31.765 31.838 31.928 32.173 32.28 32.24 32.125 32.02 31.91 31.828 31.79 31.718 31.685 31.718 31.745 31.725 31.693 31.713 31.725 31.73 31.743 31.735 31.738 31.743 31.705 31.753 31.75 31.79 31.815 31.808 31.773 31.778 31.815 31.788 31.698 31.66 31.54 31.513 31.445 31.37 31.2 31.173 31.098 31.093 31.015 30.878 30.745 30.51 30.223 29.765 29.298 28.923 28.745 28.57 28.58 28.69 29.118 29.7 30.348 30.868 31.035 30.78 30.588 30.503 30.408 30.435 30.465 30.445 30.53 30.52 30.373 30.28 30.248 30.343 30.45 30.585 30.758 30.915 30.993 31.133 31.198 31.193 31.275 31.405 31.415 31.34 31.26 31.353 31.408 31.48 31.565 31.655 31.675 31.65 31.623 31.585 31.565 31.635 31.698 31.673 31.658 31.703 31.725 31.718 31.685 31.66 31.67 31.733 31.7 31.633 31.575 31.543 31.705 31.96 31.93 31.675 31.508 31.46 31.47 31.357 31.385 31.35 31.242 31.172 31.07 31.017 30.962 30.91 30.935 30.98 30.92 30.83 30.79 30.745 30.692 30.672 30.64 30.607 30.592 30.545 30.555 30.562 30.56 30.592 30.66 30.792 30.912 30.91 30.902 30.905 30.867 30.855 30.847 30.867 30.892 30.917 30.95 31.017 31.06 31.05 31.065 31.11 31.232 31.342 31.447 31.537 31.662 31.75 31.742 31.752 31.787 31.827 31.82 31.882 31.912 31.97 32.055 32.075 32.092 32.11 32.132 32.115 32.087 32.06 32.057 32.03 32.007 32.02 32.02 31.965 31.972 31.982 31.977 31.97 31.965 31.932 31.952 31.972 31.985 31.99 32.007 31.912 31.867 32.052 32.265 32.277 32.145 32.315 32.505 32.552 32.375 32.305 32.365 32.39 32.385 32.34 32.352 32.34 32.327 32.312 32.297 32.28 32.322 32.272 32.24 32.267 32.287 32.327 32.295 32.29 32.297 32.32 32.347 32.407 32.392 32.412 32.44 32.447 32.442 32.407 32.412 32.437 32.437 32.437 32.415 32.382 32.362 32.37 32.38 32.365 32.34 32.342 32.327 32.315 32.282 32.277 32.25 32.255 32.21 32.177 32.195 32.165 32.14 32.105 32.095 32.05 32.077 32.047 32.035 32.025 32.017 32.01 32 31.985 31.982 31.99 31.975 31.952 31.95 32 31.957 31.915 31.927 31.942 31.955 31.947 31.93 31.9 31.872 31.875 31.917 31.917 31.912 31.92 31.907 31.915 31.947 31.977 31.98 31.98 31.96 31.945 31.875 31.905 31.852 31.855 31.797 31.772 31.762 31.722 31.697 31.69 31.677 31.68 31.657 31.677 31.642 31.65 31.612 31.58 31.535 31.5 31.462 31.472 31.46 31.427 31.405 31.385 31.372 31.382 31.335 31.34 31.32 31.307 31.275 31.25 31.212 31.21 31.22 31.202 31.22 31.235 31.22 31.22 31.222 31.18 31.205 31.22 31.217 31.205 31.205 31.185 31.175 31.147 31.122 31.04 30.967 30.892 30.852 30.782 30.712 30.632 30.59 30.542 30.472 30.435 30.395 30.354 30.324 30.304 30.294 30.242 30.192 30.137 30.087 30.027 29.967 29.904 29.857 29.797 29.779 29.707 29.692 29.669 29.632 29.627 29.649 29.664 29.674 29.677 29.689 29.717 29.687 29.632 29.622 29.554 29.497 29.437 29.349
33.98 33.933 33.948 33.963 34.043 34.278 34.313 34.195 34.148 33.933 33.715 33.63 33.443 33.415 33.405 33.355 33.315 33.3 33.35 33.32 33.218 33.103 33.08 32.865 32.74 32.67 32.585 32.475 32.4 32.303 32.19 32.068 31.91 31.89 31.855 31.83 31.848 31.798 31.75 31.728 31.695 31.678 31.748 31.85 31.995 32.163 32.26 32.285 32.27 32.22 32.15 32.05 31.965 31.968 31.94 31.858 31.913 31.81 31.8 31.82 31.788 31.773 31.773 31.783 31.76 31.745 31.768 31.813 31.808 31.77 31.783 31.798 31.883 31.845 31.833 31.928 31.828 31.76 31.793 31.71 31.623 31.543 31.435 31.278 31.308 31.265 31.27 31.185 31.023 30.888 30.72 30.56 30.29 29.895 29.548 29.18 28.653 28.553 28.525 28.675 29.075 29.685 30.225 30.59 30.508 30.49 30.448 30.43 30.395 30.435 30.455 30.535 30.573 30.45 30.3 30.26 30.29 30.315 30.423 30.56 30.66 30.763 30.918 31.01 31.095 31.153 31.19 31.24 31.285 31.21 31.163 31.28 31.33 31.388 31.505 31.57 31.575 31.558 31.508 31.488 31.495 31.57 31.598 31.55 31.538 31.598 31.603 31.578 31.543 31.545 31.56 31.578 31.54 31.463 31.49 31.575 31.695 31.77 31.68 31.585 31.5 31.415 31.455 31.327 31.252 31.2 31.087 30.995 30.952 30.89 30.852 30.86 30.817 30.78 30.78 30.767 30.782 30.78 30.737 30.68 30.642 30.637 30.565 30.52 30.457 30.44 30.535 30.58 30.64 30.75 30.782 30.835 30.822 30.837 30.84 30.857 30.82 30.832 30.855 30.857 30.857 30.847 30.897 30.922 30.955 31.03 31.16 31.257 31.385 31.502 31.575 31.637 31.68 31.7 31.747 31.8 31.835 31.812 31.87 31.95 31.99 32.01 32.05 32.102 32.057 32.06 32.05 32.052 32.035 32.015 31.985 31.992 31.99 31.97 31.987 31.97 31.96 31.917 31.912 31.927 31.952 31.99 31.97 31.995 31.972 31.877 31.83 32.002 32.225 32.182 32.12 32.28 32.432 32.485 32.347 32.285 32.37 32.4 32.362 32.32 32.33 32.317 32.307 32.282 32.267 32.272 32.26 32.232 32.217 32.227 32.247 32.282 32.267 32.27 32.287 32.297 32.342 32.33 32.337 32.377 32.39 32.412 32.4 32.38 32.345 32.322 32.34 32.322 32.345 32.322 32.33 32.325 32.342 32.327 32.317 32.282 32.27 32.255 32.235 32.21 32.207 32.17 32.157 32.142 32.125 32.077 32.057 32.03 31.997 32.025 32.007 31.992 31.96 31.957 31.987 31.977 31.972 31.967 31.952 31.972 31.967 31.97 31.947 31.952 31.912 31.87 31.932 31.892 31.882 31.885 31.877 31.852 31.837 31.88 31.865 31.855 31.87 31.862 31.89 31.907 31.947 31.957 31.952 31.952 31.91 31.845 31.822 31.79 31.8 31.785 31.762 31.76 31.732 31.695 31.705 31.687 31.662 31.647 31.655 31.622 31.58 31.565 31.532 31.51 31.492 31.462 31.462 31.435 31.41 31.387 31.34 31.332 31.347 31.325 31.32 31.312 31.295 31.267 31.227 31.22 31.227 31.23 31.225 31.205 31.207 31.212 31.212 31.185 31.167 31.18 31.202 31.167 31.197 31.17 31.19 31.147 31.097 31.055 30.982 30.932 30.852 30.807 30.742 30.682 30.617 30.565 30.512 30.462 30.427 30.335 30.324 30.274 30.282 30.254 30.247 30.197 30.137 30.064 30.012 29.954 29.914 29.867 29.797 29.724 29.694 29.642 29.607 29.594 29.622 29.607 29.592 29.634 29.654 29.654 29.662 29.627 29.594 29.592 29.502 29.452 29.349 29.292
34.098 34.043 34.053 34.1 34.25 34.42 34.488 34.543 34.51 34.28 33.958 33.78 33.535 33.428 33.435 33.383 33.348 33.303 33.33 33.375 33.363 33.258 33.09 32.918 32.87 32.773 32.663 32.545 32.495 32.435 32.338 32.25 32.14 31.97 31.923 31.923 31.928 31.895 31.885 31.89 31.873 31.838 31.858 31.935 32.098 32.245 32.28 32.245 32.233 32.195 32.15 32.108 32.058 32.03 32 31.993 32.013 31.888 31.808 31.883 31.825 31.808 31.843 31.81 31.788 31.803 31.855 31.893 31.933 31.935 31.875 31.895 31.865 31.875 31.945 31.933 31.9 31.89 31.855 31.825 31.728 31.613 31.5 31.4 31.328 31.293 31.43 31.395 31.238 31.013 30.9 30.778 30.62 30.293 29.983 29.723 29.02 28.733 28.578 28.535 28.555 28.888 29.643 30.328 30.485 30.478 30.493 30.465 30.41 30.41 30.443 30.498 30.578 30.568 30.393 30.265 30.275 30.295 30.333 30.4 30.45 30.54 30.648 30.77 30.875 30.945 31.04 31.035 31.21 31.183 31.05 31.048 31.225 31.245 31.26 31.358 31.435 31.468 31.44 31.423 31.41 31.438 31.485 31.515 31.478 31.45 31.48 31.513 31.51 31.503 31.5 31.47 31.445 31.433 31.453 31.475 31.518 31.663 31.69 31.665 31.565 31.47 31.45 31.257 31.145 30.992 30.902 30.815 30.75 30.685 30.677 30.67 30.692 30.705 30.737 30.75 30.765 30.747 30.745 30.71 30.67 30.67 30.602 30.517 30.427 30.375 30.435 30.49 30.53 30.595 30.665 30.695 30.742 30.775 30.772 30.785 30.78 30.772 30.762 30.795 30.792 30.787 30.752 30.747 30.782 30.852 30.947 31.085 31.215 31.342 31.407 31.48 31.555 31.587 31.635 31.687 31.737 31.762 31.785 31.827 31.885 31.945 31.967 31.997 31.99 31.99 32.02 32.032 32 31.995 31.987 31.955 31.937 31.962 31.947 31.952 31.965 31.922 31.877 31.862 31.877 31.887 31.947 31.947 31.942 31.925 31.807 31.762 31.975 32.14 32.172 32.195 32.24 32.417 32.45 32.28 32.28 32.377 32.355 32.287 32.267 32.31 32.3 32.27 32.24 32.222 32.227 32.222 32.19 32.21 32.182 32.185 32.18 32.205 32.227 32.3 32.287 32.252 32.282 32.285 32.282 32.325 32.325 32.317 32.31 32.307 32.315 32.285 32.282 32.282 32.322 32.31 32.272 32.255 32.257 32.195 32.19 32.212 32.185 32.15 32.152 32.142 32.125 32.122 32.09 32.035 32.022 32.022 32.005 32.01 31.992 31.957 31.91 31.917 31.94 31.96 31.965 31.952 31.922 31.96 31.96 31.91 31.915 31.89 31.89 31.867 31.857 31.852 31.862 31.84 31.825 31.84 31.837 31.84 31.832 31.84 31.84 31.865 31.895 31.912 31.915 31.905 31.892 31.86 31.835 31.825 31.79 31.785 31.782 31.752 31.717 31.702 31.707 31.695 31.695 31.66 31.67 31.635 31.61 31.575 31.525 31.522 31.522 31.467 31.45 31.445 31.432 31.395 31.367 31.332 31.335 31.322 31.33 31.295 31.292 31.247 31.25 31.212 31.23 31.205 31.182 31.192 31.2 31.21 31.172 31.2 31.172 31.165 31.137 31.17 31.135 31.112 31.125 31.115 31.135 31.107 31.045 30.972 30.937 30.857 30.8 30.725 30.685 30.665 30.585 30.535 30.472 30.445 30.39 30.32 30.307 30.289 30.234 30.204 30.227 30.199 30.107 30.072 29.987 29.924 29.872 29.789 29.759 29.694 29.654 29.607 29.607 29.599 29.544 29.529 29.584 29.612 29.617 29.642 29.644 29.632 29.529 29.532 29.479 29.407 29.324 29.279
34.2 34.24 34.258 34.318 34.325 34.378 34.37 34.423 34.425 34.318 34.09 33.888 33.708 33.545 33.483 33.468 33.458 33.348 33.363 33.388 33.373 33.288 33.103 33.015 32.918 32.858 32.755 32.653 32.575 32.53 32.43 32.398 32.37 32.198 32.088 32.073 32.02 32.03 32.083 32.073 32.04 31.978 32.018 32.065 32.245 32.27 32.238 32.215 32.195 32.168 32.12 32.093 32.08 32.078 32.06 32.09 32.118 32.045 31.96 31.923 31.88 31.89 31.903 31.808 31.81 31.82 31.873 31.905 31.955 31.955 31.948 31.898 31.835 31.935 31.998 31.968 31.923 31.933 31.925 31.863 31.753 31.643 31.533 31.475 31.428 31.395 31.473 31.48 31.413 31.328 31.1 30.895 30.735 30.6 30.355 30.233 29.81 29.363 28.888 28.47 28.518 28.508 28.778 29.585 30.213 30.415 30.453 30.458 30.415 30.44 30.455 30.513 30.58 30.62 30.41 30.24 30.25 30.285 30.285 30.31 30.365 30.37 30.463 30.538 30.6 30.705 30.82 30.833 31.008 31.093 30.973 30.923 30.99 31.1 31.048 31.068 31.18 31.258 31.31 31.373 31.375 31.41 31.423 31.43 31.455 31.42 31.403 31.435 31.458 31.428 31.44 31.393 31.388 31.425 31.465 31.468 31.39 31.438 31.5 31.533 31.452 31.327 31.157 30.992 30.91 30.795 30.712 30.68 30.612 30.6 30.572 30.555 30.58 30.595 30.61 30.637 30.657 30.722 30.675 30.675 30.63 30.575 30.557 30.542 30.425 30.357 30.387 30.392 30.44 30.497 30.522 30.59 30.602 30.642 30.707 30.717 30.677 30.675 30.695 30.722 30.707 30.71 30.69 30.692 30.735 30.76 30.815 30.897 30.987 31.127 31.232 31.337 31.41 31.427 31.512 31.555 31.622 31.667 31.71 31.725 31.722 31.832 31.892 31.905 31.927 31.935 31.952 31.99 31.995 31.955 31.952 31.935 31.932 31.957 31.947 31.917 31.905 31.905 31.887 31.852 31.842 31.845 31.9 31.925 31.93 31.96 31.92 31.765 31.765 32.005 32.202 32.167 32.192 32.34 32.457 32.467 32.305 32.292 32.332 32.297 32.297 32.24 32.285 32.255 32.24 32.23 32.21 32.202 32.177 32.16 32.14 32.14 32.152 32.192 32.222 32.237 32.205 32.242 32.237 32.21 32.25 32.255 32.272 32.267 32.24 32.262 32.24 32.252 32.232 32.237 32.232 32.275 32.23 32.192 32.192 32.175 32.14 32.15 32.127 32.117 32.092 32.082 32.057 32.042 32.037 32.022 32.025 31.987 31.987 31.985 31.962 31.96 31.977 31.94 31.927 31.935 31.947 31.95 31.922 31.935 31.892 31.897 31.865 31.885 31.9 31.87 31.862 31.847 31.825 31.845 31.83 31.797 31.805 31.802 31.822 31.832 31.842 31.84 31.87 31.875 31.875 31.855 31.802 31.845 31.82 31.782 31.77 31.737 31.722 31.717 31.68 31.687 31.65 31.66 31.627 31.625 31.6 31.595 31.55 31.542 31.522 31.495 31.472 31.442 31.422 31.385 31.387 31.362 31.342 31.312 31.325 31.295 31.29 31.235 31.242 31.23 31.212 31.207 31.21 31.215 31.195 31.182 31.202 31.187 31.167 31.167 31.162 31.152 31.18 31.14 31.125 31.117 31.087 31.085 31.082 31.037 30.965 30.915 30.887 30.827 30.785 30.707 30.662 30.612 30.56 30.49 30.435 30.402 30.392 30.335 30.289 30.254 30.212 30.142 30.172 30.122 30.089 30.037 29.982 29.912 29.864 29.794 29.729 29.719 29.684 29.614 29.589 29.552 29.557 29.554 29.577 29.577 29.549 29.584 29.594 29.579 29.502 29.479 29.427 29.374 29.299 29.269
34.29 34.253 34.303 34.32 34.37 34.42 34.415 34.398 34.433 34.405 34.175 33.968 33.803 33.625 33.598 33.535 33.438 33.403 33.408 33.41 33.36 33.235 33.113 33.058 33.005 32.94 32.855 32.755 32.685 32.6 32.505 32.528 32.53 32.438 32.29 32.175 32.123 32.185 32.213 32.175 32.173 32.115 32.19 32.28 32.325 32.34 32.285 32.26 32.198 32.153 32.118 32.085 32.123 32.11 32.168 32.16 32.178 32.103 32.063 31.963 31.99 32.003 32.06 32 31.865 31.833 31.883 31.925 31.973 31.963 31.968 31.9 31.895 31.99 32.015 32.028 31.945 31.938 31.92 31.845 31.765 31.64 31.555 31.505 31.503 31.463 31.49 31.515 31.475 31.388 31.15 30.988 30.828 30.743 30.648 30.513 30.145 29.84 29.518 28.94 28.618 28.523 28.553 28.725 29.35 30.203 30.403 30.448 30.428 30.45 30.443 30.505 30.553 30.615 30.49 30.315 30.22 30.235 30.273 30.308 30.318 30.328 30.388 30.405 30.425 30.495 30.595 30.645 30.74 30.86 30.983 30.933 30.85 30.915 30.95 30.905 30.895 30.983 31.09 31.228 31.283 31.343 31.34 31.318 31.303 31.298 31.26 31.285 31.293 31.3 31.333 31.36 31.37 31.433 31.458 31.45 31.383 31.34 31.368 31.373 31.292 31.172 31.025 30.837 30.76 30.69 30.672 30.652 30.54 30.49 30.48 30.457 30.505 30.522 30.532 30.54 30.55 30.555 30.572 30.625 30.587 30.545 30.44 30.45 30.41 30.37 30.365 30.355 30.397 30.437 30.435 30.495 30.52 30.522 30.565 30.562 30.572 30.567 30.527 30.522 30.572 30.62 30.62 30.64 30.727 30.765 30.782 30.777 30.825 30.89 30.987 31.105 31.237 31.277 31.345 31.425 31.455 31.505 31.595 31.65 31.652 31.69 31.757 31.832 31.867 31.897 31.87 31.907 31.947 31.897 31.91 31.902 31.89 31.905 31.912 31.897 31.895 31.877 31.86 31.85 31.825 31.842 31.857 31.862 31.897 31.915 31.937 31.94 31.77 31.782 31.987 32.105 32.18 32.187 32.4 32.505 32.462 32.31 32.227 32.265 32.302 32.28 32.24 32.267 32.245 32.235 32.21 32.142 32.137 32.157 32.13 32.112 32.135 32.155 32.202 32.195 32.182 32.172 32.16 32.127 32.18 32.2 32.195 32.17 32.202 32.187 32.2 32.187 32.185 32.202 32.2 32.202 32.19 32.167 32.135 32.15 32.13 32.08 32.077 32.057 32.05 32.015 32.02 32 31.962 31.957 31.927 31.95 31.93 31.967 31.92 31.937 31.932 31.925 31.95 31.917 31.907 31.967 31.937 31.922 31.885 31.89 31.872 31.867 31.867 31.86 31.835 31.815 31.787 31.79 31.782 31.777 31.762 31.785 31.792 31.815 31.832 31.817 31.86 31.87 31.82 31.832 31.797 31.78 31.752 31.74 31.747 31.695 31.71 31.7 31.672 31.66 31.64 31.632 31.63 31.602 31.582 31.527 31.527 31.505 31.495 31.48 31.432 31.407 31.417 31.37 31.367 31.317 31.315 31.305 31.275 31.257 31.28 31.245 31.232 31.212 31.212 31.202 31.192 31.2 31.197 31.187 31.177 31.19 31.172 31.172 31.172 31.152 31.135 31.117 31.117 31.082 31.062 31.03 30.975 30.947 30.912 30.867 30.832 30.785 30.722 30.695 30.637 30.575 30.52 30.477 30.407 30.407 30.35 30.342 30.274 30.257 30.189 30.129 30.079 30.052 30.027 30.004 29.952 29.874 29.804 29.772 29.697 29.687 29.634 29.602 29.564 29.552 29.532 29.532 29.532 29.532 29.544 29.547 29.567 29.529 29.502 29.434 29.352 29.312 29.237 29.214
34.27 34.323 34.345 34.378 34.408 34.455 34.445 34.465 34.518 34.375 34.19 33.985 33.925 33.75 33.61 33.565 33.508 33.473 33.483 33.463 33.415 33.248 33.205 33.128 33.02 32.985 32.925 32.848 32.763 32.643 32.6 32.593 32.58 32.485 32.298 32.288 32.308 32.315 32.273 32.233 32.323 32.315 32.343 32.328 32.363 32.368 32.293 32.228 32.245 32.188 32.155 32.168 32.143 32.133 32.213 32.27 32.205 32.14 32.093 32.038 32.105 32.078 32.2 32.288 32.245 32.045 31.928 31.955 31.98 31.973 31.983 31.983 31.98 32.043 32.07 32.088 32.028 31.978 31.895 31.833 31.758 31.663 31.57 31.548 31.518 31.523 31.52 31.47 31.415 31.29 31.158 31.025 30.945 30.855 30.768 30.673 30.493 30.26 29.978 29.738 29.163 28.54 28.57 28.565 28.618 28.99 29.835 30.385 30.435 30.473 30.49 30.525 30.578 30.66 30.53 30.363 30.215 30.188 30.22 30.258 30.275 30.343 30.403 30.425 30.4 30.44 30.493 30.505 30.565 30.69 30.853 30.9 30.788 30.763 30.835 30.838 30.788 30.83 30.858 30.955 31.063 31.105 31.088 31.135 31.058 30.978 30.98 31.028 31.12 31.178 31.255 31.268 31.263 31.305 31.33 31.298 31.25 31.25 31.213 31.208 31.152 31.022 30.82 30.702 30.652 30.65 30.615 30.55 30.5 30.437 30.397 30.39 30.48 30.53 30.545 30.53 30.525 30.512 30.54 30.567 30.552 30.48 30.412 30.347 30.37 30.375 30.292 30.297 30.37 30.4 30.385 30.417 30.462 30.49 30.492 30.515 30.53 30.507 30.485 30.457 30.457 30.467 30.51 30.582 30.72 30.78 30.785 30.75 30.75 30.752 30.845 30.907 30.99 31.06 31.147 31.232 31.305 31.365 31.43 31.49 31.567 31.6 31.622 31.682 31.76 31.82 31.86 31.845 31.887 31.897 31.902 31.89 31.865 31.85 31.857 31.88 31.902 31.852 31.87 31.81 31.8 31.827 31.817 31.815 31.842 31.86 31.885 31.94 31.852 31.695 31.745 32.047 32.16 32.24 32.275 32.375 32.457 32.487 32.277 32.23 32.29 32.275 32.26 32.217 32.187 32.172 32.165 32.155 32.122 32.12 32.127 32.132 32.105 32.112 32.127 32.142 32.12 32.095 32.16 32.102 32.087 32.087 32.14 32.107 32.117 32.127 32.142 32.135 32.152 32.142 32.102 32.13 32.125 32.085 32.062 32.08 32.06 32 32.042 32.007 32.007 31.997 31.962 31.98 31.925 31.92 31.922 31.915 31.895 31.912 31.9 31.907 31.912 31.922 31.897 31.902 31.895 31.897 31.905 31.877 31.89 31.867 31.852 31.812 31.792 31.807 31.795 31.775 31.752 31.727 31.767 31.78 31.772 31.767 31.76 31.802 31.805 31.827 31.827 31.8 31.815 31.805 31.78 31.722 31.71 31.685 31.687 31.64 31.635 31.652 31.687 31.647 31.617 31.632 31.592 31.567 31.527 31.542 31.51 31.48 31.467 31.457 31.43 31.39 31.38 31.387 31.362 31.362 31.32 31.302 31.247 31.23 31.247 31.225 31.207 31.225 31.207 31.212 31.172 31.18 31.192 31.205 31.187 31.202 31.21 31.202 31.172 31.15 31.14 31.095 31.075 31.017 30.98 30.952 30.9 30.877 30.867 30.825 30.765 30.705 30.685 30.627 30.595 30.54 30.49 30.435 30.395 30.367 30.332 30.295 30.252 30.242 30.184 30.119 30.067 30.004 29.944 29.924 29.904 29.839 29.767 29.762 29.684 29.637 29.604 29.552 29.599 29.512 29.484 29.482 29.469 29.467 29.489 29.429 29.462 29.449 29.427 29.404 29.357 29.269 29.219 29.202
34.293 34.285 34.31 34.398 34.398 34.443 34.428 34.525 34.543 34.318 34.19 34.045 33.918 33.798 33.66 33.595 33.535 33.525 33.505 33.498 33.398 33.33 33.275 33.218 33.135 33.04 32.985 32.923 32.815 32.738 32.615 32.615 32.543 32.438 32.343 32.445 32.488 32.47 32.445 32.495 32.52 32.505 32.46 32.343 32.355 32.343 32.278 32.21 32.155 32.178 32.193 32.255 32.228 32.27 32.298 32.315 32.278 32.25 32.16 32.145 32.223 32.238 32.35 32.428 32.415 32.385 32.27 32.1 31.97 31.96 31.99 32.01 32.053 32.123 32.118 32.11 32.06 31.968 31.885 31.78 31.725 31.66 31.603 31.61 31.565 31.538 31.485 31.4 31.373 31.315 31.19 31.118 31.125 31.013 30.905 30.745 30.64 30.585 30.398 30.093 29.738 29.143 28.618 28.55 28.54 28.545 28.893 29.628 30.27 30.428 30.478 30.498 30.613 30.615 30.563 30.418 30.25 30.18 30.143 30.23 30.26 30.325 30.37 30.433 30.425 30.458 30.48 30.488 30.555 30.61 30.718 30.868 30.818 30.683 30.668 30.74 30.698 30.69 30.708 30.73 30.753 30.758 30.733 30.738 30.73 30.685 30.69 30.755 30.87 30.998 31.045 31.058 31.088 31.145 31.113 31.11 31.085 31.048 30.973 30.915 30.865 30.75 30.607 30.515 30.495 30.515 30.51 30.512 30.502 30.43 30.347 30.357 30.45 30.537 30.572 30.55 30.525 30.532 30.58 30.572 30.555 30.522 30.417 30.347 30.377 30.397 30.325 30.352 30.367 30.37 30.36 30.4 30.462 30.472 30.482 30.527 30.52 30.492 30.472 30.462 30.47 30.43 30.42 30.497 30.635 30.682 30.707 30.717 30.68 30.707 30.767 30.805 30.855 30.877 30.987 31.07 31.102 31.152 31.255 31.3 31.387 31.435 31.475 31.51 31.6 31.7 31.78 31.81 31.822 31.837 31.85 31.857 31.865 31.847 31.845 31.845 31.822 31.817 31.832 31.807 31.797 31.795 31.785 31.777 31.79 31.797 31.855 31.867 31.84 31.732 31.662 31.8 32.03 32.19 32.23 32.225 32.367 32.495 32.417 32.265 32.235 32.232 32.25 32.177 32.165 32.172 32.14 32.142 32.112 32.065 32.082 32.14 32.095 32.057 32.045 32.1 32.087 32.092 32.052 32.042 32.047 32.007 32.002 32.03 32.042 32.05 32.057 32.072 32.112 32.085 32.077 32.077 32.067 32.047 32.037 32.022 32.025 31.982 31.977 31.995 31.957 31.942 31.942 31.897 31.862 31.892 31.91 31.905 31.86 31.86 31.862 31.892 31.895 31.905 31.907 31.882 31.855 31.877 31.852 31.855 31.857 31.835 31.81 31.805 31.77 31.767 31.775 31.727 31.762 31.712 31.712 31.757 31.727 31.742 31.762 31.752 31.795 31.795 31.79 31.755 31.755 31.725 31.72 31.692 31.667 31.647 31.625 31.627 31.635 31.635 31.652 31.632 31.6 31.585 31.562 31.517 31.51 31.525 31.482 31.462 31.427 31.417 31.402 31.37 31.347 31.367 31.335 31.337 31.32 31.267 31.257 31.255 31.252 31.235 31.207 31.185 31.192 31.195 31.195 31.18 31.202 31.207 31.195 31.18 31.215 31.192 31.195 31.14 31.087 31.065 31.03 30.97 30.94 30.895 30.842 30.812 30.772 30.745 30.692 30.672 30.637 30.575 30.557 30.517 30.47 30.41 30.367 30.335 30.312 30.252 30.199 30.194 30.124 30.082 30.012 29.997 29.927 29.894 29.834 29.814 29.754 29.727 29.667 29.647 29.604 29.562 29.504 29.479 29.419 29.384 29.399 29.402 29.394 29.322 29.372 29.367 29.387 29.364 29.309 29.269 29.224 29.189
34.41 34.458 34.368 34.4 34.413 34.44 34.453 34.503 34.468 34.273 34.145 33.96 33.8 33.68 33.66 33.625 33.585 33.55 33.52 33.47 33.468 33.408 33.375 33.31 33.255 33.195 33.063 32.983 32.94 32.853 32.74 32.71 32.605 32.5 32.488 32.58 32.588 32.553 32.625 32.648 32.685 32.68 32.77 32.585 32.365 32.318 32.263 32.215 32.185 32.225 32.268 32.35 32.395 32.435 32.455 32.333 32.33 32.26 32.28 32.325 32.363 32.428 32.4 32.315 32.418 32.483 32.495 32.423 32.243 32.108 32.095 32.063 32.138 32.165 32.128 32.083 32.078 32.02 31.918 31.81 31.718 31.678 31.635 31.63 31.555 31.55 31.505 31.475 31.443 31.373 31.355 31.313 31.283 31.225 31.085 30.933 30.825 30.745 30.538 30.255 29.968 29.683 28.97 28.605 28.64 28.555 28.608 28.753 29.433 30.218 30.473 30.503 30.57 30.573 30.558 30.413 30.235 30.14 30.098 30.173 30.21 30.283 30.298 30.34 30.413 30.48 30.543 30.55 30.62 30.618 30.663 30.73 30.815 30.738 30.61 30.615 30.65 30.625 30.605 30.6 30.638 30.615 30.55 30.518 30.548 30.538 30.558 30.568 30.665 30.738 30.788 30.79 30.828 30.87 30.893 30.853 30.81 30.783 30.718 30.663 30.582 30.512 30.422 30.352 30.315 30.352 30.397 30.395 30.422 30.425 30.377 30.41 30.45 30.495 30.557 30.577 30.58 30.562 30.587 30.602 30.62 30.58 30.517 30.39 30.355 30.365 30.352 30.412 30.49 30.497 30.39 30.41 30.4 30.437 30.492 30.522 30.532 30.507 30.485 30.482 30.487 30.475 30.457 30.477 30.52 30.555 30.572 30.637 30.64 30.662 30.745 30.795 30.82 30.897 30.92 30.982 30.96 31.005 31.077 31.12 31.16 31.235 31.325 31.347 31.385 31.527 31.597 31.657 31.732 31.78 31.815 31.797 31.795 31.797 31.805 31.817 31.805 31.815 31.832 31.807 31.785 31.765 31.77 31.765 31.775 31.75 31.745 31.78 31.82 31.837 31.762 31.672 31.757 32.102 32.19 32.187 32.172 32.227 32.417 32.342 32.28 32.225 32.202 32.195 32.172 32.175 32.115 32.117 32.077 32.025 32.012 32.045 32.055 32.067 32.027 31.98 31.98 31.99 31.957 31.945 31.95 31.992 31.937 31.957 31.977 31.98 32.002 32.022 32.047 31.985 31.987 32.012 31.985 32.01 31.977 32 31.952 31.972 31.94 31.94 31.922 31.887 31.865 31.865 31.865 31.845 31.84 31.865 31.852 31.825 31.832 31.865 31.897 31.857 31.882 31.872 31.845 31.83 31.817 31.817 31.83 31.78 31.785 31.772 31.74 31.76 31.742 31.72 31.73 31.742 31.74 31.735 31.74 31.722 31.762 31.752 31.775 31.752 31.742 31.71 31.677 31.672 31.67 31.642 31.64 31.597 31.597 31.595 31.635 31.62 31.582 31.567 31.562 31.515 31.492 31.505 31.48 31.492 31.457 31.427 31.397 31.367 31.375 31.372 31.347 31.337 31.302 31.297 31.282 31.277 31.232 31.217 31.22 31.197 31.192 31.19 31.155 31.18 31.187 31.182 31.187 31.185 31.162 31.202 31.18 31.145 31.125 31.09 31.032 30.982 30.945 30.89 30.857 30.822 30.787 30.727 30.675 30.657 30.632 30.62 30.537 30.472 30.512 30.462 30.425 30.397 30.36 30.317 30.285 30.217 30.154 30.142 30.084 30.024 29.979 29.919 29.889 29.859 29.827 29.774 29.757 29.734 29.659 29.617 29.619 29.529 29.472 29.432 29.394 29.367 29.362 29.327 29.324 29.289 29.347 29.357 29.344 29.329 29.284 29.227 29.154 29.164
34.593 34.615 34.48 34.385 34.475 34.463 34.503 34.495 34.383 34.24 34.125 33.993 33.745 33.67 33.665 33.635 33.615 33.588 33.553 33.505 33.493 33.498 33.49 33.415 33.348 33.303 33.225 33.133 33.093 33.015 32.99 32.913 32.778 32.675 32.68 32.705 32.673 32.68 32.693 32.7 32.755 32.843 32.955 32.955 32.76 32.418 32.29 32.208 32.248 32.288 32.363 32.428 32.51 32.555 32.46 32.39 32.355 32.343 32.4 32.368 32.465 32.453 32.455 32.508 32.53 32.515 32.503 32.495 32.508 32.455 32.498 32.38 32.298 32.14 32.133 32.098 32.085 32.058 31.963 31.85 31.775 31.703 31.665 31.64 31.6 31.555 31.523 31.468 31.318 31.44 31.54 31.505 31.405 31.405 31.283 31.095 30.93 30.763 30.568 30.378 30.178 29.963 29.425 29.025 28.955 28.76 28.775 28.608 28.728 29.353 30.21 30.603 30.568 30.603 30.598 30.523 30.273 30.08 30.055 30.105 30.16 30.223 30.265 30.3 30.365 30.458 30.465 30.49 30.56 30.598 30.64 30.708 30.725 30.755 30.63 30.52 30.553 30.57 30.545 30.543 30.585 30.568 30.515 30.455 30.485 30.495 30.528 30.505 30.52 30.54 30.543 30.585 30.633 30.638 30.61 30.605 30.57 30.48 30.445 30.425 30.387 30.342 30.315 30.307 30.277 30.285 30.3 30.317 30.362 30.385 30.345 30.387 30.395 30.415 30.465 30.5 30.537 30.54 30.552 30.552 30.577 30.577 30.552 30.465 30.347 30.335 30.387 30.452 30.555 30.585 30.525 30.457 30.44 30.402 30.44 30.482 30.525 30.525 30.527 30.55 30.527 30.515 30.557 30.497 30.485 30.512 30.517 30.607 30.652 30.665 30.79 30.852 30.875 30.912 30.935 30.987 30.95 30.942 30.955 31.002 31.03 31.07 31.115 31.18 31.255 31.305 31.397 31.525 31.592 31.662 31.7 31.725 31.745 31.76 31.74 31.722 31.722 31.762 31.77 31.74 31.732 31.715 31.717 31.78 31.765 31.765 31.72 31.727 31.757 31.827 31.855 31.782 31.672 31.797 32.112 32.187 32.157 32.227 32.302 32.37 32.372 32.252 32.14 32.14 32.162 32.145 32.135 32.1 32.062 32.052 32.02 31.987 32.012 32.015 31.982 31.937 31.907 31.92 31.915 31.897 31.885 31.895 31.91 31.885 31.897 31.937 31.942 31.972 31.957 31.957 31.945 31.925 31.947 31.937 31.925 31.927 31.915 31.93 31.915 31.89 31.852 31.865 31.847 31.84 31.827 31.815 31.835 31.822 31.822 31.807 31.782 31.84 31.845 31.862 31.832 31.847 31.81 31.81 31.777 31.8 31.775 31.762 31.742 31.755 31.715 31.74 31.722 31.727 31.737 31.722 31.705 31.732 31.717 31.73 31.732 31.727 31.727 31.722 31.685 31.69 31.645 31.635 31.592 31.585 31.565 31.575 31.582 31.58 31.562 31.56 31.515 31.527 31.52 31.492 31.452 31.47 31.445 31.432 31.39 31.36 31.375 31.39 31.352 31.327 31.327 31.332 31.292 31.295 31.287 31.237 31.215 31.21 31.197 31.21 31.225 31.207 31.19 31.185 31.182 31.175 31.19 31.137 31.122 31.135 31.105 31.095 31.075 31.022 30.985 30.93 30.9 30.81 30.762 30.735 30.7 30.66 30.635 30.58 30.547 30.527 30.507 30.457 30.462 30.427 30.37 30.347 30.307 30.262 30.185 30.145 30.117 30.079 30.017 29.994 29.932 29.887 29.842 29.807 29.764 29.744 29.709 29.699 29.632 29.622 29.574 29.502 29.487 29.422 29.372 29.317 29.297 29.304 29.267 29.247 29.304 29.309 29.302 29.257 29.244 29.194 29.147 29.144
34.815 34.738 34.54 34.425 34.49 34.48 34.533 34.51 34.375 34.13 34.03 33.893 33.678 33.67 33.663 33.635 33.605 33.583 33.545 33.54 33.565 33.598 33.568 33.515 33.458 33.375 33.338 33.28 33.218 33.135 33.173 33.053 32.93 32.875 32.855 32.87 32.805 32.845 32.8 32.758 32.81 33.038 33.04 32.973 32.965 32.745 32.618 32.418 32.385 32.41 32.503 32.54 32.6 32.57 32.485 32.43 32.425 32.47 32.48 32.468 32.495 32.543 32.568 32.558 32.543 32.53 32.515 32.53 32.505 32.535 32.54 32.563 32.478 32.263 32.175 32.128 32.075 31.998 31.925 31.87 31.82 31.788 31.733 31.698 31.628 31.54 31.545 31.52 31.453 31.583 31.64 31.635 31.56 31.458 31.388 31.25 31.05 30.85 30.675 30.508 30.348 30.18 29.94 29.678 29.295 28.938 28.983 28.843 28.668 29.08 29.163 30.218 30.55 30.605 30.638 30.708 30.513 30.158 30.068 30.028 30.12 30.178 30.21 30.3 30.365 30.345 30.393 30.405 30.468 30.498 30.583 30.655 30.67 30.72 30.69 30.535 30.465 30.498 30.505 30.498 30.513 30.49 30.48 30.433 30.428 30.443 30.495 30.47 30.45 30.41 30.41 30.433 30.445 30.458 30.41 30.405 30.393 30.36 30.325 30.305 30.31 30.295 30.277 30.28 30.257 30.205 30.217 30.225 30.252 30.28 30.272 30.31 30.307 30.302 30.342 30.397 30.405 30.412 30.455 30.492 30.547 30.555 30.535 30.45 30.312 30.125 30.395 30.475 30.565 30.632 30.637 30.547 30.482 30.427 30.412 30.452 30.477 30.532 30.547 30.557 30.542 30.562 30.57 30.537 30.572 30.507 30.525 30.592 30.662 30.73 30.835 30.902 30.925 30.96 30.967 31.015 30.987 30.975 30.942 30.942 30.942 30.96 30.98 30.997 31.102 31.175 31.247 31.32 31.43 31.525 31.6 31.632 31.682 31.732 31.71 31.69 31.682 31.665 31.692 31.695 31.697 31.695 31.687 31.707 31.707 31.71 31.715 31.715 31.712 31.777 31.835 31.902 31.845 31.62 31.8 32.1 32.18 32.215 32.182 32.25 32.355 32.357 32.177 32.082 32.082 32.112 32.075 32.065 32.042 32.055 32.01 31.997 31.942 31.945 31.92 31.89 31.865 31.85 31.857 31.85 31.862 31.845 31.847 31.89 31.857 31.885 31.857 31.862 31.9 31.877 31.9 31.887 31.882 31.907 31.892 31.86 31.887 31.882 31.88 31.855 31.825 31.842 31.845 31.83 31.805 31.825 31.802 31.792 31.807 31.785 31.785 31.82 31.812 31.83 31.81 31.79 31.822 31.815 31.82 31.77 31.767 31.735 31.74 31.735 31.702 31.692 31.69 31.707 31.705 31.702 31.715 31.722 31.707 31.69 31.712 31.712 31.7 31.632 31.66 31.612 31.585 31.597 31.59 31.547 31.522 31.537 31.535 31.515 31.515 31.497 31.497 31.467 31.46 31.445 31.45 31.43 31.405 31.352 31.352 31.34 31.35 31.34 31.317 31.315 31.297 31.322 31.267 31.225 31.22 31.222 31.212 31.207 31.227 31.19 31.22 31.212 31.195 31.197 31.172 31.16 31.162 31.145 31.13 31.12 31.092 31.057 31.022 30.977 30.94 30.877 30.802 30.732 30.695 30.68 30.612 30.595 30.542 30.517 30.447 30.46 30.437 30.425 30.395 30.382 30.32 30.287 30.262 30.19 30.15 30.072 30.064 30.034 29.969 29.929 29.874 29.824 29.799 29.777 29.747 29.722 29.677 29.642 29.609 29.544 29.512 29.477 29.432 29.394 29.332 29.267 29.264 29.237 29.257 29.247 29.284 29.254 29.249 29.257 29.219 29.197 29.174 29.152
