ncols 426
nrows 32
xllcorner    427100
yllcorner    489178
cellsize     2
NODATA_value -9999
40.694 40.712 40.792 40.814 40.794 40.772 40.857 40.864 40.877 40.834 40.962 41.032 40.962 40.922 40.992 40.974 40.949 40.932 41.002 41.059 41.084 41.074 41.102 41.144 41.192 41.237 41.237 41.239 41.274 41.357 41.487 41.549 41.562 41.557 41.524 41.527 41.529 41.577 41.654 41.729 41.802 41.764 41.772 41.707 41.714 41.864 42.014 42.144 42.262 42.339 42.382 42.419 42.472 42.544 42.664 42.759 42.849 42.989 43.052 43.037 43.112 43.172 43.307 43.519 43.669 43.722 43.792 43.834 43.927 43.987 44.072 44.137 44.192 44.264 44.312 44.339 44.377 44.479 44.547 44.609 44.627 44.642 44.634 44.717 44.837 44.899 44.949 44.999 45.017 45.029 45.077 45.154 45.184 45.199 45.264 45.289 45.269 45.244 45.277 45.339 45.359 45.327 45.294 45.209 45.167 45.172 45.154 45.162 45.117 44.994 44.872 44.852 44.819 44.799 44.769 44.727 44.662 44.517 44.472 44.534 44.612 44.672 44.737 44.652 44.564 44.509 44.622 44.749 44.759 44.727 44.707 44.724 44.814 44.834 44.727 44.584 44.679 44.832 44.957 45.004 45.002 44.982 44.984 45.002 45.007 45.039 44.989 44.827 44.892 44.804 44.722 44.704 44.734 44.769 44.789 44.832 44.949 45.097 45.259 45.457 45.649 45.874 46.147 46.342 46.534 46.722 46.919 47.107 47.272 47.372 47.524 47.624 47.757 47.834 47.877 47.962 47.989 48.092 48.122 48.172 48.229 48.257 48.259 48.352 48.457 48.517 48.602 48.694 48.764 48.859 48.899 48.967 49.027 49.114 49.202 49.269 49.344 49.399 49.467 49.544 49.604 49.707 49.759 49.782 49.817 49.897 50.039 50.192 50.017 49.892 49.802 49.809 49.819 49.957 50.007 50.009 49.897 49.872 49.802 49.694 49.489 49.309 49.229 49.234 49.239 49.297 49.317 49.279 49.249 49.057 48.877 48.739 48.732 48.769 48.664 48.662 48.599 48.492 48.457 48.422 48.389 48.369 48.367 48.222 47.869 47.687 47.512 47.194 47.017 47.007 47.009 47.057 47.064 47.142 47.127 47.094 47.114 47.154 47.157 47.162 47.117 47.104 47.074 47.054 47.019 46.957 46.884 46.889 46.877 46.862 46.872 46.844 46.832 46.797 46.729 46.707 46.722 46.662 46.597 46.537 46.432 46.272 46.174 46.082 46.014 45.952 45.877 45.814 45.772 45.664 45.539 45.379 45.297 45.277 45.287 45.217 45.257 45.237 45.222 45.249 45.279 45.339 45.399 45.477 45.537 45.602 45.669 45.717 45.692 45.672 45.639 45.644 45.577 45.507 45.359 45.139 44.987 44.842 44.772 44.722 44.689 44.682 44.682 44.662 44.637 44.579 44.542 44.487 44.469 44.429 44.329 44.202 44.052 43.957 44.012 44.067 44.094 44.087 44.107 44.109 44.107 44.112 44.177 44.247 44.352 44.327 44.369 44.282 44.269 44.227 44.162 44.099 43.992 43.972 43.932 43.874 43.792 43.859 43.867 43.859 43.842 43.854 43.882 43.884 43.874 43.877 43.899 43.889 43.877 43.867 43.847 43.842 43.837 43.797 43.817 43.767 43.747 43.757 43.794 43.757 43.732 43.507 43.477 43.459 43.524 43.317 43.147 43.217 43.159 43.087 42.954 42.904 42.937 42.984 42.992 43.024 43.049 43.074 43.047 43.052 43.034 43.002 42.954 42.924 42.899 42.907 43.002 42.737 42.362 42.384 42.412 42.302 42.172 41.989 41.917 41.867 41.772 41.674 41.629 41.519 41.392 41.299 41.234 41.204 41.239 41.214
40.709 40.727 40.729 40.699 40.732 40.839 40.859 40.877 40.852 40.844 40.952 41.049 41.007 40.922 40.912 40.954 40.969 41.019 41.097 41.177 41.144 41.132 41.149 41.199 41.192 41.197 41.219 41.287 41.387 41.464 41.519 41.549 41.539 41.507 41.499 41.534 41.587 41.667 41.752 41.767 41.787 41.704 41.664 41.739 41.887 42.034 42.169 42.269 42.359 42.412 42.469 42.429 42.482 42.624 42.757 42.827 42.959 43.037 42.972 43.037 43.169 43.312 43.477 43.627 43.694 43.757 43.829 43.862 43.942 44.037 44.094 44.179 44.222 44.247 44.314 44.392 44.499 44.549 44.557 44.582 44.587 44.654 44.732 44.852 44.897 44.912 44.942 44.979 44.989 45.052 45.129 45.217 45.237 45.207 45.239 45.242 45.264 45.309 45.339 45.362 45.324 45.247 45.204 45.212 45.232 45.249 45.192 45.104 45.002 44.942 44.899 44.902 44.914 44.864 44.782 44.662 44.554 44.539 44.619 44.724 44.794 44.719 44.632 44.567 44.577 44.659 44.742 44.762 44.679 44.702 44.752 44.764 44.842 44.864 44.762 44.729 44.824 44.909 44.964 44.942 44.974 44.997 44.949 44.949 45.009 45.169 45.237 44.949 44.862 44.847 44.762 44.752 44.752 44.752 44.829 44.844 44.942 45.069 45.239 45.402 45.614 45.832 46.092 46.352 46.582 46.827 47.042 47.229 47.387 47.582 47.702 47.769 47.844 47.889 47.952 47.949 48.089 48.139 48.157 48.207 48.247 48.309 48.319 48.384 48.469 48.537 48.612 48.684 48.772 48.834 48.894 48.942 49.032 49.069 49.139 49.214 49.277 49.354 49.407 49.482 49.552 49.627 49.669 49.712 49.772 49.857 50.004 50.012 49.919 49.849 49.759 49.769 49.854 50.042 50.017 49.992 49.947 49.927 49.829 49.679 49.442 49.317 49.332 49.274 49.224 49.212 49.277 49.279 49.247 48.972 48.794 48.737 48.784 48.794 48.712 48.742 48.727 48.577 48.514 48.454 48.384 48.262 48.277 48.239 48.089 48.049 47.847 47.549 47.324 47.204 47.067 47.049 47.074 47.102 47.092 47.104 47.142 47.127 47.149 47.134 47.099 47.102 47.059 47.029 46.967 46.922 46.874 46.854 46.829 46.834 46.819 46.814 46.777 46.739 46.689 46.659 46.672 46.629 46.607 46.527 46.417 46.307 46.189 46.107 46.012 45.937 45.862 45.807 45.704 45.587 45.469 45.382 45.329 45.237 45.267 45.237 45.249 45.187 45.192 45.214 45.254 45.324 45.417 45.469 45.539 45.594 45.627 45.637 45.612 45.587 45.574 45.574 45.517 45.422 45.292 45.129 44.959 44.834 44.784 44.739 44.699 44.679 44.722 44.717 44.672 44.619 44.559 44.502 44.447 44.354 44.237 44.152 44.027 43.942 43.987 44.044 44.069 44.044 44.047 44.014 44.042 44.074 44.174 44.282 44.402 44.419 44.357 44.284 44.269 44.217 44.127 44.067 44.019 43.992 43.979 43.942 43.947 43.954 43.974 43.897 43.899 43.894 43.942 43.932 43.919 43.907 43.909 43.917 43.902 43.874 43.844 43.849 43.854 43.809 43.764 43.707 43.702 43.719 43.667 43.634 43.597 43.554 43.477 43.457 43.459 43.412 43.444 43.339 43.232 43.024 42.954 42.957 42.792 42.767 42.709 42.569 42.629 42.742 42.827 42.987 42.969 42.892 42.932 42.907 42.837 42.882 42.889 42.559 42.277 42.374 42.347 42.234 42.099 41.987 41.914 41.849 41.684 41.619 41.512 41.407 41.337 41.229 41.149 41.149 41.194 41.169
40.759 40.744 40.784 40.747 40.754 40.807 40.819 40.852 40.837 40.864 40.834 40.967 41.007 41.039 40.892 40.954 41.057 41.074 41.097 41.147 41.229 41.229 41.229 41.207 41.207 41.222 41.284 41.414 41.502 41.507 41.514 41.502 41.509 41.479 41.527 41.589 41.682 41.727 41.744 41.734 41.684 41.664 41.782 41.922 42.067 42.197 42.252 42.327 42.404 42.452 42.507 42.554 42.544 42.694 42.824 42.874 42.922 42.922 43.002 43.159 43.319 43.434 43.529 43.582 43.627 43.739 43.862 43.944 44.022 44.104 44.119 44.137 44.207 44.307 44.394 44.464 44.477 44.479 44.494 44.559 44.664 44.759 44.799 44.867 44.862 44.892 44.949 44.992 45.084 45.117 45.172 45.189 45.169 45.197 45.209 45.249 45.324 45.367 45.314 45.309 45.252 45.222 45.232 45.287 45.284 45.219 45.134 45.039 44.984 44.992 45.014 45.007 44.927 44.792 44.722 44.604 44.617 44.714 44.802 44.844 44.804 44.674 44.584 44.612 44.717 44.787 44.732 44.697 44.702 44.794 44.842 44.837 44.832 44.859 44.909 44.954 44.984 44.967 44.899 44.909 44.967 44.944 44.939 44.972 45.017 45.089 45.182 45.044 44.844 44.867 44.824 44.784 44.777 44.787 44.812 44.852 44.929 45.074 45.294 45.469 45.684 45.917 46.229 46.417 46.644 46.927 47.157 47.334 47.474 47.712 47.824 47.894 47.927 47.972 48.034 48.044 48.147 48.169 48.202 48.229 48.289 48.322 48.364 48.454 48.507 48.557 48.624 48.702 48.774 48.834 48.869 48.934 49.004 49.069 49.137 49.174 49.267 49.329 49.389 49.442 49.509 49.577 49.619 49.639 49.722 49.844 49.987 49.924 49.842 49.742 49.739 49.732 49.887 49.979 49.999 49.962 49.929 49.902 49.827 49.629 49.362 49.259 49.264 49.282 49.262 49.244 49.287 49.242 49.142 48.852 48.769 48.809 48.814 48.807 48.794 48.812 48.892 48.799 48.632 48.574 48.374 48.257 48.169 48.129 48.017 47.954 47.954 47.894 47.722 47.619 47.354 47.209 47.179 47.109 47.049 47.097 47.157 47.179 47.172 47.137 47.122 47.112 47.042 46.969 46.909 46.884 46.842 46.832 46.809 46.787 46.774 46.764 46.734 46.684 46.632 46.637 46.632 46.622 46.569 46.474 46.407 46.317 46.204 46.127 46.032 45.927 45.849 45.757 45.632 45.532 45.419 45.374 45.342 45.247 45.242 45.232 45.217 45.232 45.224 45.182 45.282 45.367 45.394 45.462 45.544 45.574 45.554 45.544 45.559 45.512 45.489 45.472 45.444 45.337 45.197 45.057 44.937 44.844 44.797 44.727 44.689 44.692 44.704 44.742 44.689 44.647 44.564 44.502 44.434 44.322 44.197 44.097 43.994 43.927 43.909 43.934 43.972 43.954 43.969 43.967 44.002 44.089 44.184 44.297 44.479 44.454 44.374 44.272 44.272 44.177 44.134 44.097 44.084 44.059 43.982 43.959 43.949 43.937 43.912 43.939 43.967 43.987 43.972 44.004 43.974 43.964 43.962 43.964 43.922 43.902 43.869 43.857 43.852 43.834 43.817 43.779 43.722 43.722 43.667 43.627 43.542 43.479 43.402 43.367 43.322 43.277 43.229 43.224 43.134 43.037 43.034 43.024 42.894 42.894 42.892 42.742 42.784 42.727 42.692 42.837 42.772 42.562 42.537 42.647 42.724 42.784 42.689 42.342 42.202 42.259 42.192 42.087 42.009 41.962 41.917 41.809 41.674 41.564 41.422 41.297 41.209 41.174 41.099 41.142 41.184 41.137
40.782 40.752 40.749 40.769 40.744 40.752 40.764 40.792 40.824 40.862 40.884 40.894 41.064 41.194 41.009 40.974 41.097 41.122 41.142 41.189 41.284 41.289 41.189 41.204 41.282 41.339 41.432 41.509 41.469 41.492 41.467 41.479 41.514 41.544 41.599 41.682 41.717 41.747 41.672 41.607 41.714 41.839 41.972 42.102 42.194 42.264 42.294 42.377 42.432 42.507 42.567 42.639 42.667 42.787 42.817 42.839 42.902 43.069 43.167 43.279 43.374 43.409 43.472 43.579 43.712 43.814 43.904 43.994 44.039 44.064 44.104 44.202 44.307 44.382 44.397 44.399 44.409 44.492 44.564 44.612 44.754 44.809 44.814 44.854 44.872 44.929 45.002 45.064 45.099 45.124 45.137 45.122 45.152 45.209 45.269 45.349 45.302 45.284 45.267 45.227 45.247 45.302 45.309 45.302 45.209 45.132 45.094 45.069 45.087 45.082 45.059 44.952 44.834 44.702 44.677 44.739 44.809 44.909 44.867 44.764 44.682 44.644 44.704 44.782 44.794 44.759 44.707 44.727 44.822 44.914 44.892 44.799 44.784 44.879 44.877 44.984 45.059 45.019 44.932 44.884 44.919 44.932 44.914 45.007 45.057 45.022 45.072 45.099 44.997 44.879 44.894 44.817 44.844 44.857 44.867 44.909 44.972 45.119 45.332 45.562 45.794 45.982 46.307 46.567 46.804 47.052 47.284 47.467 47.712 47.874 47.949 48.009 48.037 48.099 48.092 48.109 48.199 48.194 48.224 48.252 48.312 48.337 48.404 48.467 48.537 48.599 48.667 48.732 48.799 48.849 48.884 48.934 49.022 49.069 49.109 49.162 49.232 49.287 49.339 49.389 49.487 49.534 49.549 49.609 49.692 49.847 49.972 49.832 49.769 49.717 49.722 49.734 49.939 49.992 49.977 49.962 49.907 49.859 49.774 49.529 49.339 49.247 49.247 49.332 49.377 49.362 49.269 49.232 49.042 48.822 48.779 48.792 48.852 48.839 48.814 48.879 48.982 48.964 48.789 48.604 48.367 48.242 48.187 48.112 48.007 47.927 47.874 47.887 47.909 47.864 47.647 47.452 47.317 47.227 47.119 47.084 47.174 47.202 47.197 47.174 47.142 47.139 47.044 46.932 46.899 46.859 46.819 46.822 46.789 46.754 46.757 46.742 46.684 46.642 46.622 46.612 46.607 46.597 46.519 46.452 46.384 46.322 46.224 46.137 46.012 45.917 45.827 45.744 45.644 45.539 45.439 45.364 45.372 45.322 45.269 45.214 45.214 45.207 45.202 45.197 45.262 45.337 45.397 45.427 45.494 45.527 45.484 45.432 45.449 45.454 45.447 45.362 45.352 45.279 45.117 45.017 44.942 44.854 44.802 44.742 44.724 44.739 44.737 44.699 44.707 44.664 44.577 44.522 44.382 44.257 44.129 44.072 43.972 43.909 43.849 43.872 43.922 43.897 43.869 43.914 44.002 44.107 44.222 44.284 44.464 44.429 44.354 44.272 44.229 44.174 44.124 44.092 44.082 44.084 44.044 43.999 43.989 43.987 43.972 43.944 43.957 43.964 43.977 44.004 44.009 43.987 43.989 43.969 43.964 43.982 43.964 43.952 43.882 43.832 43.839 43.787 43.754 43.727 43.672 43.627 43.529 43.462 43.407 43.359 43.312 43.237 43.152 43.094 43.037 42.987 42.917 42.902 42.859 42.832 42.827 42.774 42.764 42.722 42.704 42.762 42.694 42.387 42.237 42.114 42.117 42.237 42.152 42.137 42.117 42.079 42.024 41.907 41.862 41.857 41.902 41.814 41.637 41.489 41.384 41.282 41.192 41.184 41.164 41.124 41.102 41.044
40.782 40.742 40.762 40.762 40.744 40.752 40.739 40.774 40.837 40.884 40.882 40.904 40.974 41.202 41.109 41.047 41.119 41.154 41.194 41.232 41.207 41.232 41.227 41.299 41.379 41.404 41.447 41.437 41.424 41.429 41.447 41.502 41.542 41.622 41.682 41.719 41.707 41.667 41.624 41.717 41.842 41.997 42.109 42.157 42.222 42.289 42.317 42.432 42.479 42.567 42.637 42.687 42.719 42.697 42.789 42.944 43.084 43.194 43.199 43.287 43.362 43.422 43.564 43.672 43.759 43.819 43.889 43.974 44.014 44.099 44.199 44.302 44.324 44.312 44.322 44.402 44.494 44.569 44.654 44.662 44.744 44.757 44.799 44.857 44.932 45.019 45.077 45.049 45.057 45.057 45.069 45.137 45.232 45.267 45.239 45.254 45.247 45.227 45.234 45.279 45.324 45.317 45.282 45.209 45.179 45.159 45.164 45.187 45.174 45.109 44.979 44.857 44.779 44.777 44.854 44.929 44.959 44.899 44.792 44.699 44.687 44.772 44.877 44.847 44.784 44.744 44.757 44.879 44.937 44.909 44.802 44.774 44.894 45.027 44.954 44.964 45.009 45.039 44.964 44.969 44.947 44.917 44.977 44.994 45.032 45.049 45.057 45.082 45.127 44.927 44.864 44.864 44.892 44.922 44.914 44.992 45.072 45.217 45.427 45.672 45.897 46.124 46.424 46.694 46.959 47.237 47.504 47.654 47.832 47.917 47.984 48.062 48.109 48.129 48.154 48.182 48.222 48.252 48.274 48.339 48.354 48.369 48.414 48.474 48.577 48.602 48.669 48.722 48.784 48.847 48.879 48.939 49.014 49.052 49.087 49.142 49.217 49.264 49.294 49.397 49.459 49.469 49.499 49.572 49.654 49.807 49.834 49.789 49.694 49.687 49.692 49.814 49.949 49.974 49.999 49.957 49.887 49.794 49.632 49.377 49.344 49.262 49.242 49.269 49.357 49.294 49.224 49.169 48.959 48.849 48.787 48.762 48.834 48.794 48.764 48.919 48.939 48.884 48.742 48.512 48.304 48.167 48.099 48.034 47.979 47.929 47.879 47.799 47.824 47.912 47.802 47.727 47.569 47.442 47.339 47.272 47.277 47.302 47.249 47.227 47.172 47.127 47.062 46.999 46.949 46.889 46.837 46.804 46.754 46.734 46.727 46.697 46.667 46.629 46.614 46.589 46.594 46.557 46.489 46.449 46.379 46.339 46.257 46.137 46.009 45.909 45.842 45.717 45.634 45.574 45.502 45.434 45.402 45.359 45.289 45.242 45.194 45.217 45.162 45.197 45.254 45.337 45.372 45.414 45.434 45.439 45.409 45.357 45.347 45.364 45.379 45.327 45.227 45.164 45.087 44.969 44.882 44.849 44.817 44.752 44.769 44.779 44.759 44.717 44.659 44.609 44.567 44.494 44.347 44.202 44.082 44.002 43.939 43.904 43.834 43.874 43.872 43.867 43.874 43.917 44.029 44.109 44.197 44.274 44.319 44.307 44.319 44.252 44.204 44.167 44.134 44.124 44.097 44.057 44.039 44.022 43.994 43.994 44.002 44.014 43.997 43.969 43.989 44.004 43.992 43.964 43.934 43.949 43.989 43.994 43.962 43.979 43.934 43.912 43.864 43.829 43.797 43.749 43.672 43.587 43.512 43.444 43.404 43.354 43.259 43.204 43.179 43.072 43.002 42.927 42.874 42.822 42.769 42.707 42.654 42.599 42.569 42.532 42.529 42.537 42.547 42.552 42.504 42.337 42.089 42.039 41.859 41.742 41.794 41.702 41.769 41.702 41.692 41.777 41.839 41.744 41.557 41.392 41.294 41.204 41.119 41.134 41.159 41.089 41.009 40.982
40.774 40.749 40.744 40.799 40.779 40.762 40.767 40.812 40.852 40.897 40.902 40.962 40.947 41.087 41.174 41.302 41.237 41.202 41.184 41.204 41.192 41.237 41.322 41.342 41.392 41.374 41.339 41.382 41.412 41.417 41.477 41.549 41.624 41.672 41.682 41.697 41.637 41.669 41.737 41.864 41.982 42.059 42.112 42.207 42.252 42.317 42.374 42.489 42.569 42.654 42.647 42.662 42.704 42.814 42.969 43.077 43.154 43.214 43.209 43.324 43.419 43.567 43.632 43.684 43.742 43.787 43.927 44.039 44.134 44.184 44.214 44.227 44.229 44.302 44.399 44.477 44.574 44.604 44.654 44.669 44.729 44.792 44.867 44.929 44.984 45.017 45.017 44.999 45.002 45.064 45.127 45.149 45.189 45.182 45.167 45.182 45.202 45.249 45.304 45.324 45.284 45.242 45.217 45.169 45.192 45.207 45.244 45.194 45.119 44.997 44.869 44.849 44.879 44.989 45.019 45.014 44.919 44.802 44.727 44.744 44.862 44.889 44.879 44.797 44.772 44.852 44.947 44.979 44.919 44.794 44.757 44.889 45.017 45.037 45.122 45.049 44.982 45.047 45.084 45.084 44.984 44.944 44.959 44.994 45.042 45.049 45.017 45.074 45.197 45.039 44.894 44.894 44.927 45.004 44.999 45.064 45.147 45.272 45.552 45.772 45.994 46.259 46.542 46.842 47.119 47.419 47.704 47.887 47.909 47.907 47.982 48.067 48.132 48.187 48.222 48.257 48.267 48.269 48.337 48.354 48.387 48.432 48.487 48.527 48.582 48.627 48.697 48.749 48.792 48.824 48.869 48.929 48.994 49.032 49.069 49.119 49.187 49.247 49.289 49.374 49.394 49.409 49.514 49.537 49.699 49.764 49.729 49.737 49.629 49.679 49.684 49.882 49.962 49.929 49.944 49.914 49.847 49.774 49.479 49.277 49.279 49.257 49.277 49.307 49.229 49.197 49.209 49.112 48.902 48.842 48.754 48.767 48.777 48.834 48.872 48.902 48.959 48.822 48.602 48.369 48.199 48.077 48.034 48.032 47.982 48.012 47.959 47.894 47.817 47.729 47.732 47.744 47.792 47.674 47.529 47.409 47.267 47.319 47.309 47.217 47.162 47.152 47.097 47.079 46.997 46.942 46.889 46.859 46.827 46.747 46.747 46.704 46.682 46.627 46.579 46.564 46.542 46.517 46.492 46.442 46.382 46.347 46.272 46.147 46.034 45.944 45.854 45.757 45.664 45.604 45.579 45.532 45.434 45.357 45.297 45.237 45.222 45.199 45.172 45.159 45.237 45.292 45.337 45.354 45.357 45.374 45.327 45.289 45.304 45.289 45.292 45.267 45.189 45.092 45.032 44.917 44.847 44.792 44.777 44.794 44.772 44.752 44.757 44.742 44.687 44.607 44.527 44.434 44.307 44.184 44.069 43.952 43.902 43.872 43.822 43.812 43.824 43.842 43.882 43.902 43.959 44.064 44.264 44.334 44.294 44.322 44.269 44.224 44.167 44.134 44.139 44.119 44.099 44.084 44.044 44.072 44.007 43.974 43.987 43.979 44.004 44.017 44.007 44.019 44.022 43.999 44.004 43.992 43.987 43.994 43.964 43.934 43.924 43.882 43.864 43.819 43.757 43.719 43.667 43.587 43.509 43.432 43.382 43.292 43.199 43.144 43.069 43.009 42.952 42.907 42.829 42.779 42.704 42.659 42.597 42.552 42.504 42.407 42.387 42.364 42.367 42.409 42.309 42.219 42.222 42.222 42.044 41.797 41.599 41.229 41.439 41.609 41.584 41.514 41.477 41.469 41.382 41.264 41.134 41.059 40.989 41.044 41.112 41.104 40.979 40.994
40.792 40.764 40.744 40.759 40.757 40.767 40.794 40.872 40.884 40.927 40.977 40.984 40.979 40.984 41.252 41.434 41.359 41.267 41.212 41.199 41.247 41.274 41.324 41.307 41.337 41.299 41.349 41.392 41.409 41.457 41.544 41.597 41.637 41.677 41.642 41.607 41.624 41.739 41.862 42.009 42.072 42.097 42.162 42.224 42.297 42.374 42.444 42.594 42.574 42.549 42.589 42.739 42.867 43.027 43.094 43.127 43.147 43.229 43.324 43.482 43.567 43.597 43.624 43.679 43.777 43.939 44.067 44.137 44.202 44.164 44.134 44.182 44.312 44.402 44.442 44.497 44.547 44.567 44.632 44.677 44.772 44.859 44.907 44.937 44.957 44.934 44.942 44.982 45.082 45.139 45.142 45.112 45.112 45.107 45.134 45.174 45.254 45.292 45.292 45.252 45.207 45.189 45.219 45.269 45.274 45.244 45.204 45.097 44.997 44.917 44.939 45.019 45.059 45.059 45.044 44.917 44.797 44.759 44.834 44.897 44.969 44.914 44.822 44.827 44.894 45.004 44.979 44.872 44.792 44.819 44.967 45.027 45.089 45.104 45.127 45.142 45.114 45.067 45.114 45.149 45.077 45.037 45.019 45.007 45.074 45.059 45.067 45.152 45.279 45.209 45.004 44.989 44.977 45.019 45.077 45.174 45.219 45.342 45.597 45.859 46.052 46.329 46.599 46.867 47.154 47.477 47.814 48.004 48.067 47.997 48.007 48.014 48.099 48.154 48.247 48.297 48.279 48.317 48.364 48.397 48.427 48.482 48.514 48.592 48.597 48.657 48.694 48.729 48.782 48.819 48.882 48.944 48.999 49.029 49.049 49.129 49.154 49.207 49.254 49.339 49.359 49.384 49.464 49.542 49.707 49.737 49.727 49.682 49.614 49.637 49.717 49.844 49.927 49.939 49.912 49.859 49.802 49.619 49.319 49.249 49.262 49.289 49.357 49.339 49.242 49.172 49.089 48.979 48.852 48.802 48.762 48.787 48.767 48.862 48.864 48.852 48.849 48.714 48.489 48.279 48.129 48.039 48.024 48.039 48.054 48.047 48.002 47.974 47.922 47.844 47.807 47.757 47.737 47.657 47.667 47.562 47.572 47.504 47.412 47.242 47.119 47.119 47.139 47.084 47.017 46.949 46.917 46.914 46.894 46.827 46.774 46.709 46.679 46.574 46.604 46.584 46.539 46.497 46.484 46.434 46.399 46.354 46.274 46.164 46.057 45.942 45.872 45.802 45.724 45.654 45.654 45.642 45.537 45.442 45.337 45.289 45.239 45.194 45.192 45.172 45.224 45.252 45.314 45.332 45.309 45.262 45.264 45.259 45.259 45.224 45.179 45.167 45.142 45.064 44.969 44.879 44.859 44.802 44.732 44.749 44.749 44.732 44.714 44.694 44.647 44.599 44.477 44.374 44.304 44.202 44.097 44.004 43.894 43.837 43.787 43.774 43.787 43.799 43.872 43.884 43.937 44.167 44.399 44.364 44.304 44.282 44.212 44.152 44.142 44.127 44.114 44.082 44.062 44.069 44.049 44.057 44.039 43.974 43.982 44.017 44.004 43.992 43.969 43.974 43.977 44.019 44.034 44.024 44.057 44.044 44.009 43.997 43.954 43.909 43.864 43.822 43.742 43.664 43.624 43.539 43.479 43.422 43.367 43.272 43.202 43.132 43.049 42.982 42.907 42.862 42.792 42.754 42.647 42.587 42.564 42.477 42.437 42.389 42.329 42.287 42.239 42.237 42.147 42.074 42.057 42.022 42.032 42.062 41.882 41.669 41.607 41.609 41.492 41.252 41.019 40.932 41.009 41.074 41.034 40.984 40.947 40.969 41.012 41.019 40.994 40.994
40.782 40.797 40.799 40.802 40.777 40.809 40.857 40.899 40.902 40.944 40.957 40.982 41.012 41.009 41.099 41.339 41.349 41.299 41.272 41.237 41.277 41.362 41.347 41.237 41.294 41.372 41.394 41.409 41.459 41.507 41.622 41.642 41.614 41.614 41.559 41.607 41.732 41.842 41.924 42.002 42.087 42.124 42.187 42.254 42.349 42.469 42.549 42.514 42.499 42.614 42.787 42.914 42.992 43.009 43.049 43.117 43.254 43.319 43.434 43.522 43.559 43.602 43.687 43.799 43.942 44.034 44.057 44.062 44.077 44.112 44.162 44.274 44.342 44.392 44.464 44.462 44.499 44.582 44.684 44.777 44.837 44.857 44.887 44.884 44.889 44.934 44.987 45.047 45.089 45.097 45.059 45.044 45.084 45.099 45.167 45.202 45.212 45.214 45.197 45.189 45.207 45.247 45.292 45.322 45.254 45.184 45.099 45.024 45.027 45.067 45.097 45.159 45.134 45.042 44.924 44.832 44.854 44.919 44.964 44.959 44.937 44.847 44.864 44.994 45.022 44.969 44.884 44.882 44.884 45.039 45.129 45.144 45.169 45.172 45.164 45.172 45.182 45.177 45.154 45.132 45.134 45.124 45.092 45.112 45.069 45.062 45.099 45.199 45.287 45.204 45.064 45.097 45.094 45.109 45.144 45.202 45.279 45.427 45.637 45.877 46.084 46.364 46.569 46.837 47.144 47.484 47.929 48.099 48.124 48.067 48.044 48.062 48.107 48.147 48.234 48.294 48.312 48.367 48.374 48.419 48.464 48.512 48.539 48.614 48.627 48.664 48.717 48.747 48.779 48.824 48.879 48.942 48.977 49.002 49.059 49.094 49.119 49.157 49.247 49.287 49.297 49.327 49.404 49.559 49.714 49.707 49.637 49.602 49.639 49.632 49.797 49.864 49.894 49.922 49.897 49.867 49.719 49.434 49.207 49.229 49.242 49.292 49.372 49.282 49.244 49.159 48.984 48.859 48.787 48.754 48.824 48.954 48.974 48.992 48.924 48.837 48.784 48.592 48.384 48.267 48.139 48.072 48.007 48.009 48.072 48.049 48.044 48.037 48.019 47.982 47.949 47.872 47.794 47.722 47.714 47.809 47.937 47.889 47.734 47.607 47.444 47.402 47.312 47.197 47.094 47.062 47.029 46.994 46.937 46.857 46.809 46.689 46.689 46.614 46.544 46.514 46.484 46.439 46.412 46.432 46.402 46.382 46.299 46.164 46.062 45.972 45.909 45.832 45.747 45.717 45.692 45.672 45.582 45.462 45.349 45.334 45.269 45.194 45.162 45.147 45.209 45.247 45.297 45.257 45.257 45.219 45.212 45.192 45.182 45.172 45.139 45.079 45.059 45.034 44.952 44.874 44.837 44.784 44.744 44.719 44.697 44.692 44.689 44.657 44.584 44.562 44.492 44.387 44.307 44.239 44.132 44.037 43.917 43.832 43.787 43.734 43.742 43.764 43.832 43.859 44.039 44.329 44.387 44.344 44.284 44.237 44.197 44.167 44.137 44.112 44.089 44.072 44.054 44.034 44.029 44.017 44.019 43.994 43.987 43.987 44.009 44.017 44.029 44.029 44.024 44.034 44.037 44.032 44.022 44.009 44.034 44.017 43.949 43.929 43.904 43.839 43.777 43.692 43.619 43.507 43.437 43.377 43.327 43.277 43.187 43.117 42.999 42.977 42.919 42.844 42.782 42.722 42.649 42.557 42.482 42.417 42.347 42.304 42.262 42.182 42.102 42.054 41.972 41.962 41.907 41.884 41.827 41.809 41.724 41.679 41.614 41.552 41.492 41.399 40.922 40.879 40.774 40.814 40.859 40.944 40.959 40.937 41.019 40.969 40.942 40.967
40.759 40.794 40.822 40.849 40.844 40.877 40.912 40.914 40.909 40.954 40.987 41.014 41.049 41.047 41.047 41.184 41.302 41.349 41.334 41.307 41.352 41.352 41.269 41.269 41.362 41.387 41.422 41.437 41.522 41.559 41.607 41.602 41.564 41.519 41.532 41.669 41.829 41.902 41.952 42.002 42.082 42.162 42.224 42.327 42.404 42.479 42.437 42.489 42.647 42.819 42.887 42.929 42.957 42.979 43.104 43.249 43.329 43.362 43.427 43.529 43.609 43.742 43.854 43.929 43.942 43.974 43.954 43.989 44.069 44.179 44.257 44.309 44.339 44.389 44.449 44.487 44.537 44.659 44.739 44.787 44.787 44.787 44.827 44.862 44.942 45.019 45.024 45.004 44.982 44.962 44.992 45.039 45.099 45.134 45.167 45.162 45.104 45.112 45.157 45.237 45.272 45.312 45.324 45.247 45.157 45.104 45.084 45.119 45.184 45.227 45.187 45.132 45.037 44.934 44.897 44.944 44.999 45.034 44.974 44.882 44.872 44.949 45.047 45.074 45.004 44.897 44.947 45.139 45.132 45.152 45.194 45.192 45.209 45.207 45.252 45.257 45.234 45.207 45.199 45.164 45.129 45.152 45.154 45.139 45.099 45.084 45.164 45.214 45.219 45.137 45.092 45.119 45.162 45.142 45.169 45.242 45.299 45.417 45.629 45.837 46.079 46.412 46.622 46.794 47.162 47.539 47.922 48.134 48.129 48.127 48.119 48.109 48.127 48.169 48.222 48.269 48.322 48.367 48.404 48.419 48.504 48.532 48.597 48.609 48.639 48.664 48.732 48.732 48.767 48.812 48.864 48.932 48.949 48.957 49.054 49.077 49.102 49.157 49.197 49.214 49.259 49.312 49.409 49.524 49.662 49.729 49.629 49.594 49.622 49.714 49.847 49.857 49.852 49.897 49.872 49.814 49.584 49.244 49.219 49.279 49.294 49.387 49.427 49.294 49.227 49.057 48.882 48.812 48.764 48.822 48.939 49.112 49.239 49.157 48.959 48.829 48.647 48.499 48.282 48.194 48.124 48.059 47.984 48.029 48.069 48.057 48.047 48.037 48.034 48.039 48.017 47.987 47.922 47.857 47.814 47.924 48.217 48.299 48.177 48.022 47.842 47.832 47.709 47.569 47.447 47.557 47.579 47.532 47.444 47.419 47.174 46.974 47.077 46.922 46.602 46.479 46.464 46.432 46.382 46.372 46.367 46.327 46.269 46.164 46.072 45.987 45.904 45.817 45.747 45.719 45.672 45.614 45.587 45.477 45.389 45.384 45.312 45.192 45.159 45.102 45.164 45.232 45.234 45.219 45.192 45.184 45.169 45.107 45.092 45.119 45.112 45.047 44.997 44.967 44.927 44.894 44.809 44.782 44.772 44.719 44.644 44.629 44.632 44.614 44.519 44.442 44.419 44.399 44.354 44.272 44.124 44.047 43.967 43.897 43.807 43.719 43.709 43.732 43.749 43.907 44.232 44.392 44.349 44.332 44.274 44.207 44.159 44.127 44.114 44.124 44.077 44.057 44.022 44.022 44.022 44.009 44.014 44.012 43.949 43.914 43.942 43.959 43.979 44.004 43.987 44.039 44.034 44.042 44.039 44.032 44.037 43.982 43.959 43.907 43.847 43.809 43.752 43.682 43.594 43.499 43.454 43.377 43.292 43.244 43.164 43.089 42.997 42.929 42.879 42.812 42.757 42.684 42.619 42.592 42.477 42.407 42.359 42.277 42.207 42.109 42.032 41.954 41.902 41.829 41.799 41.744 41.692 41.679 41.604 41.557 41.522 41.462 41.502 41.554 41.449 41.222 41.092 40.892 40.837 40.757 40.797 40.694 40.872 40.994 40.917 40.889
40.867 40.829 40.864 40.872 40.924 40.912 40.934 40.949 40.939 40.969 41.034 41.007 41.039 41.062 41.062 41.099 41.229 41.349 41.349 41.372 41.347 41.252 41.282 41.304 41.399 41.414 41.459 41.532 41.569 41.567 41.569 41.514 41.452 41.534 41.679 41.787 41.887 41.924 41.964 42.019 42.137 42.184 42.284 42.384 42.364 42.372 42.514 42.669 42.794 42.864 42.867 42.899 42.979 43.122 43.259 43.309 43.329 43.387 43.534 43.657 43.779 43.842 43.889 43.874 43.879 43.912 44.002 44.114 44.189 44.209 44.244 44.262 44.329 44.347 44.442 44.549 44.602 44.682 44.714 44.714 44.729 44.789 44.854 44.919 44.962 44.934 44.914 44.917 44.927 44.949 45.007 45.057 45.087 45.072 45.069 45.059 45.094 45.149 45.224 45.284 45.312 45.257 45.189 45.122 45.109 45.147 45.242 45.309 45.292 45.222 45.117 45.002 44.949 44.947 45.052 45.069 45.049 44.969 44.897 44.927 45.052 45.099 45.059 44.977 44.912 44.914 45.089 45.232 45.189 45.217 45.244 45.219 45.209 45.234 45.284 45.314 45.242 45.224 45.222 45.224 45.184 45.184 45.194 45.192 45.157 45.192 45.244 45.184 45.169 45.254 45.324 45.209 45.219 45.212 45.247 45.284 45.304 45.422 45.592 45.817 46.059 46.317 46.607 46.759 47.124 47.534 47.884 48.084 48.099 48.142 48.169 48.147 48.124 48.182 48.214 48.284 48.372 48.407 48.414 48.442 48.514 48.557 48.627 48.639 48.672 48.692 48.737 48.744 48.784 48.839 48.884 48.894 48.897 48.944 49.004 49.017 49.069 49.107 49.162 49.192 49.237 49.299 49.379 49.454 49.582 49.679 49.584 49.589 49.627 49.824 49.874 49.837 49.834 49.839 49.812 49.729 49.392 49.222 49.262 49.327 49.404 49.539 49.512 49.322 49.209 49.042 48.822 48.789 48.774 48.854 49.027 49.202 49.312 49.179 49.009 48.794 48.569 48.384 48.244 48.159 48.077 48.017 47.977 48.072 48.064 48.052 48.054 48.052 48.049 48.044 48.039 48.019 48.034 48.004 47.944 48.064 48.382 48.584 48.524 48.252 48.127 48.124 48.037 47.774 47.722 47.967 48.139 48.022 47.984 48.107 47.849 47.514 47.322 47.094 46.594 46.429 46.457 46.364 46.322 46.332 46.332 46.262 46.174 46.107 46.022 45.937 45.864 45.814 45.767 45.727 45.664 45.609 45.547 45.464 45.404 45.347 45.287 45.237 45.129 45.074 45.127 45.164 45.169 45.182 45.129 45.102 45.084 45.064 45.052 45.039 45.047 45.009 44.927 44.892 44.882 44.839 44.827 44.797 44.744 44.717 44.639 44.589 44.579 44.574 44.514 44.444 44.367 44.352 44.354 44.244 44.139 44.054 43.977 43.909 43.782 43.692 43.682 43.654 43.857 44.122 44.309 44.327 44.317 44.292 44.247 44.177 44.107 44.099 44.087 44.089 44.064 44.047 44.054 44.044 44.024 44.012 44.009 43.994 43.969 43.869 43.877 43.922 43.937 43.947 43.927 43.984 43.964 43.992 44.024 44.024 44.024 43.997 43.974 43.929 43.867 43.787 43.714 43.639 43.564 43.454 43.392 43.329 43.259 43.189 43.124 43.057 42.984 42.937 42.842 42.764 42.709 42.642 42.597 42.534 42.457 42.394 42.389 42.297 42.192 42.067 41.999 41.914 41.852 41.774 41.717 41.649 41.592 41.574 41.529 41.469 41.444 41.354 41.394 41.412 41.432 41.389 41.332 41.127 40.954 40.737 40.674 40.537 40.702 40.774 40.714 40.832
40.917 40.927 40.907 40.927 40.947 40.952 40.979 40.987 40.987 41.017 41.037 41.004 41.054 41.082 41.109 41.127 41.149 41.287 41.357 41.352 41.324 41.289 41.309 41.337 41.394 41.479 41.522 41.547 41.582 41.539 41.502 41.454 41.532 41.687 41.774 41.852 41.862 41.927 41.997 42.062 42.169 42.229 42.247 42.247 42.337 42.509 42.694 42.759 42.797 42.822 42.892 43.027 43.132 43.222 43.267 43.322 43.389 43.502 43.707 43.762 43.779 43.789 43.772 43.804 43.902 44.017 44.122 44.212 44.214 44.187 44.204 44.257 44.329 44.404 44.502 44.542 44.592 44.627 44.632 44.712 44.777 44.864 44.867 44.884 44.867 44.847 44.877 44.894 44.959 45.032 45.029 45.059 45.022 45.012 45.027 45.102 45.194 45.234 45.262 45.229 45.194 45.147 45.097 45.162 45.257 45.329 45.379 45.317 45.224 45.104 45.017 45.007 45.074 45.122 45.152 45.077 44.984 44.919 45.009 45.104 45.132 45.079 44.949 44.909 44.959 45.134 45.262 45.269 45.247 45.239 45.252 45.234 45.277 45.279 45.287 45.322 45.269 45.267 45.277 45.262 45.277 45.259 45.234 45.229 45.239 45.289 45.247 45.189 45.249 45.402 45.572 45.489 45.347 45.284 45.282 45.342 45.377 45.394 45.529 45.727 45.947 46.152 46.459 46.722 47.114 47.482 47.844 48.019 48.082 48.114 48.144 48.127 48.144 48.154 48.179 48.269 48.352 48.409 48.434 48.487 48.514 48.554 48.612 48.662 48.694 48.699 48.754 48.742 48.794 48.837 48.877 48.877 48.887 48.954 48.967 48.997 49.057 49.104 49.142 49.129 49.187 49.259 49.442 49.502 49.582 49.614 49.572 49.609 49.669 49.869 49.844 49.854 49.857 49.809 49.739 49.592 49.264 49.272 49.337 49.377 49.462 49.544 49.479 49.257 49.097 48.912 48.777 48.759 48.769 48.844 49.014 49.194 49.239 49.122 49.009 48.764 48.532 48.319 48.237 48.079 48.024 47.987 48.049 48.069 48.064 48.059 48.059 48.054 48.049 48.044 48.039 48.032 48.042 48.062 48.034 48.097 48.217 48.307 48.412 48.282 48.097 48.054 48.052 47.862 48.022 48.232 48.307 48.142 48.114 48.457 48.247 47.832 47.487 47.109 46.609 46.389 46.397 46.307 46.272 46.269 46.237 46.179 46.117 46.047 45.944 45.912 45.834 45.782 45.734 45.674 45.652 45.604 45.549 45.469 45.404 45.337 45.282 45.227 45.184 45.064 45.057 45.117 45.122 45.107 45.062 44.997 45.017 44.997 45.009 44.997 44.974 44.932 44.869 44.857 44.837 44.829 44.867 44.802 44.737 44.659 44.639 44.599 44.512 44.484 44.459 44.429 44.402 44.349 44.289 44.229 44.147 44.067 43.977 43.902 43.789 43.659 43.624 43.682 44.054 44.222 44.259 44.309 44.294 44.262 44.217 44.167 44.132 44.069 44.039 44.027 44.014 44.027 44.024 44.037 44.024 43.989 43.959 44.007 43.994 43.912 43.932 43.939 43.919 43.924 43.927 43.934 43.927 43.944 43.964 43.954 43.972 43.957 43.939 43.892 43.854 43.799 43.742 43.647 43.554 43.484 43.372 43.264 43.212 43.154 43.077 42.982 42.929 42.872 42.832 42.754 42.699 42.642 42.587 42.484 42.434 42.384 42.312 42.229 42.172 42.077 42.027 41.957 41.874 41.784 41.697 41.607 41.564 41.519 41.439 41.397 41.332 41.309 41.249 41.194 41.162 41.164 41.189 41.099 41.047 40.942 40.729 40.554 40.597 40.577 40.439 40.669
40.967 40.959 40.977 40.999 40.982 40.992 40.987 40.997 41.024 41.044 41.052 41.054 41.067 41.084 41.137 41.154 41.154 41.227 41.274 41.297 41.322 41.339 41.307 41.377 41.419 41.539 41.577 41.564 41.539 41.502 41.439 41.532 41.674 41.824 41.849 41.879 41.944 41.954 42.032 42.099 42.134 42.142 42.174 42.342 42.522 42.622 42.689 42.739 42.789 42.919 43.047 43.137 43.194 43.212 43.277 43.434 43.559 43.664 43.732 43.737 43.712 43.739 43.819 43.947 44.044 44.127 44.162 44.159 44.172 44.197 44.247 44.292 44.387 44.427 44.459 44.484 44.514 44.582 44.684 44.752 44.807 44.829 44.797 44.757 44.802 44.832 44.902 44.964 45.002 44.977 44.952 44.949 44.957 45.049 45.092 45.172 45.192 45.179 45.159 45.104 45.092 45.137 45.229 45.334 45.397 45.367 45.302 45.184 45.099 45.074 45.119 45.157 45.192 45.132 45.074 44.997 45.039 45.104 45.164 45.164 45.054 44.979 44.924 45.037 45.214 45.302 45.349 45.342 45.319 45.287 45.267 45.277 45.302 45.317 45.297 45.362 45.337 45.334 45.252 45.312 45.292 45.264 45.234 45.249 45.279 45.282 45.279 45.249 45.359 45.399 45.574 45.669 45.507 45.362 45.319 45.342 45.417 45.477 45.569 45.684 45.839 46.037 46.407 46.707 47.119 47.504 47.754 47.959 48.057 48.072 48.099 48.067 48.132 48.172 48.184 48.239 48.327 48.412 48.472 48.514 48.547 48.559 48.592 48.654 48.697 48.712 48.737 48.747 48.794 48.847 48.869 48.862 48.874 48.937 48.977 48.989 49.049 49.079 49.099 49.107 49.167 49.272 49.484 49.582 49.604 49.554 49.559 49.607 49.767 49.809 49.804 49.799 49.797 49.772 49.617 49.429 49.169 49.204 49.322 49.347 49.367 49.437 49.409 49.174 48.957 48.809 48.767 48.754 48.747 48.832 48.937 48.904 48.907 48.972 48.979 48.774 48.472 48.282 48.197 48.049 48.014 48.004 48.082 48.069 48.069 48.064 48.059 48.054 48.049 48.044 48.039 48.032 48.047 48.092 48.062 48.017 48.002 48.024 48.137 48.019 47.922 47.857 47.844 47.832 47.892 47.964 47.952 47.787 47.849 48.154 48.292 47.999 47.582 47.107 46.572 46.382 46.327 46.254 46.257 46.197 46.137 46.107 46.079 45.994 45.932 45.862 45.817 45.762 45.699 45.642 45.612 45.619 45.547 45.457 45.412 45.344 45.242 45.197 45.169 45.089 45.014 45.072 45.077 45.039 44.999 44.942 44.919 44.944 44.989 44.977 44.912 44.827 44.834 44.814 44.792 44.817 44.829 44.784 44.742 44.632 44.597 44.569 44.512 44.449 44.392 44.392 44.394 44.357 44.252 44.189 44.139 44.054 43.977 43.882 43.749 43.632 43.599 43.822 44.139 44.202 44.274 44.307 44.297 44.219 44.149 44.089 44.062 44.072 44.049 44.027 44.017 44.014 43.982 43.974 43.962 43.934 43.957 43.972 43.964 43.932 43.879 43.909 43.892 43.924 43.914 43.909 43.904 43.927 43.952 43.934 43.957 43.899 43.837 43.814 43.784 43.699 43.689 43.612 43.507 43.442 43.354 43.284 43.217 43.157 43.097 42.974 42.912 42.847 42.762 42.722 42.679 42.624 42.544 42.494 42.447 42.372 42.259 42.184 42.112 42.022 41.969 41.907 41.822 41.767 41.682 41.597 41.562 41.499 41.394 41.317 41.279 41.219 41.162 41.129 41.077 40.999 40.914 40.899 40.879 40.877 40.762 40.657 40.539 40.619 40.697 40.672
41.017 41.039 41.029 41.014 41.004 41.037 40.997 41.017 41.057 41.047 41.084 41.099 41.109 41.139 41.129 41.167 41.187 41.177 41.257 41.364 41.414 41.367 41.369 41.432 41.479 41.547 41.564 41.529 41.509 41.462 41.484 41.617 41.712 41.802 41.879 41.914 41.974 42.064 42.102 42.059 42.054 42.172 42.367 42.494 42.542 42.607 42.662 42.767 42.914 43.012 43.069 43.124 43.164 43.267 43.444 43.554 43.607 43.629 43.639 43.672 43.747 43.857 43.967 44.017 44.074 44.062 44.042 44.107 44.149 44.227 44.304 44.312 44.344 44.367 44.377 44.447 44.539 44.649 44.722 44.719 44.692 44.714 44.699 44.734 44.807 44.897 44.944 44.917 44.919 44.909 44.907 44.977 45.054 45.127 45.169 45.117 45.097 45.062 45.029 45.084 45.189 45.287 45.384 45.399 45.347 45.247 45.144 45.117 45.157 45.197 45.242 45.214 45.162 45.049 45.039 45.119 45.197 45.202 45.129 45.062 45.009 45.007 45.177 45.374 45.349 45.377 45.394 45.352 45.354 45.329 45.349 45.347 45.314 45.334 45.342 45.382 45.379 45.342 45.349 45.347 45.294 45.202 45.232 45.269 45.284 45.299 45.362 45.384 45.437 45.412 45.509 45.712 45.687 45.437 45.397 45.392 45.447 45.514 45.599 45.709 45.817 46.074 46.272 46.659 47.104 47.499 47.777 47.929 47.939 48.029 48.047 48.077 48.112 48.147 48.177 48.249 48.284 48.389 48.454 48.514 48.557 48.609 48.627 48.682 48.682 48.694 48.689 48.762 48.812 48.824 48.812 48.844 48.904 48.904 48.959 48.972 49.027 49.052 49.079 49.102 49.159 49.339 49.502 49.567 49.574 49.532 49.574 49.647 49.774 49.822 49.792 49.742 49.729 49.652 49.464 49.259 49.177 49.222 49.339 49.379 49.364 49.364 49.377 49.229 48.904 48.782 48.762 48.749 48.744 48.772 48.817 48.822 48.839 48.812 48.814 48.582 48.337 48.282 48.129 48.014 48.002 48.072 48.134 48.107 48.074 48.062 48.059 48.054 48.049 48.044 48.039 48.034 48.044 48.084 48.087 48.002 47.954 47.919 47.939 47.902 47.844 47.802 47.757 47.744 47.819 47.807 47.759 47.677 47.637 47.587 47.747 47.897 47.607 47.104 46.572 46.372 46.302 46.222 46.214 46.157 46.102 46.082 46.029 45.979 45.929 45.884 45.837 45.807 45.729 45.629 45.607 45.607 45.517 45.447 45.454 45.382 45.232 45.184 45.119 45.067 44.979 44.967 45.002 44.964 44.889 44.812 44.832 44.884 44.937 44.919 44.867 44.779 44.749 44.747 44.784 44.799 44.779 44.737 44.722 44.617 44.529 44.507 44.444 44.412 44.372 44.352 44.334 44.282 44.237 44.184 44.129 44.062 43.962 43.842 43.699 43.624 43.732 43.972 44.127 44.219 44.292 44.322 44.289 44.214 44.124 44.052 44.024 44.039 44.022 44.024 44.019 44.022 43.994 43.962 43.929 43.902 43.899 43.892 43.889 43.909 43.907 43.872 43.877 43.924 43.907 43.899 43.937 43.907 43.919 43.927 43.932 43.892 43.827 43.799 43.747 43.669 43.597 43.519 43.454 43.387 43.302 43.222 43.159 43.107 43.092 42.994 42.934 42.864 42.769 42.714 42.652 42.579 42.497 42.467 42.399 42.334 42.264 42.187 42.112 42.032 41.942 41.874 41.772 41.672 41.647 41.577 41.507 41.457 41.394 41.329 41.242 41.159 41.109 41.034 41.007 40.942 40.879 40.802 40.732 40.637 40.609 40.587 40.597 40.742 40.782 40.677
41.122 41.137 41.102 41.089 41.064 41.052 41.049 41.077 41.072 41.082 41.097 41.099 41.117 41.159 41.154 41.182 41.229 41.189 41.214 41.334 41.417 41.514 41.489 41.492 41.504 41.482 41.492 41.482 41.389 41.419 41.599 41.644 41.679 41.764 41.904 42.002 42.054 42.077 41.994 42.037 42.164 42.342 42.439 42.502 42.519 42.592 42.754 42.909 42.969 43.014 43.059 43.154 43.277 43.419 43.544 43.579 43.562 43.587 43.697 43.797 43.914 43.909 43.952 43.957 43.967 44.024 44.092 44.129 44.187 44.229 44.244 44.269 44.277 44.314 44.424 44.517 44.584 44.589 44.612 44.619 44.619 44.672 44.732 44.799 44.834 44.854 44.849 44.799 44.857 44.932 44.987 45.059 45.107 45.094 45.027 44.987 44.972 45.042 45.149 45.247 45.344 45.339 45.354 45.277 45.177 45.152 45.177 45.257 45.287 45.294 45.224 45.117 45.059 45.127 45.239 45.237 45.192 45.102 45.037 45.022 45.082 45.247 45.347 45.414 45.402 45.417 45.417 45.384 45.394 45.387 45.407 45.407 45.374 45.379 45.397 45.422 45.449 45.432 45.387 45.367 45.304 45.229 45.324 45.354 45.319 45.299 45.372 45.409 45.487 45.464 45.482 45.629 45.784 45.604 45.489 45.514 45.524 45.572 45.594 45.702 45.849 46.117 46.327 46.742 47.122 47.442 47.747 47.904 47.909 47.949 48.017 48.089 48.097 48.119 48.142 48.212 48.262 48.337 48.424 48.499 48.539 48.589 48.642 48.657 48.682 48.692 48.729 48.752 48.794 48.829 48.844 48.869 48.894 48.924 48.944 48.974 49.037 49.049 49.067 49.109 49.219 49.389 49.494 49.537 49.549 49.547 49.579 49.709 49.747 49.777 49.742 49.689 49.644 49.617 49.419 49.242 49.259 49.244 49.289 49.367 49.349 49.377 49.329 49.149 48.812 48.737 48.744 48.769 48.814 48.842 48.842 48.837 48.737 48.757 48.644 48.434 48.317 48.264 48.074 47.964 47.974 48.034 48.099 48.117 48.119 48.097 48.064 48.052 48.049 48.044 48.039 48.034 48.042 48.062 48.004 47.967 47.917 47.874 47.762 47.699 47.737 47.694 47.694 47.689 47.752 47.764 47.787 47.724 47.592 47.384 47.127 47.357 47.347 46.987 46.552 46.349 46.282 46.217 46.177 46.119 46.062 46.074 46.012 45.979 45.954 45.884 45.864 45.794 45.714 45.639 45.594 45.577 45.537 45.439 45.409 45.339 45.269 45.209 45.127 45.064 44.989 44.894 44.899 44.864 44.749 44.712 44.789 44.819 44.824 44.817 44.799 44.762 44.664 44.692 44.782 44.822 44.777 44.712 44.697 44.642 44.537 44.444 44.399 44.382 44.382 44.354 44.284 44.244 44.197 44.167 44.119 44.034 43.942 43.809 43.647 43.657 43.889 44.032 44.109 44.239 44.322 44.317 44.269 44.219 44.162 44.074 44.042 44.022 44.004 44.004 43.982 43.979 43.994 43.962 43.932 43.897 43.882 43.884 43.899 43.869 43.879 43.827 43.814 43.837 43.842 43.874 43.902 43.902 43.874 43.899 43.904 43.857 43.824 43.799 43.742 43.672 43.604 43.489 43.407 43.362 43.297 43.197 43.142 43.054 43.012 42.904 42.864 42.809 42.792 42.722 42.664 42.622 42.537 42.484 42.387 42.309 42.219 42.167 42.084 42.047 41.967 41.852 41.759 41.692 41.594 41.529 41.434 41.379 41.299 41.299 41.247 41.197 41.079 40.969 40.917 40.879 40.814 40.749 40.687 40.609 40.532 40.549 40.639 40.764 40.697 40.592
41.179 41.192 41.182 41.157 41.127 41.104 41.094 41.117 41.132 41.109 41.149 41.127 41.127 41.152 41.182 41.222 41.242 41.244 41.204 41.327 41.492 41.624 41.554 41.479 41.379 41.397 41.434 41.387 41.437 41.577 41.627 41.637 41.702 41.824 41.909 41.952 41.919 41.909 42.002 42.159 42.267 42.314 42.379 42.459 42.609 42.714 42.849 42.907 42.947 43.042 43.189 43.312 43.392 43.457 43.494 43.522 43.507 43.667 43.807 43.879 43.909 43.889 43.864 43.922 43.987 44.127 44.212 44.202 44.184 44.197 44.177 44.227 44.307 44.382 44.437 44.487 44.522 44.502 44.534 44.577 44.634 44.699 44.762 44.789 44.742 44.747 44.812 44.844 44.924 44.999 45.052 45.014 44.999 44.942 44.917 44.962 45.044 45.182 45.287 45.329 45.317 45.239 45.147 45.134 45.152 45.222 45.289 45.302 45.269 45.184 45.147 45.172 45.239 45.299 45.284 45.199 45.097 45.034 45.107 45.212 45.357 45.422 45.432 45.439 45.469 45.447 45.432 45.429 45.462 45.449 45.432 45.399 45.422 45.447 45.402 45.432 45.457 45.419 45.367 45.354 45.359 45.379 45.399 45.354 45.292 45.344 45.429 45.392 45.434 45.472 45.559 45.582 45.757 45.769 45.579 45.597 45.622 45.629 45.667 45.707 45.852 46.104 46.354 46.777 47.114 47.444 47.697 47.837 47.882 47.897 48.004 48.072 48.079 48.114 48.182 48.219 48.257 48.294 48.389 48.477 48.549 48.574 48.637 48.654 48.667 48.669 48.717 48.754 48.789 48.819 48.827 48.869 48.897 48.899 48.957 48.999 49.009 49.024 49.097 49.162 49.307 49.442 49.522 49.554 49.537 49.542 49.589 49.704 49.672 49.709 49.694 49.664 49.634 49.567 49.302 49.229 49.282 49.294 49.277 49.302 49.344 49.294 49.239 48.974 48.764 48.762 48.739 48.759 48.802 48.824 48.839 48.789 48.727 48.732 48.562 48.379 48.299 48.229 48.039 47.949 48.009 48.019 48.047 48.087 48.097 48.107 48.109 48.084 48.054 48.042 48.039 48.034 48.032 48.047 47.994 47.934 47.879 47.769 47.679 47.627 47.649 47.639 47.632 47.659 47.712 47.697 47.749 47.722 47.574 47.407 46.949 46.994 47.114 46.809 46.472 46.319 46.259 46.197 46.112 46.054 46.044 45.992 45.982 45.989 45.949 45.904 45.874 45.797 45.694 45.624 45.584 45.567 45.537 45.467 45.414 45.339 45.299 45.199 45.112 45.062 44.984 44.842 44.807 44.779 44.667 44.602 44.712 44.769 44.772 44.719 44.719 44.682 44.662 44.667 44.717 44.802 44.804 44.739 44.657 44.587 44.517 44.444 44.389 44.329 44.317 44.304 44.237 44.197 44.184 44.139 44.082 44.029 43.919 43.749 43.664 43.827 43.989 44.024 44.132 44.267 44.274 44.299 44.259 44.207 44.184 44.124 44.087 44.087 44.034 44.029 44.002 43.987 43.989 43.927 43.894 43.837 43.844 43.872 43.887 43.892 43.882 43.849 43.812 43.779 43.762 43.797 43.824 43.832 43.822 43.822 43.844 43.817 43.804 43.769 43.727 43.659 43.572 43.502 43.424 43.327 43.259 43.202 43.124 43.052 42.997 42.927 42.834 42.742 42.702 42.669 42.634 42.577 42.502 42.459 42.374 42.312 42.257 42.182 42.062 42.002 41.932 41.854 41.759 41.717 41.657 41.582 41.442 41.384 41.264 41.234 41.172 41.119 41.049 40.967 40.904 40.844 40.817 40.744 40.714 40.614 40.589 40.689 40.809 40.724 40.617 40.632
41.237 41.252 41.247 41.222 41.212 41.187 41.202 41.187 41.167 41.157 41.154 41.174 41.167 41.174 41.182 41.244 41.244 41.229 41.269 41.332 41.449 41.547 41.369 41.182 41.152 41.289 41.394 41.444 41.532 41.537 41.594 41.669 41.749 41.792 41.777 41.782 41.872 42.017 42.139 42.192 42.259 42.304 42.429 42.567 42.667 42.724 42.804 42.934 43.079 43.217 43.319 43.379 43.374 43.417 43.499 43.547 43.579 43.777 43.824 43.832 43.829 43.837 43.929 44.042 44.102 44.162 44.172 44.142 44.159 44.134 44.194 44.282 44.357 44.397 44.439 44.429 44.424 44.464 44.534 44.612 44.669 44.677 44.669 44.684 44.697 44.792 44.872 44.932 44.974 44.984 44.944 44.899 44.897 44.929 44.992 45.144 45.239 45.284 45.279 45.197 45.139 45.087 45.152 45.229 45.289 45.312 45.284 45.209 45.192 45.197 45.267 45.327 45.324 45.237 45.164 45.054 45.094 45.257 45.364 45.422 45.432 45.454 45.477 45.479 45.494 45.454 45.472 45.514 45.494 45.457 45.447 45.462 45.464 45.454 45.479 45.434 45.432 45.389 45.394 45.392 45.437 45.467 45.194 45.199 45.389 45.429 45.472 45.464 45.499 45.507 45.557 45.622 45.694 45.822 45.774 45.657 45.682 45.664 45.702 45.732 45.887 46.109 46.472 46.809 47.139 47.404 47.722 47.787 47.874 47.887 47.972 47.987 48.067 48.084 48.132 48.187 48.242 48.282 48.324 48.452 48.517 48.572 48.614 48.664 48.664 48.677 48.729 48.759 48.807 48.807 48.822 48.867 48.892 48.909 48.974 49.014 49.017 49.017 49.112 49.239 49.367 49.472 49.512 49.504 49.529 49.534 49.669 49.692 49.639 49.707 49.677 49.644 49.619 49.394 49.197 49.159 49.184 49.192 49.154 49.189 49.324 49.272 49.017 48.819 48.762 48.769 48.762 48.784 48.792 48.799 48.807 48.787 48.702 48.594 48.444 48.334 48.272 48.084 47.982 48.004 48.039 48.007 48.004 48.052 48.062 48.072 48.082 48.092 48.097 48.077 48.044 48.032 48.034 47.989 47.954 47.817 47.804 47.704 47.644 47.549 47.582 47.597 47.614 47.677 47.669 47.644 47.669 47.674 47.609 47.507 46.952 46.769 46.792 46.654 46.437 46.297 46.252 46.169 46.082 46.024 45.969 45.949 45.977 45.959 45.934 45.937 45.892 45.779 45.664 45.589 45.567 45.547 45.492 45.464 45.399 45.362 45.309 45.167 45.067 45.019 44.934 44.752 44.664 44.677 44.519 44.519 44.627 44.714 44.727 44.659 44.614 44.609 44.612 44.679 44.744 44.774 44.787 44.737 44.677 44.579 44.532 44.467 44.372 44.304 44.272 44.229 44.207 44.189 44.179 44.142 44.072 44.019 43.859 43.684 43.724 43.844 43.929 44.014 44.169 44.279 44.299 44.299 44.279 44.224 44.182 44.137 44.082 44.064 44.069 44.074 44.039 44.014 44.009 43.962 43.912 43.862 43.857 43.824 43.804 43.834 43.832 43.844 43.864 43.812 43.787 43.772 43.777 43.799 43.767 43.762 43.759 43.739 43.734 43.739 43.697 43.619 43.529 43.472 43.417 43.342 43.262 43.192 43.109 43.049 43.024 42.939 42.879 42.792 42.714 42.659 42.654 42.557 42.474 42.394 42.339 42.294 42.244 42.192 42.094 42.014 41.932 41.862 41.759 41.699 41.629 41.554 41.494 41.449 41.339 41.239 41.147 41.049 40.992 40.964 40.924 40.859 40.804 40.739 40.714 40.732 40.864 40.874 40.744 40.652 40.609 40.634
41.329 41.297 41.309 41.284 41.274 41.242 41.239 41.204 41.179 41.189 41.204 41.174 41.167 41.209 41.224 41.229 41.242 41.267 41.309 41.284 41.352 41.407 41.169 41.042 41.082 41.222 41.449 41.514 41.532 41.567 41.674 41.712 41.717 41.707 41.752 41.842 41.944 42.087 42.132 42.152 42.252 42.402 42.549 42.612 42.657 42.762 42.947 43.132 43.204 43.267 43.294 43.319 43.394 43.509 43.639 43.689 43.717 43.767 43.754 43.774 43.867 43.987 44.044 44.069 44.089 44.089 44.059 44.104 44.184 44.209 44.267 44.292 44.317 44.309 44.334 44.352 44.432 44.504 44.557 44.577 44.559 44.579 44.614 44.707 44.799 44.862 44.909 44.914 44.869 44.832 44.804 44.887 44.982 45.094 45.187 45.219 45.189 45.162 45.114 45.074 45.094 45.224 45.284 45.309 45.294 45.217 45.184 45.194 45.257 45.354 45.352 45.284 45.197 45.129 45.162 45.214 45.329 45.387 45.459 45.462 45.427 45.474 45.502 45.497 45.472 45.499 45.547 45.554 45.499 45.507 45.527 45.497 45.497 45.509 45.489 45.452 45.437 45.437 45.462 45.499 45.502 45.424 45.292 45.297 45.484 45.504 45.474 45.502 45.602 45.589 45.552 45.587 45.684 45.837 45.934 45.777 45.687 45.714 45.754 45.819 45.934 46.242 46.674 46.922 47.154 47.417 47.707 47.827 47.909 47.934 47.979 48.054 48.049 48.094 48.139 48.142 48.237 48.277 48.357 48.419 48.514 48.564 48.619 48.659 48.679 48.687 48.744 48.744 48.797 48.794 48.849 48.882 48.892 48.912 48.984 48.992 49.009 49.069 49.137 49.304 49.384 49.459 49.502 49.487 49.522 49.554 49.654 49.657 49.594 49.594 49.607 49.542 49.457 49.244 49.164 49.124 49.092 49.102 49.087 49.129 49.197 49.142 48.884 48.754 48.754 48.749 48.764 48.774 48.764 48.767 48.774 48.774 48.707 48.562 48.442 48.309 48.177 47.954 47.964 47.997 48.007 48.009 47.989 48.012 48.032 48.042 48.052 48.062 48.072 48.082 48.087 48.067 48.019 47.969 47.884 47.779 47.762 47.689 47.674 47.584 47.552 47.622 47.789 47.817 47.767 47.619 47.592 47.684 47.632 47.462 46.969 46.792 46.724 46.529 46.369 46.279 46.172 46.134 46.057 45.959 45.914 45.902 45.942 45.922 45.929 45.912 45.824 45.717 45.649 45.604 45.594 45.534 45.489 45.427 45.394 45.319 45.184 45.114 44.979 44.904 44.864 44.664 44.462 44.599 44.557 44.517 44.564 44.639 44.657 44.614 44.562 44.527 44.579 44.699 44.754 44.767 44.737 44.692 44.677 44.577 44.494 44.422 44.359 44.282 44.264 44.219 44.164 44.162 44.132 44.032 44.009 43.882 43.712 43.677 43.854 43.927 43.959 44.054 44.179 44.274 44.344 44.317 44.277 44.249 44.209 44.167 44.117 44.067 44.044 44.019 44.002 43.992 43.954 43.957 43.937 43.897 43.872 43.834 43.829 43.829 43.804 43.789 43.807 43.822 43.797 43.754 43.747 43.752 43.729 43.729 43.724 43.712 43.659 43.622 43.589 43.557 43.489 43.432 43.352 43.324 43.232 43.202 43.124 43.052 42.994 42.929 42.899 42.829 42.769 42.727 42.679 42.602 42.527 42.434 42.339 42.272 42.189 42.132 42.062 42.032 41.942 41.829 41.762 41.672 41.569 41.494 41.439 41.404 41.384 41.304 41.197 41.092 41.014 40.959 40.922 40.857 40.832 40.744 40.779 40.927 40.939 40.819 40.679 40.632 40.637 40.669
41.372 41.339 41.349 41.347 41.334 41.272 41.289 41.254 41.259 41.244 41.247 41.242 41.227 41.244 41.269 41.287 41.299 41.302 41.299 41.327 41.347 41.339 41.234 41.102 41.137 41.319 41.497 41.522 41.597 41.647 41.702 41.657 41.659 41.722 41.859 41.967 41.987 42.044 42.107 42.234 42.377 42.464 42.504 42.577 42.784 42.972 43.117 43.187 43.162 43.212 43.289 43.397 43.492 43.612 43.679 43.662 43.717 43.722 43.782 43.894 43.972 44.019 44.034 44.012 43.999 44.029 44.134 44.217 44.264 44.237 44.257 44.222 44.232 44.264 44.357 44.407 44.467 44.499 44.479 44.492 44.564 44.624 44.682 44.787 44.839 44.814 44.792 44.792 44.779 44.809 44.902 45.042 45.134 45.137 45.129 45.067 45.029 45.019 45.042 45.117 45.219 45.299 45.284 45.227 45.192 45.214 45.272 45.352 45.352 45.329 45.234 45.147 45.172 45.239 45.362 45.444 45.459 45.469 45.489 45.489 45.517 45.517 45.509 45.502 45.562 45.589 45.557 45.562 45.552 45.544 45.552 45.547 45.547 45.544 45.514 45.477 45.484 45.487 45.562 45.589 45.482 45.427 45.482 45.557 45.584 45.552 45.514 45.519 45.569 45.607 45.599 45.594 45.642 45.797 45.979 46.057 45.802 45.762 45.814 45.874 46.034 46.364 46.849 47.139 47.322 47.564 47.722 47.797 47.874 47.889 48.019 48.059 48.052 48.099 48.119 48.152 48.192 48.294 48.369 48.447 48.519 48.579 48.634 48.647 48.682 48.674 48.699 48.742 48.789 48.799 48.829 48.852 48.914 48.944 48.982 48.992 49.042 49.082 49.207 49.372 49.404 49.494 49.519 49.514 49.519 49.562 49.624 49.617 49.524 49.487 49.484 49.452 49.294 49.149 49.144 49.094 49.059 49.044 49.082 49.129 49.157 49.019 48.827 48.749 48.769 48.769 48.764 48.772 48.787 48.772 48.749 48.749 48.709 48.569 48.419 48.297 48.079 47.919 48.027 48.067 47.997 47.982 47.984 47.979 47.999 48.009 48.019 48.029 48.037 48.044 48.042 48.042 47.994 47.919 47.899 47.859 47.757 47.689 47.694 47.642 47.647 47.629 47.864 48.014 47.879 47.679 47.624 47.582 47.522 47.372 47.064 46.824 46.804 46.664 46.354 46.237 46.162 46.102 46.012 45.914 45.854 45.849 45.854 45.852 45.874 45.864 45.764 45.667 45.594 45.579 45.579 45.532 45.477 45.384 45.367 45.257 45.077 44.979 44.912 44.807 44.779 44.672 44.572 44.607 44.604 44.564 44.562 44.597 44.624 44.612 44.537 44.512 44.544 44.634 44.719 44.752 44.714 44.657 44.604 44.589 44.499 44.387 44.309 44.207 44.179 44.177 44.109 44.024 43.974 43.927 43.837 43.737 43.632 43.727 43.862 43.944 43.969 44.009 44.152 44.264 44.277 44.284 44.282 44.287 44.212 44.162 44.114 44.077 44.062 44.027 43.977 43.929 43.919 43.894 43.862 43.869 43.867 43.852 43.849 43.854 43.819 43.807 43.812 43.794 43.794 43.737 43.704 43.717 43.672 43.689 43.694 43.699 43.654 43.587 43.539 43.512 43.437 43.362 43.312 43.272 43.149 43.157 43.112 43.049 42.977 42.934 42.907 42.879 42.819 42.772 42.689 42.632 42.564 42.489 42.402 42.347 42.239 42.102 42.039 42.007 41.917 41.842 41.769 41.692 41.597 41.514 41.429 41.367 41.299 41.257 41.192 41.139 41.092 41.027 40.932 40.852 40.797 40.772 40.829 40.867 40.817 40.714 40.664 40.662 40.694 40.657
41.427 41.434 41.412 41.387 41.377 41.354 41.359 41.327 41.342 41.317 41.314 41.287 41.312 41.277 41.277 41.304 41.299 41.354 41.357 41.372 41.364 41.374 41.347 41.334 41.344 41.442 41.524 41.564 41.629 41.692 41.622 41.639 41.719 41.837 41.922 41.984 41.979 42.089 42.214 42.314 42.412 42.432 42.582 42.759 42.937 43.037 43.059 43.084 43.152 43.292 43.429 43.502 43.569 43.634 43.629 43.647 43.747 43.797 43.899 43.977 43.984 43.957 43.959 43.997 44.079 44.174 44.224 44.217 44.179 44.154 44.177 44.184 44.257 44.322 44.387 44.422 44.397 44.437 44.469 44.532 44.634 44.722 44.747 44.752 44.734 44.697 44.679 44.744 44.874 44.972 45.059 45.082 45.082 45.007 44.964 44.929 45.004 45.077 45.179 45.227 45.229 45.174 45.139 45.149 45.242 45.322 45.352 45.339 45.292 45.202 45.217 45.312 45.404 45.464 45.502 45.479 45.509 45.512 45.529 45.542 45.539 45.519 45.537 45.562 45.604 45.599 45.584 45.594 45.597 45.587 45.554 45.574 45.587 45.554 45.544 45.557 45.547 45.599 45.614 45.537 45.504 45.577 45.629 45.637 45.592 45.529 45.552 45.557 45.567 45.594 45.609 45.674 45.694 45.732 45.854 46.117 45.987 45.867 45.902 45.977 46.137 46.499 46.844 47.154 47.432 47.594 47.677 47.742 47.824 47.922 47.967 48.027 48.062 48.097 48.144 48.177 48.224 48.284 48.352 48.414 48.464 48.564 48.644 48.682 48.689 48.712 48.732 48.764 48.762 48.799 48.814 48.844 48.884 48.959 48.969 48.989 49.029 49.097 49.319 49.449 49.454 49.517 49.517 49.537 49.557 49.639 49.614 49.574 49.514 49.432 49.444 49.347 49.142 49.122 49.162 49.122 49.074 49.072 49.149 49.184 49.154 48.942 48.782 48.754 48.749 48.764 48.777 48.774 48.782 48.789 48.799 48.767 48.694 48.544 48.399 48.247 47.947 47.899 48.037 48.059 48.044 48.009 47.964 47.959 47.967 47.977 47.982 47.982 47.989 47.994 48.007 47.999 47.962 47.907 47.857 47.777 47.757 47.714 47.702 47.677 47.692 47.712 47.989 47.992 47.849 47.644 47.634 47.517 47.449 47.324 47.052 46.864 46.839 46.687 46.354 46.229 46.172 46.084 45.967 45.904 45.842 45.824 45.797 45.789 45.787 45.779 45.759 45.649 45.612 45.584 45.577 45.494 45.349 45.277 45.242 45.127 44.977 44.937 44.822 44.724 44.734 44.672 44.607 44.554 44.497 44.489 44.567 44.599 44.602 44.559 44.502 44.494 44.554 44.594 44.659 44.704 44.667 44.644 44.567 44.522 44.447 44.382 44.279 44.189 44.122 44.099 44.044 43.947 43.914 43.869 43.742 43.649 43.657 43.574 43.737 43.939 43.972 44.034 44.144 44.174 44.219 44.247 44.222 44.209 44.167 44.119 44.069 44.069 44.042 44.027 43.984 43.944 43.942 43.899 43.894 43.844 43.799 43.789 43.817 43.794 43.784 43.799 43.832 43.807 43.804 43.749 43.697 43.677 43.632 43.632 43.624 43.612 43.587 43.567 43.532 43.482 43.437 43.384 43.319 43.247 43.182 43.124 43.082 43.012 42.947 42.947 42.909 42.882 42.854 42.822 42.757 42.689 42.617 42.537 42.452 42.379 42.294 42.194 42.102 42.017 41.902 41.832 41.752 41.679 41.632 41.534 41.462 41.414 41.319 41.222 41.184 41.147 41.062 41.024 40.932 40.877 40.859 40.869 40.882 40.834 40.769 40.709 40.674 40.674 40.677 40.612
41.507 41.502 41.457 41.454 41.474 41.464 41.432 41.409 41.414 41.374 41.377 41.357 41.352 41.322 41.319 41.324 41.334 41.374 41.397 41.382 41.392 41.447 41.419 41.492 41.579 41.539 41.547 41.632 41.687 41.677 41.649 41.699 41.802 41.884 41.902 41.942 42.082 42.197 42.269 42.334 42.452 42.597 42.769 42.902 42.942 42.957 43.029 43.154 43.317 43.457 43.509 43.527 43.539 43.572 43.647 43.767 43.859 43.892 43.912 43.887 43.882 43.954 44.027 44.109 44.134 44.134 44.119 44.097 44.079 44.159 44.204 44.247 44.312 44.324 44.309 44.312 44.392 44.482 44.564 44.632 44.684 44.694 44.674 44.634 44.657 44.699 44.809 44.912 44.997 44.999 44.967 44.919 44.859 44.857 44.909 44.979 45.112 45.142 45.159 45.112 45.097 45.114 45.214 45.302 45.337 45.322 45.269 45.232 45.219 45.282 45.447 45.527 45.517 45.529 45.537 45.512 45.532 45.549 45.574 45.542 45.559 45.569 45.584 45.609 45.622 45.624 45.622 45.654 45.642 45.629 45.577 45.612 45.604 45.594 45.599 45.609 45.642 45.677 45.594 45.574 45.607 45.679 45.677 45.707 45.602 45.602 45.614 45.624 45.614 45.652 45.667 45.759 45.799 45.757 45.807 45.947 46.057 46.039 46.049 46.102 46.259 46.502 46.819 47.149 47.447 47.592 47.684 47.807 47.849 47.939 47.957 48.007 48.039 48.077 48.137 48.182 48.259 48.314 48.367 48.442 48.514 48.564 48.637 48.667 48.679 48.719 48.744 48.764 48.769 48.792 48.824 48.877 48.917 48.959 48.974 49.004 49.037 49.172 49.424 49.449 49.487 49.512 49.507 49.512 49.549 49.599 49.579 49.552 49.509 49.489 49.412 49.194 49.072 49.049 49.094 49.149 49.112 49.102 49.194 49.244 48.984 48.844 48.724 48.762 48.724 48.714 48.739 48.749 48.742 48.757 48.777 48.799 48.629 48.459 48.352 48.137 47.947 47.964 48.094 48.087 48.074 48.044 48.007 47.962 47.914 47.942 47.967 47.977 47.994 48.009 48.014 47.942 47.919 47.899 47.832 47.772 47.739 47.739 47.714 47.669 47.749 47.854 47.882 47.824 47.644 47.484 47.542 47.519 47.414 47.327 47.102 46.947 46.924 46.709 46.332 46.217 46.214 46.102 45.974 45.902 45.872 45.844 45.807 45.794 45.787 45.734 45.677 45.637 45.577 45.507 45.504 45.472 45.324 45.257 45.197 45.099 44.994 44.917 44.844 44.779 44.699 44.652 44.607 44.529 44.454 44.412 44.442 44.504 44.507 44.502 44.454 44.517 44.572 44.597 44.584 44.587 44.577 44.572 44.559 44.484 44.399 44.319 44.254 44.187 44.092 44.029 44.037 43.997 43.894 43.844 43.764 43.817 43.772 43.534 43.652 43.857 43.967 44.044 44.104 44.122 44.157 44.184 44.184 44.162 44.117 44.089 44.034 43.984 43.964 43.917 43.909 43.924 43.922 43.919 43.904 43.867 43.834 43.779 43.747 43.757 43.762 43.747 43.754 43.764 43.769 43.734 43.694 43.647 43.652 43.677 43.634 43.592 43.562 43.522 43.482 43.424 43.417 43.344 43.302 43.254 43.202 43.157 43.104 43.054 42.992 42.964 42.882 42.874 42.849 42.814 42.789 42.732 42.674 42.597 42.502 42.414 42.317 42.244 42.167 42.099 41.992 41.882 41.797 41.697 41.627 41.537 41.447 41.412 41.382 41.304 41.224 41.174 41.102 41.047 40.959 40.942 40.944 40.977 40.937 40.814 40.747 40.762 40.692 40.654 40.647 40.622
41.587 41.589 41.547 41.517 41.509 41.492 41.484 41.469 41.462 41.439 41.417 41.432 41.419 41.374 41.352 41.357 41.359 41.382 41.392 41.412 41.414 41.472 41.482 41.534 41.682 41.662 41.659 41.669 41.679 41.639 41.702 41.747 41.817 41.862 41.954 42.092 42.179 42.214 42.282 42.452 42.604 42.707 42.794 42.839 42.884 43.019 43.169 43.277 43.389 43.449 43.434 43.502 43.597 43.694 43.789 43.792 43.852 43.839 43.839 43.887 43.957 44.047 44.099 44.107 44.079 44.032 44.027 44.082 44.144 44.214 44.249 44.217 44.237 44.247 44.312 44.402 44.479 44.532 44.617 44.604 44.569 44.562 44.559 44.644 44.782 44.874 44.902 44.937 44.919 44.854 44.779 44.799 44.832 44.969 45.027 45.049 45.077 45.062 45.042 45.082 45.167 45.242 45.287 45.302 45.234 45.192 45.129 45.209 45.362 45.512 45.562 45.582 45.567 45.579 45.552 45.574 45.584 45.589 45.564 45.537 45.567 45.594 45.627 45.639 45.659 45.669 45.702 45.692 45.667 45.654 45.622 45.617 45.637 45.657 45.682 45.682 45.699 45.679 45.649 45.659 45.679 45.717 45.697 45.697 45.667 45.649 45.652 45.634 45.679 45.729 45.752 45.847 45.884 45.899 45.889 45.904 45.977 46.099 46.162 46.227 46.367 46.614 46.912 47.099 47.439 47.619 47.687 47.794 47.882 47.909 47.957 47.994 48.027 48.072 48.112 48.187 48.249 48.317 48.384 48.457 48.527 48.582 48.624 48.679 48.709 48.749 48.754 48.742 48.799 48.834 48.849 48.877 48.922 48.959 48.994 49.017 49.069 49.249 49.424 49.469 49.527 49.499 49.494 49.517 49.572 49.572 49.532 49.462 49.449 49.417 49.297 49.117 49.054 49.054 49.079 49.119 49.159 49.182 49.199 49.084 48.884 48.764 48.739 48.792 48.677 48.664 48.689 48.712 48.729 48.714 48.697 48.687 48.554 48.377 48.262 48.057 47.982 48.019 48.067 48.084 48.087 48.094 48.084 48.044 47.972 47.919 47.952 47.989 48.007 48.007 47.987 47.952 47.934 47.892 47.799 47.772 47.792 47.784 47.727 47.654 47.622 47.664 47.664 47.632 47.522 47.427 47.514 47.472 47.367 47.277 47.169 47.067 47.049 46.874 46.454 46.277 46.204 46.147 46.027 45.959 45.912 45.857 45.824 45.819 45.787 45.712 45.664 45.612 45.544 45.549 45.604 45.547 45.454 45.347 45.249 45.119 44.997 44.902 44.864 44.852 44.717 44.624 44.604 44.487 44.417 44.377 44.404 44.414 44.414 44.432 44.457 44.509 44.514 44.484 44.497 44.507 44.482 44.469 44.502 44.429 44.367 44.294 44.189 44.134 44.084 44.009 44.024 44.049 43.984 43.887 43.864 43.919 43.957 43.764 43.622 43.729 43.842 44.002 44.074 44.094 44.107 44.144 44.132 44.112 44.077 44.059 44.022 43.974 43.932 43.872 43.862 43.829 43.847 43.834 43.819 43.822 43.827 43.814 43.789 43.757 43.737 43.727 43.719 43.719 43.707 43.672 43.647 43.614 43.637 43.637 43.622 43.614 43.564 43.527 43.499 43.457 43.382 43.332 43.294 43.247 43.197 43.167 43.147 43.127 43.067 43.049 42.962 42.929 42.862 42.794 42.767 42.714 42.654 42.584 42.524 42.459 42.372 42.312 42.184 42.099 42.039 41.912 41.854 41.772 41.672 41.584 41.484 41.394 41.354 41.302 41.247 41.229 41.152 41.072 41.054 40.984 40.957 40.919 40.847 40.804 40.807 40.792 40.752 40.672 40.624 40.599
41.684 41.627 41.622 41.629 41.569 41.544 41.527 41.512 41.532 41.509 41.479 41.474 41.472 41.457 41.427 41.432 41.439 41.414 41.394 41.437 41.449 41.474 41.479 41.544 41.679 41.687 41.612 41.599 41.644 41.732 41.824 41.817 41.824 41.952 42.069 42.157 42.197 42.284 42.457 42.607 42.647 42.684 42.752 42.889 43.027 43.182 43.272 43.327 43.344 43.364 43.467 43.612 43.707 43.779 43.792 43.764 43.777 43.824 43.882 44.004 44.064 44.067 44.037 44.019 43.987 44.057 44.132 44.192 44.234 44.219 44.194 44.207 44.239 44.347 44.449 44.529 44.529 44.497 44.492 44.457 44.492 44.589 44.694 44.794 44.879 44.872 44.819 44.744 44.727 44.709 44.809 44.914 44.964 44.989 44.989 44.994 44.982 44.997 45.122 45.204 45.219 45.217 45.174 45.109 45.112 45.177 45.294 45.467 45.522 45.594 45.622 45.612 45.604 45.599 45.589 45.612 45.597 45.602 45.602 45.614 45.619 45.624 45.642 45.689 45.699 45.714 45.717 45.727 45.739 45.702 45.682 45.699 45.702 45.719 45.757 45.789 45.694 45.697 45.707 45.729 45.722 45.732 45.737 45.732 45.714 45.737 45.719 45.689 45.729 45.784 45.872 45.914 45.969 45.999 46.104 46.112 46.039 46.057 46.184 46.327 46.469 46.737 46.997 47.102 47.452 47.634 47.697 47.822 47.907 47.917 47.934 47.997 48.019 48.077 48.129 48.174 48.257 48.297 48.387 48.502 48.539 48.582 48.617 48.664 48.727 48.749 48.779 48.779 48.792 48.857 48.867 48.887 48.969 48.962 48.992 49.039 49.162 49.342 49.419 49.499 49.492 49.484 49.507 49.562 49.607 49.509 49.462 49.459 49.407 49.327 49.192 49.077 49.062 49.064 49.079 49.117 49.137 49.172 49.177 49.024 48.874 48.749 48.752 48.762 48.629 48.614 48.637 48.659 48.684 48.702 48.694 48.612 48.467 48.354 48.169 48.042 47.979 48.002 48.019 48.029 48.052 48.069 48.084 48.097 48.067 48.012 47.957 47.999 48.064 48.077 48.002 47.977 47.942 47.869 47.802 47.804 47.844 47.819 47.742 47.657 47.622 47.607 47.609 47.562 47.457 47.442 47.434 47.389 47.312 47.249 47.169 47.112 47.069 46.932 46.684 46.347 46.232 46.199 46.059 45.964 45.929 45.897 45.824 45.809 45.792 45.752 45.682 45.654 45.629 45.627 45.609 45.574 45.462 45.347 45.249 45.112 45.004 44.957 44.939 44.864 44.782 44.654 44.592 44.484 44.424 44.382 44.389 44.349 44.374 44.402 44.409 44.442 44.447 44.344 44.357 44.407 44.407 44.364 44.352 44.339 44.339 44.279 44.177 44.137 44.059 43.982 43.989 44.014 43.972 43.809 43.894 43.977 43.917 43.814 43.767 43.642 43.634 43.902 44.082 44.147 44.124 44.122 44.134 44.112 44.052 43.997 43.972 43.934 43.892 43.857 43.862 43.827 43.807 43.794 43.769 43.754 43.734 43.714 43.727 43.717 43.704 43.699 43.677 43.699 43.702 43.687 43.674 43.634 43.579 43.617 43.557 43.547 43.552 43.519 43.517 43.487 43.457 43.392 43.324 43.272 43.212 43.187 43.149 43.127 43.092 43.089 43.029 43.002 42.952 42.907 42.859 42.772 42.672 42.582 42.532 42.474 42.392 42.274 42.204 42.127 42.024 41.924 41.847 41.829 41.719 41.612 41.557 41.497 41.397 41.344 41.302 41.279 41.199 41.182 41.232 41.094 40.977 40.892 40.814 40.802 40.764 40.734 40.749 40.692 40.647 40.614
41.729 41.677 41.672 41.672 41.642 41.604 41.609 41.579 41.584 41.554 41.537 41.539 41.544 41.537 41.487 41.457 41.497 41.462 41.432 41.469 41.532 41.544 41.544 41.524 41.602 41.632 41.627 41.684 41.739 41.844 41.879 41.869 41.892 42.022 42.097 42.162 42.312 42.457 42.564 42.574 42.602 42.747 42.907 43.047 43.144 43.194 43.219 43.267 43.399 43.519 43.634 43.727 43.717 43.719 43.697 43.742 43.839 43.957 44.007 44.012 43.982 43.967 43.959 44.029 44.107 44.174 44.194 44.167 44.129 44.159 44.237 44.314 44.407 44.457 44.464 44.457 44.447 44.409 44.442 44.537 44.672 44.722 44.804 44.782 44.764 44.692 44.637 44.677 44.769 44.834 44.892 44.924 44.924 44.892 44.892 44.959 45.047 45.129 45.172 45.162 45.147 45.092 45.062 45.132 45.282 45.442 45.487 45.567 45.594 45.624 45.634 45.649 45.654 45.657 45.639 45.637 45.614 45.619 45.637 45.669 45.664 45.662 45.689 45.722 45.739 45.739 45.737 45.759 45.764 45.734 45.722 45.747 45.767 45.802 45.814 45.762 45.754 45.782 45.824 45.802 45.757 45.782 45.792 45.784 45.797 45.819 45.799 45.799 45.834 45.902 45.894 45.952 45.999 46.082 46.259 46.247 46.172 46.154 46.214 46.332 46.527 46.797 47.042 47.174 47.444 47.657 47.722 47.827 47.892 47.924 47.954 48.002 48.022 48.079 48.117 48.197 48.297 48.347 48.424 48.489 48.579 48.624 48.627 48.682 48.762 48.779 48.767 48.799 48.829 48.869 48.897 48.934 48.992 48.982 49.012 49.084 49.309 49.529 49.547 49.514 49.447 49.502 49.562 49.617 49.559 49.439 49.404 49.397 49.332 49.244 49.127 49.082 49.082 49.077 49.082 49.089 49.099 49.112 49.037 48.922 48.804 48.752 48.734 48.772 48.584 48.564 48.587 48.609 48.639 48.674 48.684 48.544 48.439 48.264 48.067 47.989 47.977 48.004 48.029 48.047 48.059 48.069 48.082 48.092 48.084 48.062 48.027 47.999 48.032 47.999 47.962 48.004 47.992 47.854 47.832 47.817 47.849 47.829 47.772 47.704 47.672 47.664 47.652 47.534 47.457 47.467 47.472 47.404 47.317 47.257 47.182 47.089 46.964 46.859 46.749 46.417 46.304 46.249 46.099 46.024 45.974 45.944 45.894 45.804 45.784 45.774 45.727 45.669 45.627 45.654 45.644 45.577 45.462 45.369 45.214 45.107 45.052 45.007 44.944 44.884 44.782 44.677 44.574 44.524 44.469 44.442 44.394 44.387 44.402 44.377 44.372 44.392 44.427 44.382 44.319 44.312 44.319 44.272 44.224 44.217 44.257 44.187 44.054 44.042 44.059 43.999 43.979 44.052 43.944 43.884 43.959 43.977 43.877 43.679 43.739 43.837 43.809 43.959 43.954 44.072 44.197 44.167 44.107 44.112 44.069 44.017 43.949 43.902 43.854 43.819 43.809 43.782 43.789 43.777 43.727 43.749 43.724 43.669 43.682 43.659 43.654 43.632 43.604 43.617 43.612 43.624 43.657 43.654 43.607 43.557 43.557 43.512 43.507 43.509 43.469 43.462 43.452 43.397 43.352 43.329 43.282 43.254 43.219 43.177 43.132 43.082 43.044 43.004 42.974 42.967 42.904 42.854 42.789 42.664 42.594 42.512 42.419 42.317 42.212 42.139 42.067 41.999 41.907 41.807 41.752 41.702 41.609 41.547 41.484 41.412 41.379 41.339 41.282 41.292 41.237 41.064 40.917 40.854 40.852 40.832 40.767 40.754 40.744 40.744 40.674 40.527
41.794 41.764 41.734 41.727 41.697 41.664 41.632 41.652 41.657 41.627 41.597 41.619 41.607 41.602 41.567 41.539 41.529 41.519 41.484 41.519 41.579 41.557 41.599 41.642 41.617 41.664 41.822 41.879 41.852 41.894 41.939 41.964 41.962 42.032 42.184 42.329 42.407 42.484 42.467 42.579 42.754 42.899 43.027 43.074 43.089 43.152 43.257 43.412 43.562 43.619 43.624 43.642 43.634 43.674 43.724 43.847 43.917 43.952 43.932 43.912 43.909 43.954 44.047 44.124 44.174 44.124 44.119 44.114 44.187 44.312 44.409 44.437 44.417 44.397 44.364 44.362 44.404 44.494 44.647 44.724 44.779 44.737 44.679 44.602 44.597 44.614 44.712 44.804 44.882 44.879 44.857 44.794 44.809 44.869 44.967 45.087 45.079 45.049 45.024 45.027 45.049 45.012 45.152 45.389 45.487 45.524 45.554 45.582 45.589 45.624 45.667 45.682 45.709 45.687 45.664 45.659 45.679 45.667 45.674 45.694 45.722 45.714 45.717 45.744 45.762 45.764 45.744 45.777 45.804 45.789 45.774 45.789 45.864 45.859 45.797 45.777 45.849 45.867 45.847 45.844 45.809 45.834 45.817 45.854 45.867 45.899 45.909 45.919 45.944 45.969 45.944 46.004 46.112 46.239 46.244 46.187 46.214 46.274 46.372 46.444 46.562 46.807 47.069 47.227 47.474 47.727 47.814 47.839 47.882 47.909 47.967 47.994 48.042 48.084 48.129 48.209 48.287 48.357 48.472 48.527 48.557 48.614 48.667 48.707 48.744 48.779 48.789 48.834 48.849 48.884 48.914 48.974 48.992 49.014 49.054 49.152 49.404 49.499 49.534 49.502 49.477 49.517 49.587 49.609 49.512 49.417 49.377 49.394 49.292 49.199 49.119 49.102 49.094 49.094 49.094 49.104 49.079 49.077 48.944 48.817 48.762 48.752 48.814 48.767 48.652 48.539 48.572 48.599 48.639 48.674 48.647 48.494 48.384 48.147 47.984 47.984 48.007 48.024 48.034 48.044 48.054 48.064 48.074 48.084 48.084 48.064 48.044 48.027 47.999 47.974 47.939 47.974 47.949 47.867 47.882 47.857 47.897 47.827 47.799 47.759 47.724 47.699 47.667 47.612 47.554 47.527 47.529 47.462 47.329 47.229 47.152 47.082 46.914 46.709 46.697 46.497 46.362 46.302 46.122 46.064 46.017 45.974 45.879 45.809 45.787 45.787 45.742 45.699 45.622 45.602 45.612 45.577 45.504 45.417 45.252 45.162 45.052 45.012 44.917 44.874 44.794 44.687 44.639 44.617 44.562 44.477 44.429 44.404 44.402 44.399 44.382 44.362 44.347 44.342 44.322 44.244 44.189 44.164 44.117 44.184 44.144 44.039 43.939 43.922 43.949 43.952 44.012 44.022 43.972 44.014 44.017 43.934 43.769 43.627 43.639 43.777 43.849 43.869 43.752 43.834 44.004 44.089 44.102 44.107 44.062 44.004 43.949 43.909 43.882 43.842 43.807 43.752 43.737 43.717 43.727 43.649 43.652 43.642 43.639 43.627 43.617 43.587 43.557 43.552 43.534 43.539 43.552 43.587 43.597 43.547 43.484 43.504 43.514 43.512 43.457 43.409 43.397 43.347 43.304 43.294 43.282 43.264 43.274 43.224 43.204 43.149 43.082 43.039 42.979 42.957 42.904 42.844 42.797 42.734 42.654 42.559 42.502 42.352 42.277 42.164 42.059 41.997 41.929 41.824 41.789 41.744 41.664 41.582 41.519 41.462 41.419 41.367 41.297 41.264 41.177 40.982 40.857 40.892 40.889 40.824 40.762 40.727 40.699 40.619 40.579 40.489
41.879 41.839 41.837 41.764 41.757 41.757 41.714 41.709 41.709 41.679 41.672 41.654 41.654 41.669 41.654 41.622 41.579 41.577 41.589 41.597 41.594 41.632 41.637 41.712 41.674 41.792 41.927 41.992 41.969 41.999 42.047 42.052 42.027 42.134 42.294 42.362 42.387 42.474 42.592 42.759 42.897 42.964 42.992 43.022 43.134 43.272 43.434 43.522 43.557 43.557 43.564 43.602 43.689 43.779 43.807 43.879 43.874 43.864 43.864 43.954 44.007 44.049 44.092 44.099 44.067 44.102 44.187 44.269 44.374 44.412 44.392 44.357 44.332 44.322 44.397 44.487 44.577 44.687 44.707 44.664 44.622 44.547 44.534 44.599 44.662 44.757 44.784 44.772 44.772 44.729 44.759 44.832 44.942 45.017 45.009 44.969 44.892 44.877 44.964 45.099 45.179 45.162 45.332 45.477 45.519 45.522 45.544 45.579 45.614 45.652 45.724 45.734 45.719 45.699 45.709 45.739 45.714 45.717 45.729 45.757 45.739 45.719 45.714 45.754 45.784 45.792 45.792 45.827 45.824 45.847 45.842 45.919 45.942 45.892 45.919 45.967 46.004 45.962 45.929 45.879 45.862 45.892 45.887 45.902 45.934 46.014 46.042 46.044 46.074 46.087 46.054 46.057 46.162 46.252 46.192 46.217 46.252 46.324 46.464 46.607 46.634 46.762 47.009 47.302 47.534 47.664 47.799 47.829 47.872 47.919 47.967 48.009 48.069 48.107 48.164 48.237 48.304 48.377 48.454 48.529 48.557 48.589 48.654 48.687 48.747 48.797 48.844 48.877 48.899 48.897 48.947 48.977 49.017 49.027 49.107 49.307 49.454 49.499 49.552 49.502 49.499 49.542 49.664 49.637 49.459 49.394 49.382 49.327 49.264 49.149 49.134 49.119 49.114 49.112 49.109 49.112 49.154 49.077 48.867 48.802 48.764 48.804 48.792 48.744 48.719 48.669 48.632 48.627 48.672 48.669 48.547 48.434 48.284 48.074 47.967 47.974 47.984 48.004 48.024 48.037 48.047 48.057 48.067 48.077 48.087 48.067 48.044 48.022 47.999 47.954 47.952 47.984 47.997 47.942 47.877 47.884 47.897 47.944 47.867 47.794 47.759 47.729 47.669 47.657 47.634 47.599 47.567 47.464 47.362 47.262 47.144 47.047 46.932 46.812 46.794 46.769 46.407 46.257 46.177 46.094 46.032 45.947 45.884 45.814 45.744 45.727 45.727 45.712 45.639 45.629 45.617 45.587 45.547 45.429 45.342 45.247 45.162 45.064 44.962 44.929 44.887 44.864 44.774 44.734 44.644 44.559 44.489 44.457 44.419 44.397 44.397 44.387 44.314 44.272 44.252 44.164 44.154 44.104 44.057 44.052 43.977 43.927 43.944 43.912 43.864 43.859 43.929 43.837 43.954 43.979 43.894 43.822 43.757 43.632 43.594 43.697 43.729 43.822 43.724 43.722 43.709 43.559 43.782 44.147 44.122 44.004 43.964 43.919 43.874 43.864 43.827 43.797 43.739 43.717 43.717 43.672 43.629 43.592 43.569 43.537 43.524 43.534 43.539 43.522 43.514 43.502 43.467 43.492 43.514 43.489 43.454 43.467 43.467 43.444 43.434 43.372 43.322 43.309 43.294 43.284 43.272 43.252 43.259 43.229 43.197 43.142 43.117 43.077 43.027 42.952 42.892 42.829 42.744 42.722 42.634 42.569 42.502 42.439 42.334 42.254 42.137 42.032 41.977 41.892 41.824 41.779 41.709 41.639 41.559 41.492 41.442 41.377 41.259 41.154 40.977 40.882 40.892 40.914 40.894 40.919 40.802 40.692 40.682 40.582 40.527 40.479
41.917 41.919 41.934 41.892 41.842 41.832 41.799 41.794 41.759 41.759 41.769 41.732 41.717 41.712 41.689 41.667 41.627 41.634 41.647 41.642 41.677 41.694 41.714 41.747 41.769 41.772 41.899 42.024 42.049 42.087 42.134 42.162 42.179 42.202 42.252 42.352 42.484 42.642 42.754 42.804 42.854 42.922 42.999 43.159 43.297 43.374 43.454 43.474 43.499 43.542 43.652 43.729 43.807 43.814 43.792 43.787 43.852 43.907 43.954 44.052 44.042 44.029 44.057 44.102 44.182 44.274 44.324 44.392 44.337 44.309 44.294 44.289 44.364 44.489 44.562 44.614 44.669 44.619 44.539 44.512 44.522 44.594 44.672 44.727 44.777 44.712 44.672 44.664 44.702 44.769 44.904 44.947 44.947 44.844 44.777 44.739 44.822 45.029 45.204 45.314 45.392 45.379 45.429 45.462 45.534 45.552 45.574 45.632 45.674 45.727 45.729 45.707 45.714 45.754 45.769 45.784 45.769 45.787 45.802 45.777 45.782 45.794 45.754 45.794 45.802 45.797 45.832 45.847 45.869 45.932 45.949 45.909 45.914 46.029 46.197 46.204 46.157 46.052 45.977 45.967 45.949 45.944 45.964 45.972 46.032 46.107 46.142 46.152 46.214 46.207 46.124 46.099 46.122 46.217 46.227 46.274 46.329 46.409 46.479 46.669 46.844 46.857 46.987 47.199 47.407 47.654 47.847 47.829 47.864 47.919 47.957 48.009 48.064 48.114 48.179 48.234 48.324 48.414 48.469 48.547 48.569 48.642 48.679 48.702 48.762 48.764 48.867 48.904 48.929 48.934 48.997 49.012 49.012 49.042 49.159 49.357 49.389 49.527 49.544 49.467 49.497 49.577 49.647 49.544 49.444 49.382 49.332 49.282 49.194 49.114 49.134 49.139 49.134 49.124 49.124 49.119 49.159 48.994 48.777 48.754 48.764 48.837 48.769 48.759 48.744 48.694 48.652 48.639 48.624 48.544 48.464 48.377 48.144 47.957 47.964 48.027 47.997 47.982 47.989 48.009 48.037 48.052 48.062 48.072 48.082 48.074 48.047 48.009 47.982 47.962 47.999 47.997 47.959 47.949 47.919 47.929 47.949 47.954 47.907 47.857 47.819 47.749 47.682 47.659 47.672 47.624 47.584 47.519 47.377 47.234 47.167 47.117 47.019 46.862 46.877 46.809 46.537 46.382 46.272 46.212 46.059 45.957 45.899 45.832 45.792 45.742 45.762 45.757 45.717 45.697 45.632 45.582 45.557 45.454 45.439 45.364 45.242 45.142 45.079 45.074 45.002 44.927 44.852 44.782 44.679 44.607 44.572 44.509 44.464 44.417 44.429 44.394 44.357 44.289 44.259 44.214 44.162 44.137 44.109 44.029 44.002 44.002 43.994 43.944 43.904 43.844 43.872 43.899 44.039 43.932 43.809 43.752 43.712 43.612 43.604 43.644 43.687 43.722 43.757 43.809 43.817 43.419 43.244 43.539 44.099 44.039 43.954 43.894 43.874 43.834 43.817 43.787 43.747 43.704 43.692 43.664 43.652 43.642 43.554 43.512 43.512 43.484 43.477 43.472 43.474 43.489 43.464 43.447 43.444 43.444 43.434 43.387 43.384 43.374 43.379 43.354 43.312 43.312 43.317 43.284 43.294 43.252 43.219 43.202 43.174 43.147 43.132 43.107 43.067 42.997 42.904 42.887 42.804 42.699 42.627 42.574 42.462 42.409 42.362 42.292 42.229 42.144 42.052 41.969 41.907 41.827 41.777 41.727 41.632 41.527 41.424 41.314 41.204 41.037 40.887 40.889 40.907 40.887 40.932 40.889 40.769 40.629 40.587 40.567 40.467 40.429
42.014 41.999 41.947 41.942 41.914 41.877 41.847 41.837 41.802 41.789 41.789 41.789 41.779 41.769 41.719 41.749 41.709 41.699 41.732 41.722 41.727 41.742 41.764 41.804 41.834 41.837 41.942 42.074 42.114 42.114 42.189 42.287 42.309 42.264 42.292 42.477 42.637 42.682 42.749 42.782 42.909 42.997 43.147 43.277 43.344 43.364 43.377 43.457 43.574 43.667 43.752 43.754 43.772 43.727 43.779 43.877 43.934 43.972 43.969 44.012 44.017 44.082 44.164 44.237 44.312 44.344 44.299 44.277 44.252 44.257 44.384 44.464 44.539 44.612 44.587 44.564 44.522 44.482 44.484 44.529 44.644 44.684 44.704 44.689 44.622 44.614 44.669 44.769 44.832 44.864 44.857 44.754 44.649 44.667 44.779 44.932 45.092 45.259 45.324 45.349 45.404 45.432 45.472 45.492 45.534 45.582 45.624 45.699 45.694 45.712 45.707 45.754 45.782 45.787 45.804 45.809 45.842 45.839 45.832 45.814 45.847 45.842 45.827 45.854 45.842 45.837 45.862 45.877 45.934 45.967 45.959 45.912 46.029 46.222 46.337 46.364 46.304 46.212 46.169 46.082 46.027 46.052 46.039 46.067 46.144 46.182 46.184 46.239 46.327 46.329 46.264 46.179 46.147 46.209 46.319 46.347 46.412 46.504 46.557 46.702 46.904 47.037 47.089 47.144 47.302 47.512 47.802 47.887 47.882 47.949 47.982 48.009 48.052 48.102 48.177 48.277 48.374 48.444 48.469 48.564 48.619 48.672 48.689 48.739 48.749 48.797 48.862 48.922 48.934 48.969 49.014 49.032 49.049 49.112 49.299 49.404 49.432 49.529 49.517 49.502 49.547 49.614 49.544 49.489 49.394 49.359 49.289 49.252 49.142 49.159 49.142 49.152 49.157 49.147 49.142 49.137 49.087 48.872 48.727 48.694 48.742 48.797 48.789 48.777 48.764 48.732 48.659 48.619 48.564 48.477 48.384 48.264 48.007 47.917 47.984 48.059 48.069 48.044 48.024 47.999 47.997 48.019 48.047 48.064 48.077 48.079 48.054 47.979 47.964 48.024 48.032 47.989 47.974 47.969 47.944 47.939 47.949 47.982 47.932 47.892 47.839 47.792 47.742 47.729 47.669 47.637 47.612 47.552 47.427 47.327 47.279 47.182 47.059 46.922 46.897 46.869 46.667 46.539 46.549 46.437 46.149 46.009 45.962 45.879 45.769 45.744 45.757 45.724 45.749 45.707 45.637 45.607 45.587 45.519 45.464 45.402 45.312 45.227 45.174 45.099 45.057 44.972 44.882 44.797 44.714 44.727 44.647 44.582 44.519 44.422 44.422 44.367 44.339 44.324 44.277 44.232 44.202 44.199 44.144 44.069 44.049 44.017 44.022 43.984 43.919 43.854 43.839 43.927 44.022 43.874 43.777 43.722 43.642 43.569 43.552 43.572 43.624 43.712 43.784 43.807 43.837 43.782 43.722 43.412 43.612 43.804 43.984 43.922 43.867 43.834 43.797 43.777 43.757 43.704 43.677 43.617 43.597 43.602 43.584 43.557 43.517 43.464 43.464 43.444 43.459 43.452 43.439 43.442 43.449 43.407 43.404 43.387 43.344 43.299 43.279 43.284 43.257 43.279 43.307 43.272 43.287 43.257 43.222 43.182 43.139 43.109 43.072 43.032 43.004 43.009 42.972 42.892 42.849 42.764 42.674 42.584 42.507 42.417 42.364 42.302 42.214 42.192 42.122 42.049 41.982 41.912 41.892 41.812 41.677 41.542 41.419 41.264 41.097 41.019 40.964 40.929 40.904 40.882 40.829 40.782 40.662 40.584 40.569 40.542 40.462 40.432
42.064 42.052 42.009 41.989 41.969 41.939 41.944 41.879 41.882 41.907 41.862 41.827 41.797 41.787 41.814 41.794 41.804 41.782 41.772 41.797 41.769 41.802 41.852 41.892 41.914 41.937 41.994 42.154 42.207 42.157 42.277 42.367 42.402 42.412 42.387 42.504 42.657 42.667 42.742 42.907 43.067 43.129 43.227 43.247 43.269 43.334 43.449 43.569 43.657 43.689 43.714 43.702 43.744 43.754 43.857 43.934 43.942 43.939 43.967 44.049 44.144 44.219 44.267 44.274 44.277 44.247 44.209 44.274 44.342 44.454 44.572 44.574 44.569 44.537 44.469 44.449 44.464 44.564 44.607 44.637 44.637 44.579 44.564 44.592 44.669 44.712 44.732 44.762 44.732 44.647 44.547 44.569 44.687 44.867 45.097 45.164 45.227 45.272 45.304 45.342 45.407 45.434 45.462 45.522 45.597 45.654 45.684 45.692 45.684 45.684 45.749 45.794 45.824 45.832 45.864 45.899 45.894 45.862 45.859 45.874 45.884 45.887 45.859 45.884 45.869 45.899 45.897 45.967 46.009 45.979 45.939 46.079 46.254 46.307 46.339 46.374 46.444 46.477 46.412 46.299 46.177 46.154 46.124 46.159 46.224 46.269 46.312 46.344 46.414 46.464 46.432 46.302 46.217 46.247 46.349 46.429 46.519 46.587 46.642 46.744 46.974 47.067 47.204 47.279 47.364 47.444 47.627 47.799 47.877 47.954 47.992 48.019 48.104 48.149 48.202 48.294 48.374 48.457 48.529 48.569 48.622 48.659 48.729 48.792 48.804 48.847 48.859 48.932 48.982 48.997 49.022 49.052 49.074 49.194 49.399 49.419 49.462 49.487 49.482 49.519 49.594 49.604 49.519 49.462 49.347 49.302 49.197 49.147 49.174 49.232 49.214 49.189 49.177 49.179 49.167 49.157 48.997 48.772 48.739 48.687 48.724 48.809 48.804 48.794 48.784 48.774 48.682 48.627 48.512 48.409 48.247 48.104 48.004 47.969 47.962 47.992 48.042 48.072 48.062 48.049 48.034 48.014 48.007 48.024 48.059 48.079 48.029 47.974 47.982 48.034 48.044 48.019 47.984 47.977 47.947 47.919 47.967 47.959 47.922 47.919 47.867 47.822 47.797 47.749 47.669 47.672 47.644 47.584 47.539 47.432 47.332 47.224 47.132 46.982 46.857 46.857 46.804 46.762 46.789 46.712 46.434 46.172 46.054 45.949 45.824 45.727 45.714 45.739 45.764 45.774 45.697 45.657 45.609 45.559 45.544 45.464 45.389 45.337 45.224 45.159 45.064 44.952 44.887 44.807 44.764 44.767 44.684 44.582 44.512 44.447 44.454 44.429 44.364 44.297 44.272 44.247 44.227 44.202 44.154 44.082 44.032 44.034 44.034 44.004 43.919 43.867 43.962 44.024 43.967 43.859 43.807 43.672 43.604 43.622 43.604 43.582 43.564 43.639 43.702 43.757 43.797 43.824 43.877 43.837 43.527 43.509 43.442 43.729 43.924 43.837 43.749 43.739 43.712 43.692 43.639 43.607 43.557 43.524 43.504 43.524 43.494 43.472 43.444 43.439 43.429 43.394 43.392 43.407 43.432 43.427 43.422 43.397 43.362 43.332 43.287 43.264 43.239 43.217 43.202 43.197 43.199 43.209 43.199 43.217 43.172 43.102 43.032 43.004 42.932 42.922 42.902 42.849 42.797 42.747 42.719 42.619 42.572 42.462 42.389 42.317 42.254 42.184 42.164 42.079 42.039 41.994 41.927 41.862 41.762 41.522 41.317 41.119 41.022 40.994 41.027 40.944 40.892 40.852 40.749 40.677 40.564 40.577 40.554 40.534 40.494 40.384
42.094 42.084 42.054 42.027 42.044 42.017 41.992 41.987 41.972 41.977 41.917 41.864 41.887 41.889 41.879 41.844 41.847 41.864 41.862 41.879 41.907 41.889 41.897 41.967 42.019 42.037 42.037 42.192 42.259 42.254 42.317 42.454 42.549 42.562 42.514 42.537 42.657 42.774 42.897 43.014 43.092 43.109 43.139 43.219 43.347 43.487 43.564 43.592 43.627 43.647 43.682 43.767 43.837 43.819 43.864 43.917 43.952 44.032 44.144 44.204 44.257 44.244 44.232 44.194 44.204 44.264 44.357 44.449 44.509 44.559 44.519 44.479 44.432 44.427 44.457 44.564 44.609 44.647 44.604 44.547 44.559 44.577 44.674 44.707 44.687 44.664 44.574 44.497 44.457 44.492 44.627 44.842 45.017 45.082 45.189 45.177 45.207 45.269 45.307 45.334 45.382 45.434 45.507 45.572 45.622 45.657 45.654 45.692 45.727 45.767 45.789 45.794 45.849 45.899 45.924 45.947 45.917 45.942 45.927 45.962 45.944 45.924 45.932 45.929 45.892 45.942 46.032 46.112 46.014 45.919 46.104 46.274 46.307 46.297 46.334 46.369 46.522 46.629 46.584 46.474 46.324 46.277 46.274 46.302 46.352 46.387 46.447 46.474 46.517 46.554 46.477 46.372 46.337 46.342 46.334 46.384 46.529 46.637 46.619 46.767 46.999 47.127 47.239 47.449 47.579 47.632 47.609 47.649 47.749 47.967 48.009 48.034 48.094 48.177 48.214 48.289 48.337 48.464 48.562 48.602 48.617 48.682 48.732 48.797 48.819 48.887 48.892 48.932 48.999 49.042 49.064 49.084 49.147 49.337 49.519 49.444 49.459 49.472 49.469 49.489 49.627 49.622 49.482 49.444 49.364 49.264 49.147 49.067 49.104 49.172 49.209 49.214 49.214 49.207 49.204 49.127 48.819 48.747 48.724 48.727 48.739 48.807 48.822 48.812 48.804 48.794 48.749 48.597 48.384 48.314 48.242 48.057 48.012 48.012 47.994 47.974 47.979 48.024 48.069 48.072 48.049 48.034 48.029 48.019 48.014 48.034 47.999 47.982 47.992 48.077 48.089 48.072 47.984 47.939 47.937 47.932 47.967 47.974 47.957 47.952 47.924 47.859 47.774 47.779 47.712 47.682 47.619 47.584 47.542 47.449 47.382 47.309 47.164 47.029 46.882 46.847 46.804 46.724 46.807 46.882 46.759 46.474 46.157 45.952 45.857 45.762 45.747 45.794 45.787 45.762 45.712 45.704 45.677 45.654 45.612 45.547 45.492 45.394 45.307 45.192 45.094 44.972 44.897 44.827 44.804 44.782 44.712 44.619 44.577 44.572 44.547 44.484 44.409 44.327 44.294 44.264 44.267 44.224 44.169 44.089 44.054 44.027 44.004 43.949 43.887 43.994 44.152 44.062 43.927 43.872 43.759 43.662 43.649 43.712 43.687 43.649 43.622 43.587 43.614 43.692 43.752 43.792 43.822 43.797 43.772 43.669 43.392 43.639 43.709 43.612 43.537 43.697 43.662 43.639 43.622 43.607 43.562 43.519 43.477 43.444 43.399 43.424 43.399 43.394 43.389 43.369 43.369 43.374 43.397 43.384 43.397 43.384 43.362 43.344 43.274 43.244 43.274 43.247 43.214 43.184 43.139 43.127 43.107 43.114 43.114 43.104 43.047 43.022 42.964 42.884 42.847 42.784 42.742 42.659 42.629 42.569 42.542 42.459 42.394 42.364 42.324 42.212 42.169 42.117 42.054 41.994 41.882 41.864 41.642 41.427 41.147 40.989 41.007 41.032 41.012 40.959 40.967 40.777 40.664 40.627 40.562 40.537 40.519 40.474 40.437 40.397
42.162 42.159 42.117 42.099 42.104 42.082 42.062 42.047 42.034 42.009 41.962 41.947 41.947 41.939 41.937 41.884 41.919 41.929 41.922 41.944 41.977 41.967 41.992 42.074 42.097 42.149 42.157 42.237 42.334 42.362 42.397 42.507 42.627 42.659 42.632 42.604 42.767 42.949 42.987 43.032 43.084 43.127 43.262 43.372 43.462 43.512 43.507 43.569 43.619 43.717 43.752 43.807 43.812 43.832 43.909 43.999 44.097 44.154 44.174 44.179 44.142 44.144 44.184 44.252 44.357 44.447 44.527 44.527 44.482 44.444 44.407 44.427 44.529 44.564 44.584 44.622 44.569 44.514 44.527 44.559 44.629 44.697 44.662 44.589 44.487 44.444 44.409 44.482 44.634 44.819 44.909 45.012 45.057 45.094 45.162 45.212 45.219 45.284 45.299 45.327 45.402 45.527 45.582 45.619 45.599 45.612 45.667 45.729 45.774 45.784 45.809 45.874 45.904 45.899 45.922 45.949 45.972 46.004 45.997 45.989 45.974 45.959 45.972 45.974 45.989 46.067 46.182 46.054 45.969 46.122 46.279 46.314 46.314 46.342 46.367 46.452 46.552 46.642 46.672 46.612 46.504 46.487 46.512 46.504 46.479 46.554 46.629 46.659 46.669 46.557 46.414 46.394 46.484 46.509 46.487 46.464 46.479 46.564 46.632 46.764 46.952 47.159 47.359 47.454 47.642 47.754 47.799 47.739 47.722 47.827 48.014 48.072 48.112 48.182 48.257 48.357 48.397 48.484 48.554 48.594 48.654 48.727 48.734 48.807 48.864 48.937 48.949 48.962 48.992 49.057 49.084 49.122 49.217 49.469 49.467 49.452 49.469 49.497 49.509 49.577 49.629 49.597 49.407 49.394 49.329 49.209 49.064 49.054 49.084 49.104 49.129 49.179 49.182 49.177 49.182 48.992 48.757 48.719 48.707 48.764 48.774 48.814 48.834 48.827 48.819 48.812 48.764 48.497 48.359 48.249 48.197 48.129 48.007 48.072 48.042 48.014 47.994 47.987 48.012 48.057 48.089 48.064 48.037 48.019 48.014 48.017 47.994 47.964 48.042 48.087 48.097 48.079 48.019 47.962 47.989 47.967 47.972 47.964 47.949 47.942 47.907 47.862 47.827 47.804 47.779 47.717 47.654 47.624 47.534 47.444 47.357 47.272 47.162 47.022 46.912 46.827 46.729 46.702 46.832 46.809 46.662 46.477 46.229 46.034 45.882 45.817 45.824 45.822 45.849 45.794 45.807 45.784 45.757 45.739 45.684 45.672 45.592 45.504 45.384 45.254 45.142 45.109 44.994 44.929 44.869 44.777 44.732 44.714 44.719 44.694 44.624 44.569 44.479 44.389 44.347 44.312 44.292 44.252 44.202 44.144 44.092 44.059 44.004 43.959 44.049 44.227 44.174 44.047 43.964 43.897 43.772 43.742 43.794 43.807 43.779 43.689 43.702 43.649 43.667 43.659 43.702 43.764 43.794 43.782 43.742 43.717 43.722 43.552 43.347 43.189 43.289 43.599 43.689 43.629 43.574 43.532 43.499 43.484 43.449 43.419 43.392 43.377 43.347 43.347 43.362 43.347 43.342 43.374 43.392 43.384 43.367 43.389 43.357 43.344 43.272 43.234 43.229 43.232 43.197 43.204 43.189 43.154 43.112 43.087 43.032 43.017 42.997 42.967 42.944 42.887 42.832 42.767 42.689 42.619 42.562 42.484 42.432 42.374 42.354 42.327 42.274 42.224 42.162 42.119 42.074 41.954 41.877 41.744 41.449 41.217 41.032 41.037 41.064 41.074 40.999 40.947 40.794 40.759 40.707 40.559 40.539 40.484 40.482 40.444 40.429 40.432
42.257 42.249 42.192 42.157 42.147 42.137 42.117 42.102 42.094 42.077 42.032 42.057 42.032 42.027 42.007 41.997 42.007 42.009 42.024 42.019 42.059 42.062 42.067 42.127 42.167 42.229 42.267 42.249 42.349 42.442 42.457 42.537 42.677 42.772 42.782 42.744 42.847 42.954 42.997 43.067 43.164 43.294 43.392 43.429 43.432 43.454 43.552 43.667 43.744 43.762 43.759 43.799 43.854 43.942 44.024 44.079 44.144 44.139 44.109 44.114 44.169 44.254 44.359 44.449 44.489 44.459 44.449 44.372 44.377 44.442 44.519 44.572 44.624 44.637 44.559 44.524 44.539 44.604 44.629 44.664 44.592 44.502 44.407 44.399 44.407 44.479 44.619 44.759 44.872 44.907 44.942 45.007 45.057 45.107 45.159 45.204 45.242 45.264 45.304 45.392 45.474 45.547 45.574 45.574 45.597 45.674 45.707 45.779 45.797 45.804 45.872 45.914 45.922 45.924 45.962 46.014 46.027 46.057 46.032 46.032 46.027 46.032 46.034 46.034 46.144 46.187 46.044 46.024 46.127 46.312 46.332 46.334 46.329 46.377 46.434 46.527 46.617 46.649 46.712 46.719 46.729 46.759 46.769 46.679 46.594 46.664 46.737 46.744 46.649 46.502 46.497 46.552 46.572 46.597 46.594 46.632 46.559 46.602 46.697 46.819 47.022 47.244 47.367 47.502 47.692 47.792 47.912 47.962 47.902 47.872 47.907 47.987 48.149 48.197 48.302 48.357 48.429 48.482 48.532 48.584 48.664 48.747 48.777 48.822 48.857 48.909 48.954 48.989 49.009 49.069 49.122 49.169 49.394 49.527 49.422 49.479 49.494 49.507 49.529 49.632 49.599 49.484 49.344 49.312 49.289 49.222 49.029 49.039 49.079 49.114 49.147 49.147 49.152 49.162 49.122 48.834 48.709 48.732 48.744 48.832 48.839 48.834 48.844 48.809 48.759 48.704 48.622 48.457 48.299 48.204 48.122 48.054 48.017 48.082 48.099 48.087 48.047 48.017 48.002 48.004 48.042 48.082 48.089 48.054 48.019 48.012 47.952 47.984 48.054 48.094 48.124 48.114 48.042 48.009 48.007 47.974 47.972 47.992 47.984 47.947 47.942 47.914 47.874 47.804 47.747 47.742 47.669 47.602 47.539 47.454 47.369 47.217 47.152 47.019 46.899 46.809 46.784 46.842 46.834 46.614 46.384 46.322 46.267 46.139 45.964 45.944 45.922 45.869 45.884 45.909 45.942 45.917 45.879 45.874 45.849 45.784 45.727 45.592 45.477 45.359 45.244 45.169 45.077 44.972 44.942 44.912 44.829 44.819 44.829 44.779 44.707 44.649 44.619 44.524 44.462 44.389 44.379 44.304 44.217 44.197 44.157 44.089 43.969 43.957 44.197 44.267 44.177 44.069 44.017 43.904 43.854 43.884 43.917 43.887 43.867 43.799 43.779 43.727 43.689 43.694 43.727 43.732 43.747 43.784 43.729 43.709 43.762 43.734 43.687 43.437 43.139 43.142 43.554 43.629 43.537 43.464 43.394 43.349 43.332 43.397 43.402 43.389 43.377 43.349 43.327 43.329 43.332 43.339 43.342 43.347 43.362 43.349 43.354 43.357 43.339 43.212 43.184 43.167 43.159 43.134 43.142 43.127 43.132 43.099 43.024 42.987 42.959 42.927 42.904 42.842 42.769 42.709 42.639 42.609 42.512 42.462 42.374 42.329 42.259 42.224 42.202 42.194 42.169 42.114 42.037 41.999 41.749 41.497 41.254 41.072 41.079 41.092 41.077 41.049 40.987 40.812 40.692 40.769 40.747 40.624 40.482 40.447 40.437 40.412 40.437 40.327
42.297 42.247 42.249 42.237 42.194 42.159 42.154 42.134 42.149 42.099 42.127 42.122 42.107 42.074 42.109 42.087 42.082 42.112 42.124 42.119 42.162 42.164 42.172 42.239 42.262 42.299 42.342 42.352 42.457 42.537 42.589 42.592 42.737 42.897 42.947 42.874 42.857 42.964 43.099 43.172 43.264 43.294 43.337 43.402 43.472 43.574 43.582 43.652 43.714 43.752 43.819 43.919 43.994 44.047 44.057 44.064 44.039 44.092 44.149 44.242 44.344 44.397 44.434 44.419 44.382 44.364 44.382 44.457 44.529 44.597 44.612 44.592 44.547 44.527 44.582 44.624 44.657 44.662 44.569 44.477 44.399 44.394 44.454 44.497 44.669 44.724 44.819 44.847 44.869 44.919 44.947 44.982 45.027 45.087 45.164 45.217 45.262 45.287 45.359 45.442 45.484 45.524 45.532 45.584 45.662 45.712 45.759 45.819 45.854 45.907 45.927 45.924 45.939 45.969 46.024 46.059 46.057 46.067 46.097 46.122 46.094 46.074 46.124 46.259 46.187 46.064 46.104 46.269 46.362 46.359 46.379 46.367 46.374 46.454 46.522 46.567 46.637 46.694 46.742 46.784 46.847 46.954 46.954 46.804 46.727 46.779 46.834 46.707 46.552 46.519 46.584 46.649 46.649 46.684 46.679 46.717 46.659 46.679 46.772 46.892 47.064 47.332 47.452 47.539 47.692 47.829 47.927 47.999 48.014 48.017 47.944 47.947 48.039 48.159 48.324 48.384 48.459 48.502 48.557 48.599 48.669 48.749 48.794 48.844 48.877 48.897 48.952 49.024 49.019 49.069 49.134 49.299 49.514 49.487 49.427 49.429 49.459 49.514 49.589 49.639 49.589 49.429 49.344 49.269 49.194 49.132 49.082 49.059 49.049 49.079 49.124 49.177 49.204 49.187 48.999 48.747 48.704 48.779 48.869 48.974 48.914 48.802 48.797 48.784 48.747 48.707 48.619 48.434 48.277 48.177 48.069 48.002 48.037 48.039 48.064 48.087 48.109 48.097 48.057 48.027 48.009 48.032 48.074 48.099 48.062 47.972 47.972 48.079 48.042 48.099 48.119 48.117 48.052 48.007 48.034 48.004 47.957 47.982 47.974 47.969 47.974 47.932 47.942 47.862 47.729 47.699 47.682 47.639 47.544 47.479 47.419 47.332 47.169 47.009 46.862 46.742 46.744 46.787 46.692 46.484 46.334 46.257 46.284 46.217 46.147 46.207 46.097 46.014 46.022 46.064 46.082 46.069 46.044 46.027 45.979 45.909 45.809 45.674 45.579 45.492 45.352 45.234 45.152 45.097 45.047 45.019 44.964 44.914 44.874 44.852 44.782 44.767 44.722 44.637 44.557 44.432 44.397 44.322 44.289 44.224 44.172 44.104 43.989 44.039 44.302 44.304 44.124 44.072 44.024 43.954 43.949 43.957 43.942 43.934 43.919 43.899 43.902 43.832 43.817 43.809 43.792 43.744 43.772 43.769 43.762 43.757 43.759 43.779 43.767 43.759 43.612 43.169 43.199 43.459 43.492 43.494 43.457 43.357 43.334 43.367 43.359 43.344 43.364 43.344 43.347 43.342 43.327 43.324 43.327 43.317 43.292 43.307 43.299 43.314 43.332 43.304 43.219 43.187 43.169 43.127 43.099 43.089 43.054 43.034 43.007 42.989 42.949 42.934 42.882 42.827 42.767 42.704 42.634 42.564 42.499 42.432 42.369 42.309 42.252 42.202 42.177 42.159 42.137 42.099 42.034 41.872 41.507 41.234 41.107 41.064 41.082 41.124 41.049 41.009 40.939 40.837 40.739 40.847 40.789 40.679 40.539 40.399 40.382 40.367 40.379 40.237
