ncols 433
nrows 31
xllcorner    427052
yllcorner    488498
cellsize     2
NODATA_value -9999
49.677 49.64 49.542 49.45 49.47 49.507 49.535 49.555 49.562 49.592 49.625 49.66 49.642 49.662 49.685 49.755 49.82 49.942 50.185 50.29 50.267 50.23 50.212 50.157 50.185 50.167 50.137 50.042 49.927 49.937 50.035 50.055 50 49.945 49.832 49.657 49.635 49.592 49.552 49.597 49.577 49.537 49.475 49.445 49.402 49.34 49.44 49.45 49.355 49.365 49.427 49.522 49.527 49.512 49.505 49.57 49.947 50.39 50.812 51.12 51.112 51.082 51.052 51.047 51.23 51.542 51.492 51.497 51.487 51.412 51.392 51.285 51.19 51.177 51.09 50.862 50.715 50.772 50.767 50.837 50.805 50.645 50.422 50.282 50.262 50.315 50.36 50.39 50.375 50.4 50.42 50.382 50.355 50.312 50.227 50.252 50.175 50.057 50.005 49.962 49.92 49.87 49.827 49.797 49.642 49.492 49.45 49.435 49.42 49.382 49.387 49.342 49.285 49.257 49.215 49.217 49.185 49.145 49.115 49.09 49 48.887 48.797 48.707 48.674 48.662 48.714 48.659 48.582 48.579 48.534 48.567 48.677 48.732 48.749 48.754 48.727 48.679 48.554 48.392 48.269 48.199 48.177 48.127 48.112 48.099 47.994 47.964 47.937 47.942 47.887 47.872 47.862 47.814 47.827 47.722 47.657 47.607 47.567 47.502 47.444 47.449 47.402 47.304 47.252 47.227 47.059 46.617 46.222 46.174 46.329 46.627 46.559 46.509 46.442 46.412 46.327 46.284 46.147 46.064 45.789 45.114 44.919 44.907 44.914 44.902 44.884 44.934 44.967 44.934 44.914 44.889 44.879 44.894 44.927 44.962 44.992 45.027 45.039 45.039 45.034 45.004 44.954 44.894 44.834 44.774 44.709 44.694 44.687 44.707 44.669 44.577 44.567 44.512 44.409 44.144 43.874 43.594 43.489 43.412 43.387 43.437 43.477 43.487 43.449 43.359 43.367 43.389 43.417 43.374 43.322 43.307 43.259 43.249 43.229 43.219 43.172 43.112 43.027 43.004 43.004 42.934 42.902 42.852 42.779 42.749 42.747 42.702 42.627 42.529 42.444 42.307 42.314 42.457 42.514 42.472 42.427 42.434 42.397 42.434 42.332 42.257 42.287 42.122 41.927 41.464 41.074 41.242 41.397 41.432 41.499 41.547 41.679 42.189 42.644 42.669 42.464 42.357 42.407 42.404 42.457 42.432 42.399 42.364 42.277 42.189 42.164 42.097 42.014 41.919 41.884 41.909 42.014 42.057 41.949 41.862 41.807 41.767 41.674 41.552 41.507 41.489 41.464 41.424 41.374 41.362 41.319 41.279 41.259 41.257 41.202 41.162 41.099 41.069 41.037 41.014 40.969 40.889 40.862 40.857 40.822 40.777 40.714 40.699 40.689 40.647 40.624 40.622 40.574 40.509 40.494 40.447 40.447 40.384 40.384 40.332 40.322 40.269 40.247 40.237 40.207 40.142 40.057 40.062 40.044 40.027 39.952 39.917 39.862 39.822 39.774 39.757 39.717 39.624 39.562 39.517 39.437 39.387 39.304 39.262 39.194 39.104 39.004 38.914 38.839 38.752 38.652 38.547 38.467 38.367 38.287 38.199 38.132 38.022 37.919 37.839 37.779 37.637 37.517 37.419 37.312 37.259 37.159 37.042 36.934 36.837 36.749 36.689 36.609 36.507 36.379 36.289 36.169 36.067 35.989 35.884 35.729 35.659 35.569 35.452 35.344 35.287 35.209 35.092 34.972 34.907 34.809 34.719 34.597 34.559 34.489 34.427 34.349 34.272 34.199 34.172 34.097 34.002 33.929 33.859 33.772 33.714 33.639 33.579 33.544 33.452 33.382 33.347 33.264 33.232 33.189 33.087 33.007
49.635 49.595 49.512 49.465 49.475 49.475 49.515 49.487 49.51 49.597 49.652 49.68 49.675 49.665 49.657 49.697 49.722 49.917 50.117 50.257 50.245 50.185 50.162 50.132 50.142 50.12 50.085 50.02 49.912 49.902 49.927 49.99 49.922 49.85 49.8 49.667 49.53 49.572 49.507 49.507 49.46 49.475 49.47 49.39 49.347 49.3 49.357 49.337 49.357 49.462 49.522 49.552 49.545 49.532 49.517 49.482 49.655 50.077 50.472 50.895 51.072 51.042 51.025 51.045 51.062 51.417 51.325 51.297 51.247 51.172 51.157 51.085 50.95 50.902 50.905 50.692 50.407 50.305 50.372 50.51 50.415 50.28 50.205 50.227 50.325 50.397 50.4 50.42 50.41 50.457 50.435 50.392 50.385 50.355 50.307 50.277 50.182 50.07 50.01 49.967 49.92 49.877 49.847 49.81 49.597 49.49 49.455 49.42 49.427 49.37 49.337 49.305 49.245 49.182 49.182 49.162 49.145 49.112 49.1 49.08 49.05 48.895 48.78 48.69 48.622 48.612 48.602 48.584 48.549 48.614 48.609 48.562 48.562 48.657 48.729 48.687 48.624 48.607 48.589 48.319 48.239 48.179 48.117 48.067 48.014 47.972 47.937 47.934 47.977 47.989 47.927 47.814 47.787 47.789 47.742 47.687 47.657 47.622 47.594 47.529 47.442 47.407 47.397 47.334 47.217 47.179 47.117 46.902 46.497 46.114 46.052 46.272 46.457 46.424 46.372 46.317 46.297 46.224 46.144 46.049 45.969 45.682 45.077 44.904 44.892 44.897 44.862 44.862 44.929 44.942 44.914 44.972 44.987 44.969 44.954 44.954 44.982 45.014 45.042 45.039 45.034 44.987 44.929 44.869 44.812 44.764 44.679 44.674 44.639 44.627 44.599 44.579 44.462 44.334 44.104 43.889 43.617 43.467 43.404 43.399 43.377 43.444 43.474 43.427 43.382 43.364 43.397 43.419 43.394 43.384 43.349 43.324 43.287 43.244 43.179 43.169 43.132 43.082 43.017 42.989 42.932 42.887 42.869 42.812 42.744 42.704 42.699 42.702 42.657 42.624 42.537 42.537 42.494 42.387 42.257 42.294 42.327 42.302 42.312 42.414 42.339 42.124 42.064 41.992 41.572 41.064 41.179 41.399 41.429 41.489 41.502 41.702 42.182 42.609 42.632 42.492 42.374 42.354 42.382 42.389 42.429 42.454 42.397 42.367 42.249 42.182 42.117 42.037 41.994 41.914 41.887 41.824 41.834 41.949 41.952 41.939 41.839 41.742 41.687 41.614 41.529 41.459 41.444 41.392 41.339 41.349 41.284 41.259 41.234 41.229 41.192 41.199 41.079 41.029 40.992 40.944 40.899 40.867 40.834 40.832 40.799 40.757 40.714 40.689 40.644 40.622 40.589 40.559 40.564 40.504 40.492 40.397 40.379 40.374 40.332 40.277 40.269 40.234 40.222 40.189 40.172 40.127 40.072 40.067 40.007 39.979 39.912 39.912 39.849 39.832 39.777 39.729 39.677 39.629 39.567 39.519 39.437 39.357 39.279 39.239 39.182 39.089 38.992 38.899 38.809 38.754 38.657 38.559 38.459 38.362 38.304 38.212 38.119 37.984 37.909 37.814 37.729 37.624 37.534 37.419 37.317 37.237 37.159 37.049 36.984 36.847 36.744 36.667 36.572 36.494 36.352 36.274 36.169 36.037 35.937 35.857 35.754 35.647 35.537 35.432 35.334 35.199 35.142 35.074 34.982 34.862 34.762 34.707 34.624 34.537 34.434 34.374 34.322 34.249 34.192 34.129 34.057 33.947 33.894 33.834 33.747 33.704 33.604 33.554 33.479 33.402 33.339 33.297 33.224 33.182 33.104 33.019 32.974
49.58 49.535 49.48 49.482 49.442 49.39 49.407 49.447 49.467 49.562 49.597 49.65 49.667 49.63 49.625 49.645 49.677 49.827 49.95 50.195 50.327 50.257 50.137 50.105 50.065 50.06 50.035 49.972 49.865 49.812 49.817 49.905 49.837 49.8 49.78 49.717 49.562 49.53 49.48 49.435 49.395 49.392 49.39 49.362 49.357 49.297 49.287 49.385 49.467 49.522 49.55 49.537 49.537 49.527 49.53 49.492 49.48 49.887 50.372 50.74 50.995 51.01 51 50.995 50.94 51.087 51.092 51.032 50.992 50.955 50.907 50.837 50.745 50.605 50.697 50.565 50.1 49.99 50.025 50.127 50.14 50.145 50.192 50.265 50.377 50.39 50.402 50.477 50.525 50.43 50.425 50.38 50.33 50.332 50.337 50.277 50.185 50.085 50.01 49.97 49.925 49.897 49.87 49.785 49.56 49.492 49.455 49.452 49.447 49.39 49.327 49.25 49.167 49.17 49.19 49.17 49.137 49.13 49.102 49.08 48.99 48.872 48.76 48.675 48.607 48.562 48.539 48.517 48.547 48.562 48.544 48.554 48.497 48.579 48.649 48.597 48.564 48.517 48.312 48.132 48.097 48.042 48.042 47.974 47.952 47.854 47.809 47.767 47.857 47.909 47.892 47.829 47.737 47.737 47.687 47.637 47.624 47.624 47.569 47.502 47.404 47.417 47.357 47.292 47.204 47.114 47.059 47.062 46.889 46.382 45.979 45.969 46.189 46.374 46.302 46.217 46.147 46.104 46.079 45.987 45.922 45.884 45.644 45.049 44.869 44.887 44.892 44.867 44.847 44.869 44.874 44.847 44.934 44.974 44.992 45.012 45.014 45.024 45.037 45.044 45.027 44.962 44.907 44.869 44.832 44.759 44.714 44.727 44.599 44.467 44.454 44.319 44.102 44.027 43.849 43.757 43.489 43.384 43.354 43.394 43.414 43.487 43.482 43.412 43.397 43.439 43.472 43.404 43.397 43.359 43.317 43.274 43.257 43.222 43.187 43.119 43.082 43.022 43.007 42.944 42.909 42.857 42.822 42.757 42.682 42.647 42.634 42.682 42.657 42.649 42.574 42.574 42.569 42.567 42.407 42.257 42.309 42.199 42.229 42.334 42.189 42.177 42.079 41.619 41.174 41.189 41.339 41.457 41.532 41.527 41.564 42.044 42.529 42.687 42.504 42.389 42.359 42.359 42.357 42.392 42.402 42.439 42.389 42.319 42.239 42.142 42.057 41.982 41.962 41.879 41.854 41.839 41.837 41.784 41.792 41.869 41.929 41.834 41.664 41.642 41.559 41.492 41.422 41.374 41.337 41.327 41.277 41.204 41.202 41.172 41.149 41.132 41.094 41.049 40.937 40.889 40.829 40.842 40.807 40.777 40.712 40.717 40.662 40.629 40.572 40.564 40.534 40.484 40.484 40.437 40.409 40.387 40.372 40.334 40.279 40.247 40.232 40.207 40.189 40.157 40.117 40.092 40.057 40.007 39.977 39.919 39.877 39.874 39.822 39.807 39.734 39.717 39.664 39.629 39.532 39.494 39.439 39.349 39.282 39.232 39.157 39.074 38.989 38.872 38.777 38.679 38.654 38.542 38.472 38.352 38.299 38.204 38.117 38.037 37.889 37.844 37.724 37.619 37.562 37.434 37.332 37.197 37.132 37.077 36.984 36.867 36.752 36.642 36.529 36.477 36.354 36.242 36.152 36.037 35.907 35.824 35.714 35.612 35.477 35.394 35.314 35.184 35.099 35.019 34.934 34.834 34.737 34.664 34.612 34.514 34.409 34.357 34.294 34.244 34.147 34.067 34.019 33.914 33.872 33.812 33.704 33.632 33.562 33.484 33.422 33.367 33.312 33.234 33.177 33.122 33.032 32.952 32.952
49.52 49.495 49.482 49.437 49.405 49.36 49.36 49.42 49.435 49.507 49.542 49.56 49.625 49.612 49.627 49.67 49.71 49.805 49.992 50.187 50.312 50.24 50.092 50.03 50 49.982 49.967 49.942 49.885 49.787 49.775 49.825 49.797 49.777 49.745 49.712 49.582 49.457 49.48 49.415 49.405 49.392 49.43 49.415 49.325 49.36 49.377 49.507 49.522 49.51 49.525 49.517 49.525 49.505 49.492 49.49 49.455 49.535 50.095 50.677 50.877 50.907 50.91 50.877 50.852 50.877 50.897 50.82 50.747 50.715 50.685 50.62 50.567 50.385 50.307 50.237 49.972 49.93 49.985 50.025 50.09 50.17 50.25 50.297 50.362 50.387 50.407 50.507 50.502 50.405 50.535 50.497 50.3 50.277 50.282 50.235 50.18 50.095 50.012 49.975 49.947 49.92 49.892 49.75 49.52 49.492 49.475 49.497 49.465 49.45 49.43 49.26 49.18 49.157 49.157 49.167 49.145 49.117 49.11 49.027 48.932 48.875 48.782 48.655 48.559 48.529 48.484 48.492 48.482 48.507 48.497 48.487 48.512 48.509 48.564 48.582 48.474 48.234 48.127 48.057 48.032 47.982 47.987 47.904 47.862 47.797 47.689 47.637 47.662 47.749 47.814 47.767 47.669 47.684 47.662 47.622 47.602 47.547 47.509 47.489 47.434 47.417 47.357 47.282 47.187 47.094 47.029 46.964 46.922 46.584 46.109 45.874 45.869 46.112 46.299 46.167 46.069 46.019 46.012 45.982 45.922 45.859 45.799 45.389 45.004 44.882 44.837 44.837 44.814 44.807 44.859 44.859 44.854 44.864 44.899 44.929 44.959 44.987 45.009 45.014 44.984 44.977 44.964 44.954 44.962 44.757 44.697 44.709 44.557 44.389 44.327 44.079 43.734 43.789 43.732 43.639 43.497 43.392 43.409 43.414 43.467 43.519 43.419 43.402 43.409 43.447 43.432 43.377 43.399 43.367 43.262 43.232 43.244 43.224 43.174 43.049 43.022 43.002 42.954 42.952 42.904 42.852 42.772 42.694 42.624 42.584 42.614 42.602 42.592 42.584 42.584 42.564 42.557 42.562 42.487 42.329 42.174 42.137 42.182 42.249 42.209 42.199 41.827 41.262 41.242 41.372 41.472 41.522 41.532 41.569 42.044 42.429 42.569 42.489 42.339 42.344 42.327 42.322 42.337 42.369 42.384 42.389 42.342 42.267 42.244 42.164 42.072 41.979 41.974 41.914 41.882 41.854 41.832 41.774 41.707 41.707 41.817 41.802 41.809 41.637 41.534 41.472 41.414 41.367 41.347 41.277 41.264 41.187 41.152 41.119 41.084 41.052 41.044 41.017 40.902 40.872 40.814 40.749 40.754 40.717 40.687 40.669 40.609 40.587 40.562 40.514 40.494 40.459 40.434 40.377 40.342 40.349 40.319 40.289 40.272 40.222 40.212 40.187 40.162 40.124 40.097 40.079 39.999 39.937 39.927 39.882 39.864 39.837 39.787 39.734 39.687 39.689 39.637 39.557 39.497 39.449 39.374 39.337 39.247 39.199 39.129 39.037 38.934 38.867 38.812 38.689 38.619 38.512 38.444 38.354 38.297 38.172 38.102 38.032 37.934 37.824 37.719 37.627 37.547 37.437 37.339 37.234 37.142 37.032 36.949 36.862 36.734 36.612 36.537 36.452 36.319 36.232 36.119 36.027 35.922 35.794 35.682 35.577 35.454 35.349 35.247 35.172 35.084 34.974 34.889 34.802 34.709 34.632 34.567 34.474 34.404 34.339 34.222 34.182 34.112 34.019 33.984 33.879 33.824 33.714 33.642 33.582 33.502 33.432 33.329 33.274 33.222 33.182 33.097 33.102 33.024 32.942 32.919
49.475 49.492 49.485 49.475 49.422 49.385 49.36 49.41 49.382 49.442 49.505 49.58 49.59 49.615 49.645 49.73 49.77 49.787 49.927 50.05 50.117 50.12 50.045 49.975 49.947 49.937 49.902 49.867 49.83 49.757 49.77 49.792 49.77 49.73 49.687 49.647 49.512 49.465 49.455 49.412 49.375 49.36 49.42 49.485 49.312 49.487 49.507 49.535 49.53 49.53 49.55 49.572 49.505 49.497 49.477 49.46 49.445 49.417 49.72 50.59 50.735 50.732 50.772 50.802 50.745 50.682 50.695 50.697 50.505 50.432 50.437 50.425 50.412 50.2 50.047 49.992 49.91 49.925 49.965 50.042 50.152 50.207 50.265 50.305 50.337 50.452 50.462 50.457 50.4 50.3 50.285 50.25 50.242 50.24 50.227 50.205 50.147 50.09 50.03 49.992 49.97 49.94 49.915 49.71 49.48 49.482 49.497 49.432 49.45 49.395 49.367 49.29 49.215 49.145 49.097 49.072 49.065 49.065 49.047 48.98 48.917 48.86 48.825 48.692 48.609 48.524 48.482 48.474 48.459 48.464 48.454 48.404 48.407 48.457 48.457 48.414 48.272 48.079 48.042 48.002 47.969 47.912 47.889 47.842 47.782 47.669 47.627 47.609 47.622 47.632 47.677 47.744 47.664 47.657 47.634 47.569 47.582 47.544 47.509 47.454 47.422 47.402 47.334 47.264 47.204 47.172 47.007 46.857 46.822 46.729 46.364 45.977 45.794 45.759 46.072 46.164 46.009 45.944 45.887 45.872 45.834 45.777 45.747 45.654 45.372 44.947 44.829 44.799 44.784 44.799 44.852 44.862 44.882 44.867 44.904 44.914 44.932 44.947 44.959 44.969 44.954 44.977 44.997 44.969 44.912 44.777 44.714 44.584 44.537 44.369 44.149 43.904 43.799 43.702 43.607 43.512 43.474 43.482 43.427 43.457 43.487 43.484 43.422 43.424 43.427 43.447 43.417 43.402 43.379 43.317 43.269 43.254 43.237 43.197 43.137 43.059 43.012 42.952 42.939 42.957 42.884 42.789 42.702 42.644 42.597 42.607 42.584 42.547 42.534 42.559 42.582 42.537 42.549 42.512 42.409 42.287 42.164 42.182 42.162 42.214 42.052 41.802 41.317 41.284 41.422 41.452 41.542 41.549 41.587 41.929 42.419 42.574 42.437 42.314 42.284 42.309 42.304 42.302 42.367 42.367 42.372 42.344 42.339 42.297 42.222 42.154 42.074 42.057 41.982 41.949 41.902 41.864 41.867 41.792 41.732 41.647 41.652 41.699 41.782 41.642 41.567 41.452 41.402 41.337 41.269 41.272 41.219 41.149 41.117 41.069 41.024 40.992 40.949 40.932 40.894 40.854 40.792 40.747 40.707 40.682 40.622 40.592 40.567 40.512 40.514 40.479 40.432 40.399 40.382 40.349 40.312 40.312 40.274 40.259 40.214 40.199 40.169 40.129 40.084 40.082 40.067 40.017 39.962 39.959 39.884 39.854 39.829 39.794 39.764 39.732 39.677 39.657 39.572 39.544 39.479 39.422 39.357 39.317 39.239 39.177 39.107 39.014 38.942 38.844 38.797 38.709 38.629 38.474 38.402 38.359 38.297 38.177 38.097 38.012 37.924 37.817 37.724 37.604 37.492 37.437 37.324 37.224 37.112 37.042 36.927 36.822 36.714 36.624 36.507 36.427 36.294 36.192 36.067 35.979 35.897 35.774 35.659 35.587 35.434 35.322 35.214 35.132 35.022 34.909 34.864 34.777 34.694 34.599 34.544 34.469 34.362 34.317 34.204 34.162 34.059 34.014 33.917 33.872 33.784 33.662 33.594 33.524 33.427 33.382 33.269 33.212 33.154 33.092 33.014 33.017 32.987 32.899 32.877
49.485 49.537 49.472 49.44 49.427 49.412 49.377 49.4 49.43 49.465 49.517 49.665 49.67 49.657 49.7 49.79 49.78 49.765 49.775 49.947 50.005 50.055 50.04 49.915 49.86 49.84 49.81 49.757 49.767 49.757 49.762 49.732 49.655 49.62 49.58 49.56 49.555 49.467 49.405 49.412 49.38 49.375 49.467 49.467 49.455 49.497 49.512 49.505 49.525 49.57 49.517 49.57 49.54 49.492 49.47 49.45 49.435 49.395 49.472 50.227 50.562 50.58 50.597 50.632 50.582 50.56 50.507 50.537 50.287 50.142 50.137 50.132 50.045 49.935 49.915 49.885 49.9 49.9 49.975 50.097 50.127 50.177 50.277 50.375 50.312 50.38 50.385 50.325 50.317 50.217 50.117 50.125 50.167 50.202 50.215 50.16 50.15 50.13 50.102 50.025 49.962 49.917 49.877 49.837 49.592 49.492 49.442 49.297 49.327 49.287 49.25 49.132 49.08 49.04 49.035 48.977 48.96 48.977 48.925 48.86 48.825 48.805 48.787 48.727 48.652 48.524 48.462 48.447 48.432 48.397 48.399 48.334 48.274 48.264 48.219 48.129 48.062 48.017 47.984 47.927 47.907 47.847 47.842 47.759 47.664 47.649 47.589 47.589 47.582 47.572 47.557 47.579 47.657 47.657 47.639 47.564 47.567 47.534 47.467 47.397 47.404 47.344 47.299 47.272 47.247 47.179 47.002 46.829 46.704 46.699 46.547 46.207 45.882 45.632 45.629 46.057 45.979 45.884 45.794 45.727 45.707 45.712 45.647 45.587 45.522 45.202 44.854 44.784 44.784 44.797 44.834 44.832 44.862 44.887 44.924 44.949 44.952 44.949 44.919 44.912 44.884 44.889 44.872 44.819 44.769 44.722 44.647 44.477 44.432 44.352 44.012 43.854 43.774 43.662 43.522 43.439 43.462 43.447 43.469 43.504 43.474 43.489 43.427 43.422 43.407 43.369 43.359 43.347 43.344 43.299 43.287 43.269 43.212 43.144 43.097 43.022 42.962 42.944 42.947 42.882 42.837 42.744 42.662 42.592 42.532 42.519 42.517 42.472 42.504 42.512 42.547 42.519 42.502 42.432 42.397 42.317 42.309 42.292 42.314 42.192 41.779 41.392 41.247 41.437 41.482 41.522 41.529 41.572 41.844 42.304 42.534 42.444 42.287 42.217 42.257 42.272 42.282 42.314 42.367 42.334 42.272 42.259 42.232 42.197 42.139 42.087 42.047 42.012 41.997 41.989 41.952 41.909 41.842 41.809 41.759 41.692 41.614 41.574 41.562 41.604 41.614 41.527 41.374 41.294 41.222 41.189 41.177 41.137 41.094 41.039 40.974 40.962 40.867 40.862 40.814 40.789 40.787 40.737 40.687 40.614 40.537 40.572 40.514 40.467 40.424 40.432 40.384 40.362 40.339 40.302 40.297 40.254 40.209 40.192 40.162 40.122 40.114 40.057 40.042 40.052 40.017 39.984 39.939 39.917 39.827 39.832 39.804 39.739 39.687 39.702 39.647 39.617 39.559 39.539 39.439 39.397 39.354 39.282 39.227 39.154 39.089 38.992 38.897 38.814 38.774 38.689 38.599 38.494 38.409 38.344 38.272 38.174 38.072 37.962 37.884 37.777 37.724 37.589 37.484 37.409 37.319 37.249 37.127 37.042 36.939 36.809 36.709 36.564 36.489 36.389 36.274 36.137 36.059 35.937 35.867 35.762 35.652 35.534 35.432 35.332 35.202 35.072 35.009 34.932 34.869 34.767 34.659 34.569 34.454 34.437 34.354 34.259 34.224 34.132 34.039 33.969 33.852 33.809 33.694 33.617 33.534 33.469 33.379 33.324 33.232 33.154 33.077 33.069 33.007 32.972 32.937 32.889 32.832
49.42 49.487 49.495 49.4 49.385 49.397 49.352 49.367 49.387 49.397 49.425 49.555 49.65 49.695 49.712 49.752 49.785 49.775 49.782 49.817 49.8 49.9 49.895 49.87 49.78 49.74 49.74 49.705 49.777 49.727 49.707 49.582 49.522 49.555 49.565 49.575 49.56 49.467 49.362 49.342 49.362 49.28 49.435 49.505 49.51 49.512 49.582 49.58 49.507 49.502 49.535 49.517 49.537 49.515 49.47 49.445 49.422 49.33 49.39 49.652 50.282 50.42 50.39 50.445 50.455 50.452 50.407 50.39 50.07 49.88 49.85 49.83 49.83 49.835 49.827 49.845 49.91 49.942 50.035 50.067 50.1 50.212 50.295 50.297 50.185 50.267 50.255 50.215 50.255 50.212 50.105 50.095 50.14 50.147 50.137 50.097 50.102 50.087 50.112 50.035 49.955 49.915 49.875 49.877 49.845 49.772 49.505 49.347 49.187 49.11 49.045 48.945 48.92 48.9 48.915 48.875 48.842 48.86 48.842 48.807 48.807 48.77 48.722 48.667 48.679 48.522 48.454 48.437 48.364 48.344 48.329 48.289 48.194 48.099 48.042 47.997 48.007 47.982 47.937 47.884 47.832 47.814 47.804 47.684 47.617 47.589 47.572 47.604 47.604 47.539 47.509 47.512 47.557 47.599 47.649 47.609 47.537 47.524 47.474 47.389 47.349 47.297 47.249 47.292 47.237 47.134 47.032 46.877 46.704 46.562 46.547 46.409 46.194 45.824 45.462 45.497 45.724 45.824 45.754 45.677 45.629 45.612 45.537 45.474 45.422 45.052 44.772 44.727 44.762 44.777 44.819 44.809 44.849 44.834 44.867 44.894 44.914 44.902 44.904 44.869 44.877 44.794 44.817 44.747 44.699 44.624 44.554 44.462 44.352 44.154 43.827 43.697 43.699 43.609 43.532 43.484 43.499 43.474 43.504 43.494 43.504 43.489 43.402 43.422 43.412 43.339 43.304 43.349 43.317 43.267 43.257 43.234 43.152 43.069 43.024 42.994 42.929 42.924 42.914 42.847 42.762 42.704 42.617 42.537 42.472 42.469 42.439 42.434 42.462 42.452 42.447 42.439 42.419 42.367 42.294 42.204 42.264 42.302 42.064 41.497 41.209 41.257 41.419 41.472 41.552 41.594 41.587 41.827 42.254 42.494 42.372 42.167 42.159 42.164 42.232 42.254 42.277 42.307 42.304 42.282 42.194 42.212 42.184 42.154 42.094 42.069 42.032 41.999 41.957 41.969 41.934 41.904 41.829 41.754 41.712 41.689 41.647 41.544 41.469 41.422 41.512 41.512 41.429 41.294 41.149 41.102 41.084 41.069 41.052 40.989 40.974 40.904 40.849 40.812 40.764 40.772 40.732 40.689 40.652 40.579 40.514 40.497 40.459 40.442 40.399 40.339 40.344 40.279 40.272 40.259 40.234 40.189 40.197 40.132 40.124 40.079 40.074 40.044 40.007 39.972 39.944 39.907 39.892 39.842 39.814 39.744 39.742 39.754 39.697 39.657 39.619 39.557 39.484 39.479 39.407 39.362 39.314 39.249 39.167 39.132 39.074 39.017 38.927 38.832 38.742 38.679 38.609 38.504 38.402 38.317 38.239 38.122 38.052 37.977 37.857 37.767 37.702 37.584 37.507 37.404 37.302 37.219 37.104 37.032 36.924 36.789 36.674 36.574 36.474 36.394 36.274 36.139 36.034 35.942 35.834 35.732 35.607 35.502 35.389 35.277 35.202 35.059 34.967 34.892 34.814 34.744 34.652 34.554 34.472 34.387 34.332 34.247 34.177 34.079 34.012 33.942 33.844 33.767 33.669 33.569 33.482 33.412 33.332 33.254 33.167 33.084 33.074 33.052 32.957 32.937 32.917 32.862 32.797
49.22 49.3 49.397 49.37 49.29 49.262 49.227 49.31 49.302 49.327 49.357 49.425 49.545 49.612 49.647 49.682 49.795 49.802 49.795 49.79 49.815 49.847 49.835 49.782 49.705 49.662 49.647 49.665 49.697 49.645 49.582 49.472 49.427 49.53 49.55 49.55 49.465 49.4 49.335 49.27 49.3 49.24 49.37 49.48 49.5 49.525 49.57 49.582 49.57 49.512 49.5 49.495 49.51 49.502 49.482 49.432 49.405 49.322 49.367 49.435 49.84 50.15 50.18 50.212 50.28 50.272 50.192 50.11 49.872 49.76 49.725 49.695 49.672 49.737 49.78 49.857 49.92 49.98 50.025 50.067 50.167 50.287 50.25 50.162 50.127 50.162 50.172 50.192 50.17 50.17 50.11 50.07 50.082 50.077 50.055 50.052 50.035 50.032 50.005 49.955 49.895 49.87 49.872 49.855 49.847 49.847 49.56 49.177 49.05 48.977 48.902 48.847 48.742 48.727 48.777 48.79 48.78 48.745 48.777 48.77 48.75 48.725 48.67 48.585 48.517 48.464 48.419 48.352 48.324 48.309 48.259 48.222 48.162 48.082 48.032 47.969 47.952 47.937 47.914 47.837 47.802 47.784 47.777 47.684 47.602 47.574 47.557 47.524 47.512 47.532 47.517 47.522 47.527 47.487 47.557 47.567 47.487 47.454 47.419 47.377 47.354 47.317 47.302 47.227 47.127 47.092 47.024 46.897 46.669 46.522 46.417 46.417 46.432 46.202 45.659 45.397 45.307 45.614 45.752 45.647 45.549 45.507 45.444 45.384 45.287 44.914 44.782 44.712 44.752 44.764 44.779 44.797 44.789 44.804 44.852 44.907 44.897 44.864 44.842 44.857 44.857 44.809 44.787 44.702 44.684 44.587 44.529 44.389 44.157 43.937 43.812 43.784 43.699 43.614 43.497 43.472 43.494 43.527 43.552 43.517 43.487 43.442 43.434 43.399 43.354 43.297 43.262 43.302 43.279 43.239 43.234 43.184 43.109 43.024 43.022 42.972 42.939 42.877 42.874 42.809 42.729 42.642 42.577 42.509 42.489 42.397 42.384 42.402 42.399 42.399 42.394 42.352 42.332 42.272 42.129 42.164 42.212 42.159 41.649 40.997 41.197 41.392 41.494 41.569 41.587 41.584 41.774 42.214 42.409 42.319 42.119 42.057 42.099 42.152 42.194 42.229 42.262 42.264 42.237 42.227 42.179 42.144 42.129 42.124 42.059 42.047 41.999 41.967 41.957 41.872 41.922 41.879 41.834 41.794 41.709 41.647 41.614 41.559 41.492 41.404 41.319 41.372 41.407 41.337 41.224 41.114 41.007 40.972 40.994 40.942 40.874 40.832 40.822 40.777 40.739 40.694 40.654 40.602 40.594 40.564 40.544 40.464 40.417 40.397 40.334 40.334 40.294 40.252 40.257 40.204 40.172 40.119 40.134 40.092 40.074 40.024 40.012 40.022 39.984 39.942 39.904 39.872 39.857 39.804 39.789 39.732 39.732 39.712 39.657 39.619 39.547 39.489 39.444 39.432 39.377 39.319 39.294 39.189 39.139 39.084 38.992 38.949 38.904 38.814 38.734 38.649 38.562 38.487 38.384 38.337 38.217 38.132 38.052 37.969 37.864 37.739 37.694 37.552 37.484 37.374 37.249 37.184 37.097 36.997 36.907 36.762 36.682 36.564 36.459 36.359 36.267 36.132 36.019 35.897 35.824 35.724 35.582 35.439 35.354 35.259 35.182 35.054 34.927 34.849 34.797 34.704 34.652 34.534 34.459 34.349 34.302 34.247 34.152 34.067 33.977 33.904 33.837 33.737 33.639 33.547 33.467 33.392 33.314 33.194 33.094 33.064 33.054 33.037 32.944 32.912 32.867 32.809 32.759
48.935 49 49.207 49.222 49.19 49.1 49.115 49.227 49.227 49.257 49.287 49.325 49.432 49.5 49.542 49.767 49.862 49.857 49.855 49.83 49.845 49.935 49.85 49.762 49.695 49.645 49.607 49.627 49.617 49.562 49.49 49.45 49.382 49.507 49.552 49.49 49.435 49.382 49.372 49.242 49.245 49.217 49.262 49.422 49.437 49.502 49.557 49.557 49.545 49.53 49.505 49.485 49.475 49.475 49.465 49.427 49.395 49.355 49.367 49.387 49.487 49.857 49.957 49.957 50.017 49.927 49.83 49.73 49.717 49.665 49.615 49.647 49.692 49.752 49.83 49.89 49.947 49.952 50.027 50.13 50.137 50.165 50.097 50.142 50.157 50.142 50.12 50.11 50.04 50.05 50.045 50.005 49.962 49.895 49.902 49.995 50 49.972 49.92 49.855 49.795 49.83 49.872 49.85 49.837 49.772 49.365 49.07 48.935 48.9 48.857 48.837 48.762 48.765 48.74 48.737 48.742 48.72 48.727 48.737 48.655 48.67 48.597 48.537 48.482 48.449 48.409 48.374 48.319 48.264 48.212 48.129 48.079 48.069 48.029 47.952 47.904 47.909 47.904 47.857 47.767 47.724 47.712 47.627 47.599 47.517 47.519 47.499 47.482 47.497 47.494 47.474 47.507 47.479 47.417 47.454 47.444 47.432 47.397 47.354 47.339 47.332 47.287 47.232 47.254 47.204 47.087 47.014 46.727 46.562 46.387 46.287 46.272 46.279 45.909 45.564 45.259 45.354 45.604 45.579 45.499 45.454 45.409 45.344 45.289 45.124 44.814 44.702 44.754 44.754 44.747 44.739 44.802 44.809 44.859 44.889 44.892 44.867 44.872 44.847 44.849 44.804 44.752 44.709 44.604 44.507 44.359 44.139 43.977 43.819 43.754 43.714 43.684 43.582 43.482 43.472 43.477 43.539 43.592 43.534 43.497 43.419 43.399 43.369 43.337 43.327 43.269 43.227 43.244 43.207 43.184 43.117 43.084 43.032 42.977 42.972 42.942 42.907 42.869 42.789 42.699 42.622 42.554 42.494 42.459 42.417 42.357 42.362 42.362 42.309 42.299 42.287 42.257 42.129 41.974 42.174 42.079 41.442 41.077 41.084 41.312 41.449 41.567 41.604 41.592 41.822 42.204 42.404 42.339 42.097 41.977 42.002 42.059 42.077 42.137 42.162 42.224 42.199 42.174 42.134 42.094 42.082 42.034 42.057 42.002 41.984 41.999 41.939 41.922 41.887 41.812 41.842 41.827 41.747 41.707 41.647 41.589 41.514 41.489 41.429 41.294 41.204 41.212 41.219 41.214 41.167 41.017 40.919 40.854 40.852 40.872 40.809 40.737 40.707 40.674 40.629 40.569 40.524 40.509 40.499 40.499 40.442 40.384 40.322 40.254 40.279 40.232 40.192 40.182 40.149 40.104 40.089 40.082 40.072 40.034 40.017 39.987 39.947 39.939 39.894 39.879 39.847 39.807 39.777 39.739 39.734 39.702 39.654 39.612 39.587 39.522 39.477 39.467 39.412 39.357 39.292 39.219 39.169 39.137 39.084 38.972 38.907 38.859 38.784 38.719 38.642 38.549 38.469 38.397 38.282 38.197 38.112 38.024 37.924 37.834 37.747 37.642 37.544 37.464 37.379 37.264 37.169 37.099 36.964 36.859 36.764 36.654 36.577 36.464 36.342 36.247 36.082 35.982 35.874 35.817 35.657 35.527 35.399 35.319 35.194 35.092 35.027 34.889 34.827 34.749 34.699 34.637 34.544 34.434 34.379 34.252 34.187 34.132 34.052 33.967 33.874 33.774 33.687 33.584 33.517 33.414 33.337 33.247 33.129 33.047 33.057 33.044 32.989 32.939 32.867 32.862 32.797 32.732
48.652 48.715 48.992 49.162 49.187 49.132 49.007 49.162 49.157 49.187 49.222 49.252 49.317 49.355 49.472 49.815 49.91 49.917 49.865 49.767 49.782 49.957 49.942 49.84 49.68 49.622 49.587 49.562 49.54 49.535 49.48 49.375 49.362 49.465 49.565 49.515 49.465 49.447 49.377 49.205 49.17 49.182 49.162 49.282 49.407 49.48 49.54 49.547 49.515 49.5 49.485 49.472 49.452 49.44 49.41 49.387 49.347 49.32 49.36 49.415 49.49 49.657 49.757 49.685 49.68 49.645 49.587 49.617 49.592 49.6 49.61 49.64 49.7 49.765 49.792 49.87 49.96 50.02 50.065 50.097 50.05 50.06 50.1 50.14 50.122 50.092 50.082 50.04 49.97 49.99 49.93 49.937 49.772 49.7 49.79 49.88 49.955 49.912 49.86 49.8 49.775 49.75 49.82 49.735 49.685 49.565 49.04 48.932 48.885 48.87 48.835 48.81 48.782 48.772 48.762 48.725 48.682 48.672 48.69 48.66 48.6 48.595 48.54 48.467 48.442 48.427 48.394 48.362 48.299 48.274 48.204 48.142 48.099 48.044 47.967 47.909 47.804 47.872 47.894 47.777 47.707 47.717 47.692 47.604 47.564 47.504 47.492 47.487 47.482 47.459 47.419 47.397 47.442 47.442 47.409 47.387 47.424 47.427 47.367 47.314 47.314 47.282 47.259 47.282 47.322 47.232 47.194 47.099 46.747 46.512 46.334 46.184 46.139 46.172 46.072 45.759 45.424 45.169 45.247 45.454 45.462 45.434 45.407 45.359 45.297 45.187 45.054 44.794 44.739 44.732 44.722 44.737 44.777 44.804 44.829 44.829 44.874 44.859 44.862 44.809 44.797 44.742 44.699 44.627 44.507 44.359 44.107 43.854 43.822 43.757 43.694 43.667 43.642 43.527 43.477 43.459 43.469 43.492 43.512 43.537 43.494 43.432 43.397 43.354 43.304 43.287 43.242 43.182 43.169 43.124 43.114 43.097 43.049 43.007 42.994 42.962 42.947 42.902 42.834 42.732 42.672 42.609 42.542 42.484 42.427 42.407 42.342 42.337 42.337 42.262 42.209 42.172 42.139 41.902 41.639 41.559 41.247 41.164 41.457 41.409 41.477 41.567 41.647 41.729 41.829 42.262 42.409 42.337 42.182 41.967 41.879 41.957 41.972 42.022 42.037 42.129 42.162 42.132 42.089 42.024 42.019 42.007 41.992 41.999 41.962 41.942 41.929 41.922 41.884 41.869 41.844 41.824 41.792 41.729 41.684 41.644 41.584 41.489 41.412 41.354 41.262 41.177 41.067 41.012 41.029 41.102 41.007 40.852 40.749 40.707 40.737 40.737 40.712 40.649 40.619 40.584 40.519 40.514 40.482 40.444 40.414 40.399 40.367 40.337 40.222 40.174 40.177 40.139 40.132 40.104 40.077 40.042 40.029 40.027 39.977 39.977 39.909 39.887 39.869 39.862 39.844 39.812 39.779 39.727 39.699 39.669 39.627 39.607 39.589 39.542 39.509 39.487 39.424 39.382 39.319 39.269 39.179 39.134 39.119 39.059 38.994 38.914 38.834 38.739 38.679 38.637 38.534 38.454 38.372 38.284 38.204 38.129 37.974 37.907 37.812 37.699 37.604 37.554 37.462 37.362 37.234 37.139 37.064 36.942 36.859 36.719 36.647 36.519 36.424 36.332 36.239 36.059 35.972 35.874 35.769 35.612 35.507 35.389 35.327 35.237 35.089 35.004 34.887 34.842 34.759 34.677 34.607 34.542 34.437 34.349 34.284 34.197 34.102 34.019 33.909 33.804 33.724 33.634 33.559 33.492 33.389 33.294 33.234 33.167 33.077 33.029 33.012 32.964 32.972 32.939 32.869 32.809 32.727
48.53 48.56 48.82 49.027 49.102 48.952 48.917 48.995 49.115 49.15 49.195 49.227 49.22 49.15 49.312 49.682 50.007 49.95 49.905 49.87 49.837 49.872 49.9 49.79 49.672 49.597 49.54 49.512 49.49 49.487 49.445 49.412 49.405 49.465 49.542 49.55 49.515 49.455 49.367 49.267 49.16 49.13 49.13 49.197 49.367 49.46 49.52 49.55 49.487 49.47 49.46 49.455 49.42 49.402 49.352 49.292 49.272 49.31 49.347 49.487 49.495 49.52 49.552 49.542 49.53 49.555 49.53 49.547 49.577 49.582 49.642 49.655 49.72 49.782 49.817 49.85 49.977 49.997 49.97 50.022 50.067 50.07 50.09 50.06 50.057 50.047 50.07 50.027 49.982 49.985 49.912 49.78 49.717 49.66 49.745 49.792 49.845 49.81 49.797 49.765 49.707 49.587 49.51 49.287 49.14 49.03 48.915 48.885 48.862 48.857 48.83 48.822 48.782 48.775 48.74 48.717 48.595 48.5 48.64 48.627 48.542 48.48 48.472 48.4 48.422 48.434 48.397 48.332 48.264 48.199 48.167 48.107 48.072 47.964 47.977 47.924 47.754 47.792 47.754 47.654 47.664 47.662 47.619 47.572 47.552 47.502 47.479 47.477 47.459 47.439 47.377 47.364 47.374 47.394 47.369 47.347 47.329 47.354 47.327 47.294 47.267 47.279 47.257 47.254 47.327 47.324 47.332 47.122 46.684 46.427 46.262 46.112 46.064 46.047 46.054 45.842 45.582 45.349 45.124 45.232 45.407 45.337 45.409 45.087 45.084 45.162 45.109 44.909 44.707 44.709 44.739 44.752 44.739 44.774 44.807 44.824 44.844 44.849 44.757 44.772 44.727 44.689 44.639 44.534 44.384 44.252 43.902 43.722 43.684 43.669 43.607 43.607 43.559 43.472 43.462 43.457 43.467 43.479 43.489 43.484 43.472 43.397 43.339 43.334 43.292 43.239 43.222 43.179 43.144 43.109 43.094 43.067 43.022 42.984 42.929 42.904 42.884 42.822 42.787 42.667 42.637 42.587 42.504 42.497 42.422 42.409 42.314 42.279 42.284 42.174 42.079 42.049 41.927 41.649 41.362 41.054 41.069 41.387 41.497 41.502 41.607 41.637 41.764 41.882 42.179 42.382 42.304 41.934 41.819 41.777 41.809 41.884 41.929 41.972 42.027 42.057 42.097 42.072 41.989 41.919 41.952 41.954 41.942 41.949 41.947 41.927 41.884 41.854 41.864 41.839 41.814 41.819 41.784 41.727 41.657 41.604 41.569 41.524 41.409 41.284 41.207 41.162 41.047 40.984 40.862 40.889 40.877 40.837 40.754 40.689 40.619 40.612 40.597 40.627 40.607 40.532 40.474 40.434 40.417 40.422 40.357 40.322 40.317 40.267 40.219 40.162 40.122 40.112 40.087 40.034 40.014 39.982 39.947 39.944 39.924 39.909 39.867 39.857 39.837 39.799 39.782 39.754 39.719 39.692 39.657 39.629 39.587 39.582 39.567 39.474 39.409 39.399 39.332 39.317 39.267 39.222 39.167 39.112 39.037 39.007 38.974 38.869 38.807 38.724 38.642 38.592 38.512 38.429 38.332 38.249 38.169 38.079 37.972 37.879 37.804 37.682 37.607 37.532 37.404 37.334 37.244 37.127 37.044 36.949 36.872 36.709 36.634 36.512 36.417 36.299 36.189 36.079 35.947 35.847 35.727 35.614 35.492 35.362 35.304 35.189 35.092 34.962 34.894 34.799 34.714 34.634 34.562 34.507 34.424 34.334 34.269 34.189 34.094 33.989 33.902 33.772 33.679 33.614 33.504 33.434 33.377 33.274 33.199 33.159 33.097 33.019 33.027 32.989 32.962 32.937 32.877 32.832 32.772
48.41 48.427 48.667 48.907 48.967 48.87 48.805 48.887 49.075 49.13 49.165 49.182 49.157 49.115 49.182 49.455 49.902 49.917 49.885 49.832 49.67 49.627 49.625 49.62 49.587 49.532 49.505 49.482 49.465 49.455 49.38 49.347 49.402 49.415 49.47 49.56 49.505 49.455 49.395 49.26 49.192 49.097 49.097 49.107 49.197 49.377 49.48 49.542 49.475 49.45 49.47 49.43 49.397 49.365 49.312 49.237 49.217 49.262 49.325 49.397 49.415 49.45 49.44 49.447 49.425 49.455 49.49 49.51 49.542 49.572 49.652 49.695 49.702 49.72 49.777 49.905 49.967 49.982 49.937 50.007 50.177 50.107 49.99 49.985 50.105 50.105 50.04 49.977 49.917 49.907 49.802 49.72 49.667 49.537 49.555 49.647 49.725 49.75 49.782 49.687 49.595 49.442 49.267 49.08 48.927 48.915 48.907 48.867 48.832 48.812 48.827 48.807 48.757 48.765 48.732 48.667 48.6 48.57 48.61 48.51 48.447 48.43 48.435 48.442 48.397 48.417 48.389 48.354 48.304 48.179 48.139 48.087 48.022 47.939 47.904 47.887 47.719 47.689 47.674 47.767 47.652 47.574 47.567 47.547 47.497 47.457 47.422 47.389 47.417 47.417 47.389 47.359 47.357 47.329 47.337 47.309 47.307 47.307 47.294 47.272 47.229 47.252 47.244 47.247 47.137 47.164 47.152 46.877 46.549 46.347 46.189 46.077 45.989 45.939 45.937 45.944 45.887 45.597 45.212 45.067 45.189 45.362 45.314 45.057 45.092 45.162 45.134 45.022 44.857 44.719 44.689 44.722 44.717 44.754 44.789 44.807 44.807 44.774 44.704 44.659 44.559 44.612 44.572 44.434 44.179 43.962 43.779 43.697 43.669 43.614 43.597 43.599 43.549 43.472 43.467 43.452 43.464 43.454 43.459 43.429 43.399 43.354 43.312 43.297 43.249 43.214 43.194 43.152 43.127 43.102 43.079 43.039 43.002 42.964 42.952 42.909 42.842 42.774 42.709 42.619 42.582 42.527 42.474 42.457 42.404 42.357 42.287 42.229 42.187 42.077 42.004 41.774 41.589 41.342 41.147 41.184 41.379 41.507 41.519 41.577 41.644 41.619 41.762 41.832 42.054 42.182 41.924 41.672 41.629 41.692 41.737 41.802 41.847 41.909 41.964 41.974 41.984 41.899 41.867 41.849 41.869 41.854 41.869 41.907 41.892 41.862 41.854 41.822 41.787 41.787 41.762 41.744 41.737 41.694 41.627 41.564 41.502 41.477 41.372 41.274 41.184 41.112 41.039 40.934 40.824 40.737 40.669 40.722 40.797 40.714 40.639 40.527 40.449 40.467 40.529 40.517 40.459 40.407 40.374 40.362 40.344 40.272 40.229 40.209 40.234 40.207 40.119 40.064 40.039 40.004 39.994 39.949 39.939 39.912 39.877 39.839 39.832 39.792 39.787 39.739 39.717 39.714 39.707 39.629 39.604 39.602 39.539 39.472 39.494 39.439 39.349 39.354 39.309 39.267 39.257 39.217 39.132 39.077 39.004 38.952 38.904 38.822 38.802 38.694 38.652 38.564 38.489 38.404 38.339 38.232 38.147 38.082 37.967 37.839 37.784 37.684 37.604 37.507 37.414 37.287 37.187 37.092 37.017 36.924 36.834 36.717 36.627 36.514 36.399 36.267 36.152 36.054 35.909 35.809 35.679 35.599 35.474 35.382 35.262 35.132 35.069 34.944 34.882 34.797 34.709 34.609 34.547 34.494 34.392 34.324 34.227 34.159 34.064 33.989 33.879 33.769 33.674 33.577 33.512 33.404 33.339 33.267 33.187 33.174 33.094 33.074 33.072 33.007 33.009 32.937 32.887 32.809 32.777
48.305 48.337 48.63 48.91 48.877 48.79 48.752 48.802 48.865 48.955 49.057 49.105 49.075 49.107 49.095 49.292 49.66 49.815 49.812 49.632 49.435 49.312 49.245 49.275 49.447 49.442 49.482 49.5 49.44 49.412 49.365 49.33 49.275 49.292 49.33 49.422 49.38 49.352 49.35 49.3 49.175 49.085 49.09 49.085 49.142 49.367 49.52 49.477 49.472 49.447 49.385 49.35 49.33 49.29 49.247 49.232 49.217 49.222 49.287 49.375 49.447 49.41 49.347 49.357 49.402 49.472 49.495 49.535 49.545 49.555 49.602 49.707 49.772 49.785 49.815 49.925 49.972 49.972 49.942 50.025 50.125 50.035 49.982 50.015 50.147 50.12 50.04 49.96 49.89 49.782 49.62 49.605 49.525 49.455 49.437 49.552 49.65 49.695 49.635 49.555 49.375 49.222 49.065 48.96 48.907 48.872 48.855 48.837 48.822 48.83 48.81 48.787 48.777 48.7 48.712 48.622 48.617 48.63 48.607 48.417 48.327 48.365 48.38 48.392 48.459 48.447 48.399 48.344 48.274 48.207 48.134 48.064 47.994 47.932 47.857 47.817 47.664 47.649 47.689 47.719 47.567 47.517 47.499 47.484 47.442 47.414 47.394 47.359 47.337 47.327 47.404 47.352 47.307 47.304 47.314 47.302 47.279 47.314 47.289 47.247 47.214 47.224 47.162 47.129 46.997 46.887 46.834 46.597 46.457 46.314 46.182 46.069 45.987 45.859 45.817 45.817 45.874 45.612 45.377 45.089 45.002 45.059 45.187 45.219 45.179 45.174 45.147 45.074 44.974 44.804 44.689 44.719 44.679 44.714 44.744 44.787 44.767 44.762 44.624 44.482 44.419 44.342 44.334 44.237 43.949 43.794 43.724 43.689 43.649 43.577 43.569 43.564 43.539 43.527 43.494 43.467 43.452 43.452 43.409 43.374 43.372 43.327 43.264 43.257 43.192 43.222 43.174 43.159 43.124 43.109 43.062 43.032 43.004 42.994 42.927 42.862 42.792 42.719 42.659 42.609 42.564 42.509 42.434 42.412 42.367 42.317 42.237 42.142 42.059 41.952 41.802 41.474 41.157 41.087 41.362 41.509 41.507 41.534 41.572 41.622 41.544 41.562 41.669 41.644 41.709 41.777 41.517 41.484 41.529 41.614 41.649 41.692 41.759 41.809 41.857 41.827 41.872 41.789 41.759 41.789 41.814 41.807 41.794 41.809 41.819 41.827 41.774 41.734 41.754 41.732 41.687 41.669 41.679 41.617 41.587 41.534 41.439 41.434 41.354 41.239 41.179 41.087 40.967 40.852 40.794 40.742 40.649 40.524 40.564 40.582 40.569 40.487 40.389 40.319 40.359 40.399 40.394 40.392 40.357 40.317 40.282 40.227 40.212 40.152 40.142 40.149 40.124 40.069 39.997 39.934 39.927 39.894 39.877 39.852 39.804 39.777 39.752 39.747 39.747 39.694 39.662 39.667 39.649 39.594 39.574 39.587 39.512 39.502 39.439 39.399 39.362 39.357 39.307 39.259 39.212 39.164 39.104 39.019 38.989 38.922 38.859 38.774 38.757 38.669 38.612 38.554 38.449 38.354 38.297 38.224 38.152 38.047 37.962 37.869 37.782 37.689 37.572 37.504 37.407 37.302 37.212 37.097 37.004 36.919 36.777 36.697 36.599 36.494 36.369 36.254 36.112 36.024 35.902 35.792 35.677 35.604 35.452 35.334 35.209 35.129 35.059 34.942 34.852 34.742 34.704 34.594 34.544 34.459 34.397 34.329 34.234 34.162 34.059 33.952 33.857 33.737 33.647 33.539 33.464 33.384 33.334 33.252 33.177 33.154 33.099 33.084 33.087 32.999 32.974 32.987 32.897 32.842 32.847
48.297 48.34 48.477 48.827 48.845 48.785 48.76 48.817 48.817 48.942 49.075 49.075 49.027 49.092 49.102 49.28 49.622 49.662 49.53 49.332 49.202 49.062 49.032 49.052 49.245 49.425 49.462 49.465 49.417 49.392 49.337 49.302 49.307 49.28 49.307 49.3 49.292 49.305 49.325 49.312 49.162 49.047 49.052 49.015 49.052 49.265 49.482 49.46 49.447 49.392 49.335 49.325 49.292 49.247 49.19 49.215 49.205 49.202 49.26 49.327 49.345 49.365 49.357 49.395 49.427 49.447 49.472 49.515 49.532 49.505 49.58 49.672 49.832 49.867 49.875 49.872 49.917 49.907 49.882 49.847 49.972 49.925 49.98 50.115 50.185 50.12 50.04 49.96 49.882 49.772 49.592 49.505 49.442 49.402 49.37 49.415 49.602 49.54 49.402 49.282 49.157 49.04 48.952 48.915 48.887 48.837 48.852 48.855 48.822 48.82 48.807 48.787 48.75 48.705 48.692 48.625 48.515 48.375 48.255 47.965 48.295 48.325 48.32 48.365 48.449 48.389 48.354 48.304 48.264 48.214 48.144 48.037 47.969 47.899 47.789 47.722 47.632 47.584 47.612 47.629 47.547 47.514 47.469 47.424 47.392 47.347 47.344 47.339 47.327 47.299 47.299 47.294 47.267 47.234 47.299 47.272 47.269 47.272 47.264 47.264 47.232 47.104 47.019 46.977 46.892 46.814 46.634 46.522 46.424 46.324 46.169 46.027 45.892 45.804 45.732 45.719 45.697 45.627 45.542 45.282 45.039 44.914 44.977 45.149 45.127 45.142 45.117 45.097 45.024 44.897 44.827 44.754 44.707 44.709 44.699 44.714 44.739 44.672 44.474 44.362 44.282 44.192 44.132 44.027 43.844 43.739 43.697 43.657 43.594 43.534 43.484 43.464 43.477 43.484 43.489 43.449 43.424 43.452 43.392 43.337 43.302 43.274 43.267 43.219 43.204 43.194 43.144 43.147 43.102 43.082 43.032 43.022 42.997 42.962 42.894 42.822 42.742 42.662 42.642 42.554 42.549 42.464 42.427 42.359 42.319 42.219 42.122 42.014 41.879 41.714 41.502 41.227 40.982 41.229 41.514 41.534 41.522 41.634 41.624 41.534 41.482 41.504 41.517 41.502 41.447 41.367 41.334 41.352 41.454 41.484 41.552 41.607 41.674 41.727 41.747 41.687 41.654 41.669 41.674 41.667 41.702 41.742 41.752 41.719 41.714 41.737 41.722 41.672 41.684 41.687 41.649 41.609 41.584 41.554 41.507 41.462 41.429 41.372 41.269 41.227 41.134 41.044 40.954 40.847 40.757 40.667 40.649 40.539 40.422 40.382 40.469 40.452 40.374 40.352 40.284 40.272 40.294 40.329 40.294 40.257 40.204 40.179 40.187 40.122 40.107 40.037 40.039 40.047 39.999 39.932 39.882 39.849 39.847 39.797 39.744 39.729 39.727 39.687 39.684 39.669 39.632 39.594 39.579 39.577 39.537 39.512 39.487 39.452 39.399 39.377 39.342 39.317 39.254 39.229 39.187 39.122 39.084 39.012 38.997 38.924 38.859 38.774 38.707 38.632 38.594 38.507 38.427 38.339 38.259 38.174 38.119 38.012 37.934 37.839 37.727 37.677 37.589 37.484 37.384 37.262 37.177 37.077 36.994 36.844 36.752 36.679 36.574 36.467 36.354 36.224 36.132 35.962 35.854 35.749 35.664 35.547 35.437 35.334 35.202 35.109 35.012 34.912 34.777 34.702 34.674 34.584 34.504 34.429 34.354 34.297 34.217 34.134 34.052 33.932 33.857 33.729 33.657 33.534 33.429 33.367 33.319 33.262 33.177 33.129 33.064 33.104 33.104 33.062 33.014 32.987 32.904 32.854 32.837
48.31 48.357 48.445 48.665 48.795 48.78 48.74 48.8 48.867 48.95 49.07 49.03 49.005 49.047 49.065 49.135 49.265 49.197 49.077 49.02 48.967 48.935 48.942 48.93 48.995 49.245 49.41 49.405 49.37 49.36 49.322 49.267 49.282 49.292 49.292 49.295 49.315 49.322 49.315 49.305 49.21 49.062 49.005 49.005 48.985 49.087 49.435 49.47 49.415 49.342 49.305 49.295 49.257 49.217 49.192 49.16 49.165 49.187 49.22 49.267 49.31 49.317 49.4 49.397 49.402 49.422 49.447 49.362 49.477 49.487 49.575 49.75 49.852 49.88 49.852 49.845 49.827 49.8 49.825 49.805 49.885 49.917 49.917 50.032 50.125 50.112 50.037 49.96 49.88 49.757 49.6 49.42 49.337 49.285 49.255 49.315 49.51 49.43 49.187 49.052 48.93 48.885 48.882 48.885 48.857 48.852 48.847 48.837 48.85 48.792 48.782 48.772 48.767 48.737 48.725 48.437 48.032 47.71 47.525 47.48 47.99 48.257 48.33 48.297 48.309 48.319 48.284 48.254 48.207 48.177 48.149 48.034 47.904 47.849 47.804 47.687 47.587 47.542 47.537 47.534 47.504 47.479 47.412 47.382 47.359 47.319 47.312 47.327 47.267 47.257 47.232 47.242 47.237 47.249 47.272 47.209 47.194 47.207 47.217 47.207 47.149 47.007 46.934 46.854 46.814 46.684 46.512 46.424 46.382 46.262 46.157 45.994 45.872 45.772 45.687 45.642 45.594 45.579 45.564 45.334 45.102 44.969 44.859 44.999 45.197 45.144 45.089 45.082 45.034 44.964 44.869 44.752 44.737 44.734 44.704 44.727 44.702 44.484 44.344 44.279 44.174 44.099 43.994 43.917 43.792 43.717 43.664 43.609 43.544 43.492 43.462 43.449 43.464 43.454 43.444 43.447 43.384 43.402 43.342 43.322 43.287 43.234 43.252 43.227 43.192 43.172 43.159 43.174 43.114 43.059 43.047 43.012 42.984 42.944 42.849 42.779 42.699 42.619 42.564 42.522 42.459 42.404 42.352 42.289 42.167 42.109 42.022 41.939 41.684 41.507 41.259 41.017 41.307 41.544 41.514 41.527 41.604 41.592 41.537 41.432 41.414 41.434 41.397 41.302 41.219 41.184 41.194 41.292 41.344 41.394 41.482 41.519 41.577 41.604 41.594 41.572 41.547 41.549 41.594 41.627 41.627 41.664 41.682 41.677 41.644 41.649 41.654 41.634 41.637 41.639 41.614 41.572 41.554 41.499 41.424 41.377 41.359 41.294 41.219 41.159 41.097 40.984 40.924 40.834 40.757 40.639 40.579 40.524 40.454 40.354 40.309 40.332 40.332 40.369 40.284 40.197 40.142 40.184 40.202 40.227 40.167 40.142 40.109 40.069 40.034 39.974 39.979 39.949 39.909 39.904 39.869 39.827 39.802 39.777 39.709 39.712 39.684 39.632 39.639 39.609 39.569 39.554 39.527 39.512 39.464 39.462 39.429 39.394 39.372 39.332 39.302 39.262 39.219 39.182 39.109 39.104 39.084 38.997 38.949 38.917 38.857 38.797 38.707 38.597 38.542 38.487 38.397 38.329 38.227 38.152 38.052 37.967 37.867 37.819 37.732 37.622 37.552 37.467 37.384 37.277 37.199 37.062 36.959 36.857 36.767 36.657 36.557 36.439 36.324 36.209 36.114 35.952 35.842 35.749 35.659 35.497 35.442 35.299 35.204 35.084 34.987 34.909 34.754 34.714 34.652 34.569 34.472 34.379 34.354 34.284 34.222 34.112 34.027 33.924 33.839 33.712 33.652 33.534 33.442 33.374 33.309 33.269 33.197 33.157 33.074 33.134 33.112 33.097 33.037 32.994 32.909 32.879 32.864
48.31 48.375 48.41 48.587 48.71 48.787 48.765 48.762 48.762 48.852 49.047 49.025 48.982 48.982 48.997 49.032 48.997 48.947 48.932 48.935 48.915 48.882 48.865 48.9 48.897 49.135 49.352 49.407 49.327 49.332 49.295 49.267 49.282 49.285 49.282 49.3 49.315 49.307 49.297 49.287 49.27 49.095 48.957 48.982 48.947 48.975 49.237 49.447 49.397 49.347 49.252 49.282 49.295 49.252 49.24 49.125 49.145 49.175 49.187 49.232 49.27 49.307 49.352 49.357 49.357 49.345 49.412 49.395 49.427 49.465 49.662 49.84 49.797 49.79 49.78 49.8 49.8 49.802 49.8 49.777 49.717 49.745 49.827 49.905 49.975 50.025 50.02 49.94 49.875 49.815 49.727 49.37 49.24 49.18 49.14 49.272 49.45 49.412 49.092 48.922 48.877 48.867 48.862 48.86 48.862 48.852 48.847 48.825 48.832 48.792 48.762 48.752 48.835 48.805 48.425 47.905 47.49 47.327 47.28 47.287 47.475 48.072 48.18 48.222 48.277 48.229 48.222 48.214 48.182 48.134 48.152 48.072 47.897 47.817 47.759 47.647 47.587 47.594 47.549 47.524 47.482 47.422 47.414 47.344 47.322 47.324 47.277 47.224 47.182 47.187 47.159 47.182 47.157 47.167 47.174 47.174 47.104 47.107 47.062 47.014 46.949 46.944 46.904 46.804 46.702 46.594 46.414 46.282 46.274 46.199 46.074 45.967 45.877 45.767 45.682 45.587 45.539 45.492 45.494 45.447 45.464 45.342 44.927 44.837 44.929 45.012 45.087 45.064 45.012 44.972 44.887 44.824 44.727 44.672 44.647 44.577 44.464 44.297 44.234 44.114 44.042 43.939 43.877 43.819 43.762 43.689 43.619 43.557 43.512 43.439 43.442 43.432 43.412 43.442 43.424 43.382 43.322 43.312 43.287 43.242 43.209 43.219 43.252 43.254 43.187 43.182 43.159 43.112 43.072 43.097 43.059 42.979 42.927 42.869 42.804 42.739 42.659 42.579 42.509 42.462 42.409 42.322 42.292 42.169 42.089 42.002 41.832 41.677 41.484 41.272 41.107 41.227 41.497 41.559 41.559 41.632 41.629 41.534 41.432 41.329 41.314 41.349 41.327 41.154 41.027 41.054 41.112 41.212 41.222 41.294 41.349 41.387 41.437 41.429 41.447 41.464 41.494 41.494 41.502 41.542 41.579 41.587 41.592 41.597 41.622 41.569 41.572 41.559 41.534 41.527 41.509 41.492 41.454 41.452 41.379 41.337 41.269 41.199 41.154 41.089 40.987 40.922 40.867 40.794 40.744 40.664 40.569 40.479 40.424 40.332 40.222 40.179 40.189 40.264 40.252 40.199 40.107 40.054 40.047 40.087 40.099 40.069 40.069 40.029 39.984 39.934 39.919 39.884 39.862 39.869 39.854 39.839 39.752 39.714 39.697 39.657 39.622 39.632 39.602 39.552 39.552 39.504 39.472 39.469 39.424 39.394 39.352 39.342 39.324 39.309 39.279 39.234 39.184 39.162 39.119 39.062 39.014 38.947 38.909 38.867 38.807 38.739 38.669 38.599 38.524 38.454 38.367 38.294 38.179 38.114 38.044 37.922 37.827 37.769 37.662 37.619 37.509 37.429 37.347 37.234 37.149 37.064 36.939 36.847 36.749 36.667 36.554 36.424 36.317 36.202 36.117 35.949 35.852 35.732 35.617 35.507 35.392 35.299 35.187 35.064 34.944 34.864 34.759 34.722 34.657 34.557 34.467 34.417 34.322 34.282 34.199 34.119 34.022 33.942 33.847 33.729 33.607 33.512 33.419 33.352 33.277 33.292 33.227 33.149 33.109 33.137 33.122 33.069 33.072 33.037 32.997 32.929 32.874
48.267 48.317 48.347 48.447 48.65 48.842 48.81 48.76 48.76 48.865 49.115 49.052 48.977 48.96 48.98 48.965 48.95 48.905 48.912 48.872 48.857 48.862 48.855 48.862 48.867 49.037 49.245 49.31 49.315 49.302 49.342 49.292 49.31 49.315 49.292 49.277 49.295 49.297 49.287 49.28 49.3 49.105 48.905 48.86 48.95 48.895 48.965 49.185 49.317 49.285 49.267 49.252 49.235 49.2 49.157 49.135 49.122 49.157 49.23 49.247 49.242 49.29 49.32 49.342 49.33 49.312 49.325 49.38 49.372 49.465 49.675 49.702 49.635 49.552 49.577 49.667 49.742 49.782 49.717 49.695 49.582 49.527 49.565 49.687 49.845 49.952 49.967 49.847 49.672 49.672 49.835 49.422 49.172 49.14 49.04 49.11 49.242 49.29 49.095 48.905 48.867 48.85 48.85 48.872 48.84 48.822 48.795 48.82 48.807 48.785 48.73 48.582 48.742 48.477 47.985 47.42 47.232 47.267 47.225 47.265 47.31 47.55 47.942 48.185 48.217 48.159 48.149 48.124 48.097 48.057 48.054 48.117 47.964 47.822 47.709 47.647 47.552 47.564 47.594 47.497 47.427 47.382 47.314 47.292 47.259 47.232 47.189 47.154 47.152 47.164 47.184 47.162 47.104 47.072 47.074 47.102 47.044 46.939 46.874 46.824 46.862 46.824 46.797 46.717 46.617 46.524 46.382 46.249 46.212 46.059 45.999 45.897 45.844 45.739 45.632 45.582 45.507 45.472 45.459 45.524 45.682 45.539 45.147 44.827 44.714 44.872 45.074 45.019 45.014 44.957 44.872 44.807 44.714 44.557 44.502 44.447 44.302 44.192 44.112 44.017 43.967 43.879 43.832 43.762 43.717 43.682 43.614 43.527 43.489 43.447 43.402 43.364 43.374 43.419 43.377 43.342 43.254 43.239 43.222 43.204 43.244 43.242 43.219 43.214 43.159 43.162 43.102 43.094 43.064 43.054 42.994 42.899 42.852 42.817 42.732 42.674 42.572 42.547 42.474 42.427 42.369 42.334 42.219 42.124 42.027 41.869 41.574 41.339 41.142 40.949 40.989 41.272 41.512 41.542 41.624 41.622 41.554 41.404 41.297 41.192 41.202 41.267 41.127 40.969 40.944 41.009 41.057 41.102 41.132 41.187 41.232 41.272 41.287 41.279 41.274 41.329 41.372 41.379 41.407 41.467 41.444 41.492 41.497 41.484 41.542 41.527 41.517 41.527 41.489 41.462 41.432 41.429 41.377 41.372 41.319 41.269 41.199 41.109 41.062 41.009 40.947 40.822 40.789 40.737 40.692 40.647 40.552 40.454 40.387 40.327 40.254 40.177 40.099 40.067 40.172 40.192 40.149 40.057 39.974 39.977 39.989 40.002 40.019 39.997 39.949 39.929 39.882 39.839 39.824 39.809 39.777 39.794 39.772 39.724 39.654 39.642 39.594 39.564 39.557 39.519 39.482 39.437 39.439 39.404 39.377 39.329 39.304 39.322 39.262 39.242 39.214 39.189 39.164 39.087 39.059 39.022 38.987 38.934 38.877 38.817 38.767 38.704 38.634 38.569 38.499 38.409 38.327 38.244 38.149 38.082 38.022 37.952 37.844 37.754 37.669 37.589 37.502 37.419 37.339 37.214 37.114 37.027 36.937 36.829 36.717 36.639 36.547 36.434 36.319 36.192 36.082 35.974 35.869 35.729 35.599 35.482 35.357 35.282 35.169 35.049 34.952 34.837 34.749 34.672 34.622 34.564 34.447 34.414 34.339 34.284 34.199 34.104 33.987 33.944 33.839 33.719 33.589 33.509 33.427 33.382 33.317 33.262 33.212 33.182 33.147 33.149 33.139 33.092 33.097 33.054 33.019 32.947 32.912
48.222 48.312 48.387 48.39 48.525 48.787 48.85 48.772 48.77 48.877 49.065 49.045 49.03 48.985 49.01 48.977 48.97 48.86 48.86 48.86 48.805 48.83 48.9 48.925 48.835 48.895 49.127 49.265 49.297 49.297 49.32 49.365 49.33 49.345 49.322 49.27 49.257 49.28 49.277 49.277 49.32 49.08 48.935 48.85 48.902 48.87 48.91 48.977 49.045 49.025 49.08 49.15 49.1 49.092 49.135 49.165 49.172 49.19 49.245 49.222 49.215 49.27 49.327 49.347 49.317 49.277 49.28 49.307 49.277 49.312 49.49 49.532 49.422 49.39 49.502 49.635 49.66 49.65 49.555 49.525 49.422 49.367 49.367 49.367 49.5 49.66 49.685 49.602 49.51 49.47 49.56 49.262 49.152 49.02 48.957 48.967 48.985 49.072 49.022 48.927 48.86 48.827 48.812 48.855 48.817 48.765 48.767 48.807 48.805 48.835 48.785 48.51 48.065 47.945 47.585 47.265 47.212 47.247 47.26 47.23 47.252 47.305 47.64 48.125 48.179 48.109 48.079 48.059 48.039 47.994 47.954 48.064 48.012 47.859 47.717 47.672 47.534 47.489 47.624 47.542 47.454 47.339 47.279 47.287 47.247 47.152 47.137 47.114 47.097 47.154 47.302 47.249 47.109 47.062 46.984 46.979 46.919 46.839 46.802 46.739 46.729 46.699 46.682 46.614 46.539 46.452 46.339 46.209 46.112 45.982 45.914 45.832 45.792 45.719 45.599 45.519 45.487 45.459 45.469 45.494 45.557 45.499 45.282 44.967 44.684 44.629 44.924 44.929 44.992 44.949 44.804 44.714 44.637 44.524 44.382 44.329 44.197 44.094 44.022 44.007 43.922 43.862 43.762 43.662 43.689 43.659 43.589 43.549 43.474 43.392 43.354 43.309 43.304 43.327 43.319 43.254 43.202 43.194 43.209 43.204 43.209 43.227 43.182 43.129 43.137 43.089 43.107 43.087 43.032 43.002 42.939 42.857 42.789 42.752 42.667 42.579 42.492 42.469 42.407 42.364 42.302 42.234 42.164 42.084 41.942 41.639 41.377 41.222 40.982 41.027 41.167 41.404 41.542 41.619 41.682 41.554 41.404 41.249 41.124 41.077 41.107 41.009 40.949 40.834 40.869 40.942 40.964 40.977 41.034 41.057 41.092 41.094 41.114 41.094 41.114 41.154 41.209 41.277 41.322 41.352 41.374 41.404 41.437 41.434 41.442 41.447 41.417 41.449 41.427 41.404 41.384 41.364 41.309 41.262 41.217 41.172 41.159 41.037 40.992 40.942 40.872 40.802 40.769 40.657 40.592 40.559 40.509 40.444 40.362 40.269 40.239 40.167 40.122 40.022 39.977 40.042 40.089 40.064 40.012 39.907 39.882 39.884 39.882 39.919 39.897 39.884 39.847 39.799 39.764 39.754 39.724 39.724 39.727 39.737 39.614 39.589 39.567 39.517 39.507 39.469 39.444 39.412 39.382 39.319 39.322 39.287 39.277 39.249 39.197 39.172 39.139 39.099 39.139 39.064 39.014 38.954 38.904 38.864 38.842 38.744 38.739 38.682 38.612 38.554 38.477 38.394 38.332 38.217 38.162 38.084 37.994 37.919 37.824 37.737 37.634 37.574 37.469 37.419 37.304 37.197 37.112 36.992 36.899 36.832 36.682 36.599 36.497 36.427 36.287 36.202 36.029 35.944 35.844 35.719 35.584 35.469 35.359 35.247 35.137 35.014 34.952 34.857 34.772 34.677 34.609 34.512 34.434 34.367 34.339 34.267 34.184 34.117 33.992 33.917 33.819 33.719 33.607 33.519 33.457 33.382 33.344 33.254 33.194 33.162 33.134 33.157 33.139 33.127 33.104 33.064 33.057 32.972 32.919
48.27 48.292 48.37 48.4 48.47 48.677 48.795 48.787 48.757 48.855 49.037 49.155 49.05 49.002 49.035 49.002 48.94 48.875 48.867 48.865 48.847 48.9 48.932 48.95 48.88 48.832 49.037 49.21 49.33 49.307 49.32 49.355 49.317 49.315 49.352 49.312 49.222 49.245 49.262 49.29 49.282 49.115 48.937 48.815 48.82 48.83 48.887 48.917 48.94 48.962 48.972 49.052 49.082 49.08 49.135 49.115 49.16 49.172 49.182 49.222 49.315 49.407 49.465 49.467 49.477 49.345 49.327 49.28 49.247 49.3 49.367 49.42 49.387 49.36 49.495 49.585 49.587 49.557 49.48 49.377 49.272 49.22 49.207 49.222 49.24 49.29 49.425 49.407 49.36 49.292 49.21 49.105 49.025 48.93 48.852 48.81 48.902 49 48.942 48.922 48.84 48.79 48.785 48.787 48.8 48.792 48.767 48.78 48.865 48.92 48.892 48.532 47.62 47.35 47.282 47.257 47.23 47.232 47.267 47.262 47.285 47.245 47.307 47.725 48.122 48.104 47.997 47.967 47.954 47.954 47.972 48.072 48.087 47.882 47.694 47.649 47.602 47.537 47.502 47.434 47.352 47.332 47.242 47.224 47.159 47.122 47.099 47.087 47.079 47.267 47.284 47.187 47.117 47.039 46.949 46.864 46.797 46.777 46.739 46.642 46.632 46.587 46.572 46.547 46.434 46.357 46.267 46.154 46.052 45.954 45.847 45.757 45.759 45.654 45.617 45.557 45.502 45.447 45.554 45.684 45.639 45.387 45.324 45.297 44.834 44.574 44.582 44.744 44.902 44.894 44.697 44.617 44.544 44.417 44.294 44.199 44.109 44.087 44.027 43.982 43.864 43.789 43.729 43.682 43.649 43.587 43.617 43.612 43.502 43.439 43.352 43.299 43.297 43.287 43.239 43.182 43.199 43.197 43.184 43.179 43.157 43.152 43.139 43.134 43.107 43.074 43.089 43.034 42.982 42.937 42.879 42.839 42.762 42.674 42.599 42.484 42.424 42.374 42.267 42.254 42.199 42.129 42.072 41.997 41.739 41.469 41.112 41.099 41.169 41.297 41.422 41.532 41.614 41.682 41.589 41.427 41.239 41.117 41.037 41.012 41.062 40.939 40.749 40.769 40.809 40.827 40.859 40.904 40.917 40.952 40.964 40.894 40.884 40.929 40.992 41.039 41.074 41.139 41.204 41.257 41.289 41.304 41.347 41.414 41.347 41.364 41.382 41.357 41.332 41.324 41.282 41.292 41.254 41.194 41.157 41.077 41.072 40.974 40.917 40.884 40.822 40.767 40.724 40.644 40.527 40.502 40.484 40.427 40.359 40.267 40.199 40.147 40.127 40.067 39.989 39.887 39.937 39.994 40.007 39.974 39.924 39.822 39.799 39.814 39.849 39.827 39.807 39.764 39.739 39.694 39.664 39.642 39.644 39.634 39.624 39.622 39.534 39.469 39.437 39.419 39.374 39.322 39.339 39.307 39.277 39.259 39.262 39.182 39.154 39.104 39.114 39.072 39.057 39.019 38.984 38.922 38.864 38.812 38.792 38.747 38.714 38.602 38.574 38.509 38.437 38.354 38.287 38.207 38.114 38.064 37.957 37.872 37.752 37.702 37.622 37.517 37.419 37.377 37.284 37.162 37.059 36.987 36.894 36.782 36.652 36.552 36.467 36.392 36.262 36.162 36.032 35.932 35.774 35.677 35.587 35.442 35.329 35.244 35.102 35.022 34.909 34.839 34.759 34.662 34.604 34.497 34.487 34.389 34.312 34.234 34.174 34.119 34.019 33.924 33.817 33.704 33.642 33.542 33.469 33.382 33.339 33.269 33.194 33.122 33.142 33.174 33.159 33.137 33.097 33.049 33.059 33.014 32.937
48.275 48.285 48.335 48.372 48.432 48.61 48.76 48.805 48.697 48.757 48.877 49.062 48.985 48.915 48.982 49.02 48.935 48.895 48.96 48.902 48.882 48.857 48.842 48.83 48.84 48.835 48.932 49.14 49.335 49.317 49.285 49.31 49.292 49.265 49.327 49.357 49.202 49.21 49.24 49.17 49.115 49.07 48.942 48.81 48.78 48.827 48.855 48.87 48.907 48.947 48.987 49.015 49.082 49.072 49.09 49.09 49.122 49.137 49.145 49.33 49.457 49.487 49.522 49.562 49.582 49.475 49.395 49.25 49.227 49.26 49.33 49.425 49.37 49.337 49.482 49.492 49.492 49.415 49.3 49.232 49.172 49.115 49.087 49.105 49.157 49.187 49.23 49.195 49.125 49.067 49.022 48.962 48.875 48.787 48.752 48.712 48.712 48.875 48.835 48.802 48.805 48.767 48.732 48.752 48.75 48.77 48.732 48.797 48.912 48.825 48.435 47.982 47.467 47.277 47.257 47.24 47.237 47.25 47.255 47.28 47.262 47.262 47.267 47.39 47.787 48.077 47.979 47.882 47.892 47.959 47.972 48.014 47.927 47.687 47.612 47.614 47.514 47.504 47.474 47.399 47.384 47.274 47.209 47.149 47.087 47.072 47.044 47.099 47.242 47.294 47.227 47.177 47.124 46.989 46.907 46.849 46.774 46.692 46.642 46.567 46.499 46.497 46.477 46.437 46.357 46.259 46.177 46.079 46.012 45.934 45.869 45.774 45.679 45.597 45.599 45.542 45.484 45.419 45.469 45.642 45.532 45.267 45.142 45.162 44.927 44.644 44.457 44.489 44.674 44.752 44.589 44.549 44.427 44.324 44.272 44.212 44.129 44.069 43.982 43.922 43.847 43.792 43.739 43.667 43.642 43.592 43.609 43.557 43.477 43.467 43.384 43.304 43.287 43.272 43.222 43.174 43.162 43.207 43.154 43.134 43.092 43.104 43.054 43.082 43.119 43.054 43.004 43.009 42.947 42.897 42.857 42.782 42.704 42.587 42.524 42.449 42.367 42.304 42.242 42.184 42.107 42.114 42.039 41.819 41.582 41.372 40.964 41.207 41.609 41.527 41.539 41.637 41.664 41.582 41.394 41.197 41.002 40.957 40.939 40.897 40.794 40.709 40.644 40.707 40.754 40.737 40.752 40.802 40.817 40.799 40.812 40.779 40.757 40.824 40.847 40.912 40.984 41.022 41.087 41.109 41.202 41.239 41.249 41.259 41.282 41.294 41.282 41.247 41.242 41.212 41.249 41.187 41.127 41.072 41.052 41.022 40.962 40.897 40.857 40.812 40.744 40.679 40.624 40.567 40.509 40.452 40.407 40.364 40.312 40.259 40.187 40.149 40.064 40.002 39.979 39.929 39.852 39.797 39.869 39.949 39.892 39.777 39.762 39.714 39.722 39.732 39.719 39.714 39.692 39.649 39.632 39.587 39.574 39.554 39.554 39.564 39.522 39.459 39.404 39.367 39.359 39.307 39.272 39.249 39.234 39.199 39.182 39.099 39.094 39.077 39.052 39.022 38.997 38.914 38.937 38.879 38.842 38.744 38.714 38.687 38.664 38.589 38.544 38.489 38.397 38.327 38.222 38.174 38.104 38.012 37.934 37.814 37.739 37.692 37.637 37.479 37.412 37.347 37.219 37.132 37.052 36.957 36.882 36.749 36.627 36.539 36.437 36.319 36.224 36.124 36.019 35.904 35.799 35.672 35.539 35.409 35.329 35.219 35.099 35.017 34.907 34.804 34.737 34.647 34.572 34.499 34.439 34.387 34.309 34.232 34.174 34.099 34.014 33.887 33.817 33.717 33.637 33.519 33.457 33.414 33.344 33.262 33.227 33.162 33.127 33.152 33.132 33.149 33.107 33.074 33.052 33.027 32.944
48.267 48.327 48.332 48.367 48.452 48.565 48.705 48.8 48.785 48.735 48.852 48.975 48.932 48.902 48.925 48.962 48.92 48.865 48.977 49.005 48.977 48.945 48.907 48.87 48.83 48.782 48.8 49.065 49.347 49.322 49.277 49.27 49.25 49.23 49.252 49.207 49.152 49.132 49.07 49.032 49.027 48.992 48.895 48.762 48.76 48.807 48.85 48.86 48.875 48.935 49 49.01 49.05 49.02 49.07 49.055 49.11 49.237 49.405 49.512 49.55 49.552 49.57 49.607 49.622 49.622 49.507 49.325 49.195 49.252 49.185 49.31 49.35 49.305 49.327 49.37 49.335 49.25 49.177 49.087 49.067 49.03 48.975 48.912 48.965 49.05 49.05 48.982 48.97 48.922 48.832 48.795 48.722 48.642 48.622 48.61 48.575 48.692 48.74 48.785 48.77 48.757 48.75 48.702 48.692 48.727 48.762 48.83 48.792 48.582 48.02 47.797 47.615 47.282 47.242 47.247 47.255 47.252 47.26 47.29 47.247 47.262 47.25 47.28 47.384 47.787 47.989 47.844 47.779 47.844 47.907 47.914 47.847 47.729 47.689 47.632 47.519 47.509 47.409 47.304 47.282 47.189 47.139 47.077 47.059 47.012 47.044 47.159 47.279 47.179 47.074 46.992 46.952 46.852 46.834 46.809 46.737 46.627 46.499 46.419 46.404 46.354 46.362 46.347 46.294 46.197 46.112 46.042 45.982 45.852 45.832 45.734 45.642 45.614 45.567 45.544 45.447 45.379 45.277 45.269 45.177 45.132 45.029 44.919 44.762 44.652 44.517 44.442 44.474 44.569 44.599 44.442 44.387 44.287 44.224 44.189 44.157 44.097 43.982 43.904 43.869 43.792 43.719 43.684 43.672 43.597 43.564 43.499 43.487 43.457 43.384 43.349 43.314 43.239 43.194 43.187 43.157 43.154 43.152 43.109 43.074 43.107 43.047 43.039 43.099 43.044 42.979 42.922 42.852 42.814 42.764 42.712 42.612 42.539 42.449 42.387 42.322 42.269 42.242 42.154 42.109 42.027 41.812 41.574 41.417 41.219 41.172 41.537 41.617 41.554 41.644 41.654 41.579 41.352 41.137 40.942 40.894 40.879 40.864 40.772 40.657 40.612 40.632 40.664 40.692 40.684 40.709 40.707 40.699 40.659 40.669 40.649 40.634 40.667 40.712 40.794 40.837 40.892 40.942 40.979 41.069 41.122 41.162 41.199 41.179 41.224 41.219 41.214 41.189 41.147 41.147 41.104 41.042 41.017 40.979 40.959 40.857 40.844 40.814 40.754 40.692 40.652 40.534 40.509 40.447 40.414 40.354 40.272 40.222 40.202 40.167 40.139 40.062 39.982 39.947 39.929 39.867 39.787 39.727 39.719 39.804 39.769 39.739 39.707 39.647 39.657 39.652 39.654 39.627 39.649 39.637 39.572 39.519 39.519 39.484 39.467 39.439 39.444 39.414 39.344 39.317 39.287 39.254 39.209 39.164 39.122 39.107 39.064 39.019 39.002 38.979 38.937 38.919 38.904 38.867 38.814 38.792 38.757 38.707 38.634 38.602 38.557 38.479 38.434 38.367 38.292 38.182 38.117 38.057 37.977 37.904 37.814 37.742 37.669 37.547 37.489 37.399 37.299 37.204 37.097 37.019 36.899 36.807 36.689 36.599 36.507 36.409 36.329 36.194 36.067 35.999 35.909 35.779 35.664 35.544 35.454 35.317 35.182 35.132 35.034 34.937 34.799 34.732 34.642 34.577 34.479 34.429 34.354 34.309 34.219 34.157 34.102 34.027 33.934 33.802 33.714 33.602 33.547 33.487 33.419 33.367 33.282 33.232 33.197 33.169 33.177 33.132 33.149 33.149 33.097 33.062 33.014 32.954
48.237 48.34 48.355 48.357 48.47 48.517 48.635 48.82 48.815 48.765 48.787 48.87 48.897 48.892 48.947 48.97 48.947 48.845 48.957 49.045 49 48.955 48.912 48.87 48.83 48.8 48.782 49.032 49.335 49.32 49.275 49.247 49.197 49.132 49.11 49.06 49.085 49.02 48.98 48.922 48.96 48.947 48.805 48.755 48.782 48.825 48.887 48.902 48.91 48.94 48.972 48.977 48.967 49.04 49.135 49.165 49.25 49.392 49.53 49.542 49.552 49.597 49.61 49.622 49.565 49.555 49.492 49.342 49.222 49.21 49.162 49.21 49.4 49.297 49.227 49.242 49.19 49.115 49.057 48.95 48.925 48.895 48.882 48.757 48.687 48.745 48.84 48.787 48.752 48.72 48.675 48.615 48.545 48.485 48.472 48.467 48.447 48.47 48.762 48.842 48.682 48.687 48.692 48.6 48.5 48.62 48.712 48.65 48.497 48.47 48.067 48.202 47.815 47.422 47.267 47.26 47.287 47.252 47.255 47.28 47.262 47.267 47.252 47.255 47.262 47.427 47.869 47.877 47.747 47.687 47.772 47.882 47.789 47.689 47.742 47.659 47.547 47.502 47.357 47.259 47.224 47.137 47.114 47.082 47.062 47.059 47.079 47.144 47.204 47.184 47.074 46.942 46.889 46.787 46.749 46.772 46.657 46.532 46.427 46.334 46.302 46.284 46.247 46.229 46.209 46.144 46.079 45.977 45.912 45.867 45.747 45.679 45.697 45.684 45.629 45.554 45.437 45.359 45.262 45.199 45.134 45.087 45.034 44.977 44.872 44.759 44.644 44.444 44.339 44.424 44.409 44.349 44.379 44.274 44.219 44.219 44.192 44.087 44.029 43.947 43.849 43.787 43.742 43.677 43.659 43.617 43.559 43.469 43.437 43.427 43.417 43.374 43.302 43.219 43.167 43.169 43.154 43.157 43.154 43.099 43.087 43.067 43.019 43.042 42.984 42.969 42.947 42.852 42.754 42.749 42.714 42.629 42.577 42.512 42.424 42.409 42.354 42.269 42.232 42.142 42.097 41.902 41.607 41.327 41.159 41.067 41.362 41.609 41.572 41.617 41.714 41.617 41.349 41.074 40.929 40.867 40.857 40.827 40.719 40.662 40.547 40.544 40.597 40.634 40.589 40.617 40.627 40.642 40.582 40.527 40.502 40.504 40.547 40.579 40.632 40.662 40.702 40.747 40.812 40.899 40.922 41.022 41.057 41.109 41.102 41.104 41.104 41.124 41.112 41.079 41.044 41.029 40.974 40.952 40.917 40.872 40.824 40.764 40.724 40.679 40.634 40.584 40.519 40.467 40.409 40.367 40.277 40.212 40.139 40.177 40.157 40.114 40.072 40.017 39.942 39.864 39.852 39.797 39.747 39.652 39.634 39.647 39.734 39.719 39.689 39.577 39.572 39.567 39.567 39.582 39.574 39.557 39.497 39.449 39.427 39.429 39.402 39.357 39.344 39.317 39.289 39.222 39.219 39.172 39.109 39.044 39.019 39.027 38.977 38.959 38.912 38.889 38.854 38.844 38.812 38.757 38.712 38.707 38.652 38.592 38.554 38.492 38.429 38.377 38.317 38.242 38.192 38.104 38.022 37.969 37.874 37.802 37.714 37.594 37.477 37.434 37.364 37.252 37.144 37.077 36.969 36.859 36.794 36.692 36.589 36.504 36.384 36.292 36.194 36.064 35.942 35.877 35.749 35.659 35.542 35.439 35.284 35.174 35.129 35.039 34.902 34.814 34.684 34.624 34.554 34.487 34.397 34.357 34.299 34.222 34.154 34.097 33.989 33.919 33.834 33.744 33.612 33.547 33.479 33.419 33.342 33.284 33.244 33.194 33.167 33.167 33.097 33.122 33.099 33.069 33.042 33.022 32.939
48.285 48.335 48.402 48.432 48.47 48.527 48.637 48.802 48.922 48.717 48.68 48.727 48.782 48.815 48.865 48.885 48.88 48.815 48.855 48.932 48.89 48.862 48.845 48.825 48.79 48.782 48.777 48.812 49.197 49.187 49.165 49.105 49.055 49.017 48.97 48.917 48.902 48.927 48.857 48.867 48.882 48.79 48.747 48.775 48.82 48.842 48.865 48.882 48.91 48.917 48.932 48.94 48.972 49.09 49.21 49.232 49.287 49.432 49.54 49.6 49.57 49.592 49.647 49.61 49.565 49.547 49.527 49.432 49.245 49.195 49.185 49.162 49.29 49.252 49.2 49.137 49.152 49.07 49.017 48.935 48.857 48.795 48.765 48.682 48.58 48.517 48.62 48.637 48.585 48.532 48.505 48.44 48.375 48.355 48.347 48.225 48.067 47.96 48.597 48.837 48.592 48.595 48.625 48.49 48.202 48.22 48.36 48.157 48.122 48.422 48.495 48.382 47.952 47.627 47.397 47.262 47.29 47.305 47.26 47.275 47.275 47.272 47.277 47.257 47.289 47.319 47.532 47.882 47.787 47.672 47.609 47.704 47.714 47.772 47.767 47.697 47.624 47.482 47.387 47.304 47.207 47.119 47.074 47.034 47.072 47.064 47.102 47.169 47.209 47.164 47.022 46.904 46.799 46.692 46.674 46.659 46.574 46.449 46.377 46.297 46.249 46.177 46.187 46.149 46.134 46.097 46.034 45.932 45.834 45.789 45.739 45.679 45.704 45.679 45.644 45.562 45.474 45.382 45.262 45.194 45.144 45.054 45.009 45.007 44.984 44.897 44.727 44.569 44.369 44.252 44.284 44.379 44.439 44.294 44.219 44.244 44.172 44.087 44.044 43.942 43.864 43.787 43.712 43.677 43.644 43.619 43.554 43.489 43.447 43.409 43.362 43.362 43.302 43.209 43.139 43.129 43.117 43.127 43.119 43.077 43.047 43.014 43.007 42.977 42.922 42.922 42.904 42.779 42.692 42.682 42.652 42.609 42.557 42.519 42.464 42.422 42.329 42.244 42.202 42.137 41.952 41.707 41.422 41.082 41.072 41.297 41.484 41.614 41.647 41.674 41.612 41.377 41.034 40.854 40.829 40.842 40.822 40.782 40.662 40.524 40.482 40.542 40.547 40.524 40.534 40.554 40.507 40.509 40.507 40.417 40.379 40.412 40.454 40.489 40.532 40.524 40.599 40.662 40.699 40.754 40.792 40.859 40.912 41.002 41.039 41.084 41.057 41.039 41.024 40.999 40.967 40.937 40.924 40.872 40.857 40.814 40.759 40.704 40.654 40.617 40.589 40.527 40.467 40.434 40.389 40.307 40.279 40.199 40.209 40.194 40.117 40.069 40.052 39.987 39.932 39.859 39.809 39.799 39.724 39.677 39.579 39.529 39.572 39.682 39.674 39.532 39.529 39.497 39.494 39.484 39.512 39.512 39.454 39.429 39.402 39.374 39.342 39.309 39.302 39.317 39.282 39.209 39.142 39.124 39.094 39.032 38.989 38.974 38.947 38.924 38.882 38.854 38.809 38.787 38.764 38.717 38.664 38.637 38.587 38.527 38.484 38.437 38.369 38.317 38.252 38.164 38.114 38.057 37.974 37.904 37.829 37.747 37.677 37.574 37.504 37.392 37.282 37.209 37.112 37.067 36.979 36.869 36.774 36.694 36.579 36.499 36.379 36.272 36.167 36.042 35.927 35.839 35.737 35.637 35.512 35.409 35.287 35.187 35.092 34.984 34.877 34.792 34.707 34.612 34.564 34.479 34.432 34.357 34.274 34.219 34.147 34.062 33.959 33.907 33.824 33.739 33.639 33.557 33.462 33.414 33.334 33.262 33.237 33.189 33.169 33.149 33.122 33.152 33.074 33.062 33.029 33.022 32.927
48.43 48.405 48.457 48.495 48.535 48.525 48.61 48.792 48.847 48.627 48.59 48.627 48.635 48.652 48.727 48.75 48.775 48.72 48.712 48.875 48.882 48.867 48.83 48.79 48.76 48.757 48.755 48.755 48.91 49.087 49.05 48.977 48.955 48.975 48.9 48.822 48.812 48.84 48.81 48.775 48.847 48.775 48.722 48.825 48.82 48.82 48.835 48.862 48.882 48.905 48.967 49.04 49.125 49.222 49.395 49.395 49.337 49.385 49.54 49.66 49.647 49.62 49.582 49.53 49.56 49.545 49.537 49.447 49.302 49.16 49.14 49.14 49.145 49.207 49.18 49.095 49.055 49.032 48.925 48.862 48.797 48.702 48.61 48.572 48.52 48.427 48.402 48.43 48.39 48.347 48.322 48.282 48.25 48.225 48.135 47.717 47.837 48.062 48.495 48.6 48.52 48.515 48.56 48.36 48.02 47.875 47.867 47.697 47.997 48.347 48.567 48.485 48.115 47.855 47.62 47.292 47.262 47.25 47.257 47.277 47.277 47.277 47.252 47.247 47.262 47.264 47.344 47.594 47.734 47.649 47.552 47.602 47.612 47.677 47.729 47.684 47.642 47.514 47.362 47.292 47.189 47.107 47.064 47.014 47.034 47.059 47.127 47.094 47.099 47.084 46.904 46.769 46.689 46.602 46.604 46.564 46.517 46.399 46.317 46.237 46.202 46.164 46.117 46.062 45.994 45.949 45.934 45.889 45.789 45.747 45.747 45.744 45.722 45.672 45.667 45.607 45.499 45.382 45.289 45.237 45.139 45.069 44.997 44.994 44.994 44.967 44.877 44.714 44.472 44.222 44.199 44.212 44.352 44.352 44.224 44.197 44.072 43.984 43.932 43.912 43.924 43.807 43.777 43.699 43.667 43.607 43.522 43.507 43.444 43.384 43.322 43.347 43.332 43.279 43.159 43.099 43.069 43.084 43.064 43.027 43.019 43.017 42.969 42.924 42.927 42.859 42.792 42.719 42.679 42.619 42.574 42.569 42.554 42.539 42.527 42.437 42.329 42.214 42.112 42.019 41.759 41.507 41.297 41.057 41.254 41.494 41.599 41.637 41.677 41.624 41.432 41.127 40.887 40.864 40.834 40.799 40.784 40.664 40.544 40.424 40.454 40.512 40.492 40.479 40.507 40.504 40.464 40.424 40.407 40.369 40.337 40.339 40.362 40.382 40.407 40.434 40.492 40.564 40.597 40.652 40.689 40.739 40.747 40.834 40.927 40.952 40.994 40.959 40.944 40.947 40.902 40.899 40.887 40.832 40.804 40.759 40.714 40.684 40.634 40.549 40.524 40.452 40.432 40.364 40.352 40.304 40.237 40.162 40.152 40.147 40.072 40.012 39.967 39.927 39.912 39.877 39.799 39.764 39.684 39.647 39.589 39.534 39.459 39.477 39.562 39.572 39.582 39.527 39.457 39.399 39.434 39.454 39.424 39.402 39.384 39.324 39.312 39.257 39.247 39.232 39.207 39.202 39.142 39.072 39.042 39.014 38.954 38.929 38.899 38.869 38.802 38.782 38.754 38.724 38.669 38.604 38.552 38.557 38.524 38.459 38.414 38.344 38.317 38.232 38.157 38.099 38.052 38.009 37.937 37.869 37.792 37.707 37.637 37.522 37.449 37.357 37.267 37.177 37.107 37.022 36.937 36.802 36.729 36.639 36.549 36.439 36.324 36.249 36.119 36.042 35.927 35.839 35.707 35.609 35.477 35.382 35.264 35.174 35.112 34.984 34.854 34.759 34.677 34.592 34.504 34.447 34.397 34.347 34.282 34.204 34.107 34.062 33.979 33.864 33.812 33.707 33.609 33.507 33.469 33.397 33.332 33.257 33.212 33.187 33.147 33.147 33.124 33.079 33.067 33.054 33.034 33.002 32.897
48.587 48.607 48.535 48.567 48.59 48.6 48.572 48.67 48.645 48.595 48.63 48.635 48.595 48.61 48.625 48.715 48.767 48.737 48.705 48.842 48.867 48.82 48.782 48.747 48.737 48.767 48.747 48.735 48.815 48.975 48.977 48.93 48.855 48.86 48.817 48.807 48.74 48.755 48.732 48.73 48.747 48.735 48.745 48.795 48.8 48.805 48.83 48.857 48.875 48.952 49.147 49.302 49.3 49.335 49.47 49.51 49.487 49.455 49.477 49.645 49.72 49.66 49.582 49.507 49.512 49.52 49.505 49.397 49.265 49.22 49.137 49.1 49.102 49.2 49.15 49.092 48.977 49.04 48.885 48.785 48.735 48.607 48.477 48.412 48.435 48.392 48.352 48.272 48.157 48.155 48.137 48.117 48.087 47.97 47.632 47.895 48.285 48.407 48.415 48.375 48.435 48.47 48.477 48.23 47.89 47.62 47.695 48.015 48.197 48.35 48.355 48.422 48.3 48.162 47.92 47.585 47.297 47.275 47.262 47.247 47.235 47.257 47.26 47.272 47.279 47.277 47.277 47.314 47.569 47.617 47.509 47.447 47.454 47.547 47.604 47.657 47.592 47.474 47.354 47.297 47.222 47.132 47.069 47.027 46.999 47.047 47.079 47.042 46.964 46.879 46.739 46.667 46.607 46.514 46.512 46.492 46.407 46.334 46.277 46.209 46.147 46.127 46.087 45.982 45.914 45.869 45.844 45.794 45.764 45.699 45.704 45.659 45.687 45.634 45.624 45.619 45.492 45.387 45.302 45.184 45.162 45.099 44.987 44.932 44.897 44.882 44.962 44.802 44.532 44.379 44.192 44.092 44.172 44.322 44.247 44.152 44.052 43.904 43.864 43.874 43.869 43.847 43.767 43.712 43.639 43.579 43.537 43.509 43.474 43.374 43.342 43.312 43.334 43.282 43.167 43.099 43.057 43.057 43.027 42.962 42.969 42.942 42.927 42.884 42.859 42.817 42.764 42.689 42.654 42.614 42.562 42.574 42.514 42.534 42.457 42.307 42.244 42.162 42.024 41.884 41.549 41.272 41.152 41.487 41.662 41.629 41.644 41.722 41.662 41.442 41.209 40.927 40.867 40.899 40.844 40.774 40.712 40.544 40.457 40.374 40.417 40.459 40.437 40.429 40.419 40.409 40.397 40.364 40.312 40.292 40.284 40.279 40.259 40.289 40.357 40.364 40.414 40.477 40.527 40.534 40.584 40.647 40.662 40.704 40.769 40.842 40.887 40.884 40.889 40.867 40.869 40.842 40.827 40.764 40.749 40.709 40.664 40.637 40.562 40.522 40.477 40.427 40.372 40.344 40.294 40.249 40.204 40.154 40.122 40.092 40.022 40.039 39.962 39.884 39.857 39.849 39.794 39.764 39.694 39.604 39.564 39.522 39.477 39.397 39.362 39.424 39.499 39.449 39.437 39.382 39.357 39.369 39.349 39.349 39.342 39.307 39.262 39.189 39.179 39.152 39.114 39.097 39.089 39.024 39.049 38.959 38.867 38.862 38.867 38.829 38.774 38.744 38.682 38.662 38.639 38.584 38.532 38.524 38.449 38.384 38.377 38.317 38.264 38.197 38.134 38.052 38.007 37.949 37.857 37.797 37.684 37.632 37.579 37.502 37.427 37.339 37.254 37.122 37.042 36.992 36.909 36.802 36.712 36.609 36.507 36.417 36.332 36.224 36.127 36.019 35.892 35.774 35.694 35.544 35.484 35.377 35.284 35.194 35.082 34.967 34.874 34.787 34.679 34.589 34.522 34.464 34.382 34.322 34.249 34.194 34.102 34.022 33.949 33.862 33.762 33.707 33.622 33.504 33.474 33.364 33.287 33.274 33.217 33.147 33.144 33.139 33.122 33.104 33.069 33.052 32.992 32.962 32.844
48.6 48.54 48.527 48.547 48.555 48.57 48.622 48.59 48.597 48.63 48.66 48.635 48.605 48.627 48.592 48.62 48.712 48.712 48.7 48.7 48.837 48.825 48.75 48.72 48.76 48.767 48.717 48.705 48.72 48.842 48.872 48.832 48.715 48.717 48.707 48.727 48.73 48.68 48.715 48.73 48.755 48.747 48.735 48.795 48.79 48.862 48.922 48.947 48.96 49.035 49.262 49.472 49.47 49.422 49.49 49.59 49.562 49.54 49.535 49.585 49.692 49.63 49.587 49.537 49.49 49.49 49.38 49.337 49.305 49.215 49.11 49.05 49.06 49.072 49.14 49.16 48.982 48.882 48.775 48.69 48.557 48.507 48.39 48.345 48.337 48.267 48.19 48.147 48.06 47.975 47.935 47.735 47.607 47.705 47.937 48.152 48.252 48.245 48.302 48.34 48.36 48.407 48.37 48.045 47.7 47.61 48.055 48.23 48.255 48.287 48.255 48.212 48.22 48.232 48.22 48.082 47.527 47.285 47.26 47.245 47.275 47.27 47.27 47.282 47.302 47.267 47.279 47.292 47.357 47.439 47.434 47.399 47.407 47.419 47.437 47.547 47.524 47.437 47.367 47.347 47.247 47.187 47.087 47.002 46.934 46.882 46.894 46.817 46.757 46.667 46.604 46.542 46.542 46.487 46.414 46.412 46.349 46.259 46.209 46.142 46.089 46.067 46.039 45.947 45.854 45.804 45.802 45.752 45.719 45.689 45.674 45.644 45.652 45.589 45.564 45.554 45.444 45.337 45.267 45.177 45.132 45.082 44.949 44.907 44.854 44.849 44.879 44.807 44.589 44.374 44.167 44.117 44.044 44.087 44.234 44.104 44.002 43.982 43.904 43.849 43.864 43.824 43.767 43.677 43.634 43.587 43.532 43.482 43.452 43.389 43.372 43.304 43.304 43.237 43.192 43.104 43.044 42.992 42.937 42.914 42.932 42.899 42.882 42.857 42.792 42.784 42.727 42.689 42.604 42.602 42.609 42.534 42.517 42.502 42.402 42.242 42.172 42.142 42.092 41.792 41.277 41.127 41.317 41.552 41.617 41.669 41.689 41.654 41.499 41.347 41.057 40.937 40.897 40.929 40.852 40.682 40.522 40.379 40.359 40.354 40.372 40.382 40.369 40.404 40.392 40.329 40.324 40.242 40.184 40.179 40.222 40.212 40.237 40.227 40.277 40.282 40.307 40.364 40.387 40.427 40.482 40.509 40.559 40.609 40.669 40.702 40.757 40.792 40.779 40.782 40.817 40.774 40.757 40.709 40.634 40.589 40.612 40.599 40.529 40.489 40.464 40.399 40.332 40.292 40.262 40.209 40.162 40.142 40.082 40.009 39.992 39.967 39.932 39.842 39.807 39.804 39.752 39.702 39.694 39.654 39.567 39.512 39.449 39.439 39.362 39.297 39.324 39.369 39.374 39.437 39.367 39.299 39.282 39.274 39.252 39.219 39.209 39.157 39.167 39.097 39.069 39.039 39.012 39.009 39.004 38.967 38.872 38.824 38.797 38.749 38.704 38.677 38.652 38.599 38.557 38.547 38.482 38.422 38.392 38.329 38.324 38.249 38.187 38.119 38.042 37.997 37.929 37.882 37.797 37.769 37.667 37.589 37.489 37.457 37.364 37.284 37.177 37.117 37.022 36.937 36.877 36.787 36.682 36.564 36.457 36.372 36.247 36.199 36.102 35.992 35.879 35.784 35.714 35.572 35.477 35.367 35.279 35.154 35.074 34.939 34.854 34.769 34.689 34.602 34.537 34.437 34.377 34.297 34.229 34.159 34.099 34.034 33.932 33.862 33.759 33.672 33.627 33.524 33.432 33.339 33.299 33.244 33.184 33.122 33.142 33.119 33.104 33.107 33.077 33.019 32.994 32.949 32.874
48.512 48.49 48.51 48.517 48.527 48.537 48.545 48.567 48.662 48.697 48.68 48.65 48.62 48.63 48.592 48.56 48.63 48.655 48.655 48.625 48.777 48.85 48.775 48.707 48.675 48.665 48.655 48.662 48.657 48.707 48.77 48.732 48.68 48.655 48.62 48.627 48.662 48.7 48.697 48.74 48.735 48.725 48.705 48.762 48.847 48.977 49.055 49.117 49.11 49.157 49.402 49.5 49.54 49.547 49.53 49.642 49.652 49.62 49.567 49.54 49.602 49.575 49.59 49.515 49.447 49.387 49.32 49.29 49.23 49.187 49.082 49.02 49.022 48.982 49.05 49.102 48.995 48.817 48.62 48.58 48.465 48.43 48.367 48.332 48.227 48.112 48.045 48.057 47.91 47.795 47.707 47.522 47.645 47.942 47.985 48.047 48.082 48.102 48.185 48.26 48.315 48.34 48.287 48.002 47.757 47.895 48.19 48.27 48.242 48.207 48.212 48.205 48.215 48.24 48.21 48.195 47.975 47.482 47.247 47.27 47.237 47.275 47.272 47.265 47.262 47.227 47.259 47.289 47.422 47.419 47.379 47.339 47.307 47.274 47.317 47.364 47.362 47.389 47.357 47.319 47.292 47.192 47.082 46.969 46.864 46.817 46.747 46.692 46.647 46.562 46.557 46.529 46.467 46.432 46.382 46.349 46.262 46.202 46.147 46.102 46.052 45.964 45.974 45.899 45.857 45.812 45.772 45.729 45.689 45.702 45.717 45.677 45.662 45.619 45.622 45.584 45.359 45.262 45.232 45.189 45.157 45.052 44.962 44.869 44.794 44.782 44.827 44.797 44.567 44.369 44.369 44.347 44.064 43.959 44.039 44.084 44.014 43.917 43.897 43.899 43.817 43.834 43.809 43.737 43.667 43.604 43.559 43.532 43.429 43.362 43.389 43.319 43.267 43.217 43.169 43.107 43.059 42.984 42.922 42.929 42.902 42.859 42.857 42.829 42.744 42.722 42.677 42.647 42.604 42.614 42.612 42.584 42.507 42.464 42.357 42.257 42.167 42.102 42.054 41.492 41.027 41.359 41.624 41.599 41.699 41.719 41.684 41.577 41.487 41.294 41.069 40.949 40.917 40.957 40.774 40.539 40.417 40.312 40.254 40.337 40.342 40.299 40.312 40.304 40.304 40.229 40.224 40.114 40.087 40.127 40.129 40.167 40.189 40.192 40.207 40.224 40.229 40.279 40.304 40.357 40.402 40.449 40.459 40.509 40.552 40.597 40.639 40.647 40.662 40.694 40.699 40.672 40.662 40.642 40.627 40.564 40.552 40.549 40.499 40.439 40.422 40.394 40.324 40.272 40.227 40.182 40.134 40.079 40.052 40.007 39.959 39.937 39.907 39.852 39.782 39.764 39.712 39.662 39.647 39.579 39.562 39.479 39.409 39.389 39.359 39.302 39.249 39.214 39.279 39.367 39.332 39.292 39.254 39.202 39.157 39.187 39.164 39.104 39.079 39.074 38.989 38.962 38.929 38.889 38.919 38.904 38.879 38.809 38.749 38.704 38.657 38.639 38.579 38.542 38.477 38.449 38.392 38.399 38.294 38.252 38.214 38.137 38.099 38.054 38.022 37.934 37.864 37.807 37.769 37.697 37.617 37.527 37.464 37.404 37.284 37.239 37.104 37.069 36.964 36.879 36.809 36.712 36.619 36.517 36.417 36.322 36.269 36.149 36.084 35.964 35.874 35.797 35.677 35.522 35.459 35.364 35.252 35.162 35.034 34.952 34.864 34.742 34.682 34.597 34.489 34.424 34.359 34.264 34.217 34.137 34.074 33.992 33.939 33.859 33.759 33.677 33.604 33.507 33.437 33.344 33.294 33.244 33.164 33.114 33.114 33.087 33.157 33.109 33.049 32.994 32.989 32.967 32.849
48.462 48.475 48.495 48.505 48.52 48.532 48.522 48.565 48.65 48.687 48.677 48.67 48.64 48.635 48.6 48.535 48.555 48.605 48.625 48.595 48.645 48.71 48.707 48.705 48.645 48.625 48.59 48.622 48.622 48.607 48.69 48.682 48.655 48.61 48.622 48.652 48.682 48.697 48.69 48.695 48.717 48.787 48.815 48.757 48.982 49.055 49.192 49.242 49.25 49.275 49.425 49.575 49.605 49.632 49.612 49.632 49.637 49.542 49.56 49.56 49.537 49.592 49.642 49.505 49.405 49.305 49.235 49.217 49.185 49.16 49.102 49.022 48.982 48.94 48.982 49.02 48.91 48.805 48.645 48.522 48.482 48.557 48.447 48.297 48.15 48.012 47.945 47.912 47.68 47.622 47.612 47.677 47.905 47.912 47.875 47.892 47.945 48.007 48.077 48.165 48.205 48.23 48.222 48.182 48.037 48.042 48.185 48.282 48.285 48.192 48.112 48.117 48.142 48.117 48.16 48.137 48.035 47.755 47.332 47.24 47.235 47.272 47.275 47.245 47.264 47.282 47.342 47.404 47.402 47.352 47.329 47.277 47.219 47.169 47.207 47.219 47.329 47.387 47.402 47.309 47.259 47.144 47.024 46.897 46.817 46.794 46.749 46.709 46.632 46.544 46.512 46.457 46.394 46.342 46.344 46.262 46.159 46.094 46.067 46.012 45.954 45.907 45.877 45.884 45.847 45.797 45.749 45.734 45.722 45.667 45.659 45.662 45.692 45.627 45.569 45.507 45.267 45.189 45.172 45.144 45.104 44.992 44.909 44.804 44.777 44.724 44.679 44.674 44.564 44.499 44.429 44.412 44.174 43.964 43.914 44.037 44.114 43.952 43.882 43.867 43.822 43.749 43.702 43.744 43.724 43.632 43.554 43.534 43.462 43.387 43.367 43.327 43.254 43.192 43.142 43.082 43.057 43.007 42.939 42.899 42.852 42.867 42.847 42.794 42.727 42.679 42.667 42.634 42.609 42.587 42.554 42.542 42.469 42.347 42.247 42.209 42.087 42.039 42.029 41.114 41.197 41.489 41.614 41.697 41.749 41.652 41.644 41.624 41.489 41.259 41.089 40.984 40.982 40.917 40.599 40.397 40.402 40.307 40.299 40.294 40.269 40.249 40.274 40.247 40.197 40.174 40.097 40.052 40.054 40.079 40.077 40.089 40.127 40.112 40.169 40.182 40.179 40.229 40.214 40.262 40.319 40.354 40.404 40.412 40.452 40.474 40.529 40.534 40.554 40.584 40.604 40.582 40.597 40.579 40.559 40.549 40.562 40.502 40.454 40.447 40.384 40.324 40.289 40.239 40.199 40.134 40.109 40.059 40.027 39.977 39.939 39.882 39.874 39.787 39.767 39.747 39.682 39.637 39.619 39.527 39.527 39.484 39.389 39.347 39.304 39.282 39.237 39.174 39.107 39.222 39.277 39.364 39.264 39.162 39.109 39.074 39.037 39.014 39.022 39.004 38.947 38.899 38.869 38.837 38.817 38.802 38.819 38.814 38.724 38.644 38.582 38.602 38.552 38.479 38.427 38.399 38.344 38.309 38.227 38.219 38.162 38.082 38.062 37.969 37.924 37.852 37.812 37.764 37.682 37.609 37.567 37.457 37.407 37.307 37.254 37.174 37.084 37.004 36.947 36.869 36.739 36.659 36.567 36.484 36.394 36.304 36.247 36.117 36.057 35.987 35.889 35.752 35.657 35.529 35.482 35.337 35.249 35.147 35.027 34.917 34.839 34.757 34.652 34.574 34.464 34.422 34.319 34.264 34.209 34.122 34.084 34.004 33.942 33.894 33.767 33.669 33.579 33.507 33.434 33.347 33.264 33.262 33.177 33.127 33.112 33.089 33.119 33.079 33.049 33.022 32.972 32.929 32.837
48.39 48.477 48.495 48.505 48.517 48.517 48.527 48.557 48.622 48.702 48.677 48.66 48.655 48.645 48.62 48.517 48.515 48.5 48.565 48.582 48.55 48.642 48.67 48.64 48.582 48.59 48.59 48.552 48.557 48.557 48.58 48.58 48.572 48.602 48.622 48.677 48.675 48.655 48.662 48.692 48.742 48.865 49.05 49.127 49.197 49.157 49.24 49.28 49.32 49.397 49.48 49.65 49.702 49.687 49.66 49.642 49.65 49.607 49.59 49.597 49.612 49.645 49.597 49.465 49.342 49.307 49.282 49.255 49.207 49.142 49.085 48.987 48.98 48.922 48.93 49.012 48.952 48.72 48.555 48.455 48.432 48.55 48.52 48.297 48.11 47.94 47.89 47.8 47.427 47.617 47.807 47.897 47.845 47.767 47.767 47.865 47.912 47.927 48.02 48.112 48.125 48.185 48.137 48.087 48.02 47.965 48.097 48.27 48.31 48.247 48.12 48.067 48.102 48.12 48.102 48.007 47.957 47.887 47.642 47.242 47.255 47.277 47.272 47.245 47.292 47.377 47.477 47.454 47.394 47.359 47.262 47.219 47.177 47.107 47.089 47.079 47.197 47.254 47.324 47.207 47.087 47.024 46.924 46.822 46.794 46.767 46.699 46.634 46.604 46.522 46.469 46.392 46.364 46.312 46.244 46.162 46.082 46.034 45.974 45.944 45.892 45.884 45.877 45.859 45.817 45.769 45.727 45.692 45.724 45.699 45.662 45.717 45.692 45.567 45.392 45.354 45.232 45.194 45.167 45.079 45.007 44.897 44.847 44.789 44.857 44.702 44.637 44.604 44.572 44.494 44.452 44.424 44.327 44.169 43.962 43.912 43.982 43.937 43.877 43.822 43.809 43.762 43.679 43.697 43.689 43.664 43.579 43.529 43.484 43.427 43.389 43.347 43.284 43.162 43.139 43.104 43.044 42.989 42.939 42.872 42.802 42.822 42.812 42.762 42.709 42.674 42.647 42.624 42.584 42.574 42.549 42.492 42.422 42.307 42.147 42.122 41.987 41.934 41.917 41.399 41.434 41.604 41.647 41.724 41.674 41.629 41.652 41.554 41.387 41.269 41.147 41.054 41.022 40.769 40.442 40.374 40.357 40.297 40.289 40.254 40.227 40.242 40.227 40.184 40.089 40.014 39.974 40.007 39.997 40.019 40.027 40.039 40.044 40.064 40.089 40.139 40.149 40.157 40.164 40.192 40.232 40.247 40.309 40.334 40.359 40.359 40.404 40.402 40.419 40.462 40.484 40.502 40.502 40.509 40.502 40.444 40.484 40.477 40.402 40.372 40.377 40.319 40.239 40.204 40.182 40.099 40.079 40.052 39.997 39.937 39.892 39.847 39.782 39.744 39.714 39.679 39.632 39.624 39.559 39.507 39.502 39.449 39.397 39.367 39.272 39.217 39.199 39.167 39.074 39.099 39.114 39.242 39.244 39.214 39.109 38.984 38.904 38.924 38.917 38.909 38.879 38.859 38.829 38.774 38.754 38.717 38.732 38.687 38.619 38.619 38.557 38.512 38.452 38.444 38.379 38.329 38.292 38.242 38.189 38.154 38.084 37.994 37.984 37.924 37.854 37.767 37.744 37.697 37.602 37.562 37.497 37.409 37.332 37.267 37.224 37.107 37.029 36.924 36.862 36.784 36.697 36.612 36.554 36.459 36.342 36.282 36.214 36.089 36.007 35.952 35.847 35.732 35.642 35.564 35.459 35.304 35.259 35.174 35.084 34.934 34.847 34.744 34.612 34.524 34.432 34.387 34.287 34.257 34.167 34.122 34.087 34.017 33.949 33.844 33.799 33.692 33.607 33.519 33.417 33.364 33.302 33.229 33.182 33.157 33.127 33.082 33.087 33.052 33.052 33.019 32.969 32.897 32.784
48.312 48.432 48.497 48.52 48.517 48.54 48.57 48.615 48.627 48.7 48.68 48.645 48.65 48.62 48.587 48.5 48.475 48.472 48.502 48.507 48.497 48.537 48.607 48.587 48.54 48.55 48.517 48.515 48.512 48.53 48.562 48.587 48.585 48.602 48.597 48.635 48.647 48.617 48.64 48.707 48.852 48.967 49.11 49.305 49.332 49.277 49.307 49.375 49.415 49.455 49.522 49.667 49.767 49.755 49.742 49.72 49.717 49.68 49.657 49.652 49.667 49.625 49.595 49.44 49.302 49.282 49.197 49.147 49.112 49.08 49.06 49.022 48.952 48.867 48.915 49.007 48.975 48.647 48.445 48.43 48.47 48.49 48.48 48.295 48.082 47.952 47.835 47.782 47.742 47.832 47.827 47.8 47.765 47.695 47.7 47.777 47.835 47.86 47.932 47.997 48.04 48.067 47.952 47.895 47.965 48.01 47.96 48.132 48.245 48.225 48.197 48.032 48.032 48.045 48.002 47.96 47.91 47.847 47.765 47.432 47.275 47.295 47.305 47.307 47.342 47.419 47.417 47.392 47.379 47.284 47.177 47.102 47.104 47.062 47.027 46.984 47.074 47.067 47.204 47.244 47.199 46.972 46.849 46.817 46.799 46.769 46.737 46.639 46.564 46.509 46.454 46.372 46.302 46.267 46.154 46.112 46.037 45.989 45.927 45.869 45.904 45.884 45.842 45.799 45.757 45.742 45.719 45.689 45.762 45.727 45.707 45.719 45.609 45.404 45.249 45.197 45.197 45.169 45.072 45.009 44.914 44.839 44.817 44.784 44.787 44.682 44.574 44.527 44.447 44.422 44.409 44.362 44.242 44.149 44.069 43.899 43.844 43.914 43.962 43.819 43.769 43.777 43.704 43.647 43.652 43.669 43.627 43.527 43.497 43.467 43.424 43.384 43.292 43.179 43.164 43.102 43.049 43.019 42.929 42.874 42.827 42.812 42.789 42.739 42.689 42.627 42.622 42.597 42.589 42.552 42.502 42.459 42.364 42.237 42.157 42.054 41.944 41.834 41.779 41.639 41.622 41.689 41.674 41.622 41.499 41.444 41.424 41.357 41.302 41.324 41.247 41.094 41.044 40.667 40.409 40.377 40.307 40.289 40.279 40.214 40.184 40.187 40.084 40.032 39.984 39.894 39.862 39.922 39.927 39.917 39.972 39.972 39.989 40.007 40.019 40.062 40.057 40.099 40.079 40.114 40.172 40.192 40.207 40.262 40.259 40.262 40.292 40.299 40.312 40.329 40.339 40.367 40.377 40.374 40.402 40.429 40.359 40.412 40.352 40.344 40.269 40.254 40.254 40.184 40.144 40.094 40.029 39.964 39.937 39.899 39.812 39.817 39.784 39.719 39.639 39.609 39.567 39.574 39.512 39.429 39.407 39.412 39.374 39.357 39.302 39.234 39.167 39.137 39.102 39.047 39.002 38.999 39.067 39.187 39.152 39.027 38.892 38.822 38.777 38.809 38.819 38.784 38.772 38.699 38.697 38.584 38.612 38.617 38.512 38.554 38.519 38.469 38.432 38.392 38.294 38.269 38.194 38.172 38.124 38.057 38.009 37.972 37.917 37.839 37.777 37.722 37.667 37.622 37.539 37.457 37.424 37.362 37.247 37.199 37.094 37.044 36.957 36.872 36.782 36.719 36.659 36.594 36.454 36.369 36.327 36.257 36.127 36.067 36.027 35.934 35.829 35.709 35.624 35.519 35.447 35.334 35.252 35.139 35.039 34.932 34.812 34.732 34.589 34.509 34.452 34.357 34.282 34.209 34.154 34.112 34.072 33.989 33.899 33.839 33.784 33.672 33.584 33.504 33.424 33.389 33.314 33.232 33.202 33.189 33.124 33.072 33.084 33.074 33.042 32.974 32.939 32.892 32.812
48.272 48.455 48.525 48.555 48.54 48.555 48.582 48.527 48.555 48.64 48.592 48.54 48.507 48.515 48.522 48.482 48.485 48.492 48.52 48.525 48.507 48.495 48.515 48.505 48.48 48.502 48.515 48.527 48.54 48.575 48.612 48.575 48.567 48.607 48.57 48.592 48.62 48.582 48.67 48.797 48.95 49.045 49.227 49.395 49.45 49.415 49.37 49.445 49.477 49.56 49.635 49.655 49.795 49.802 49.762 49.78 49.737 49.705 49.707 49.672 49.592 49.495 49.42 49.392 49.342 49.257 49.14 49.057 49.035 49.12 49.117 49.022 48.89 48.88 48.932 48.957 48.875 48.61 48.512 48.562 48.575 48.57 48.5 48.335 48.21 48.02 47.805 47.722 47.737 47.74 47.73 47.732 47.692 47.665 47.67 47.705 47.747 47.8 47.917 47.95 47.877 47.847 47.81 47.87 47.93 47.977 47.885 47.89 48.005 48.157 48.132 48.057 48 47.965 47.845 47.827 47.84 47.745 47.735 47.605 47.387 47.272 47.305 47.322 47.387 47.372 47.387 47.33 47.297 47.21 47.127 47.06 47.062 47.007 46.955 46.885 46.915 46.945 47.142 47.185 47.045 46.917 46.855 46.732 46.807 46.89 46.872 46.792 46.702 46.515 46.447 46.37 46.27 46.22 46.115 46.025 45.987 45.927 45.952 45.895 45.88 45.857 45.8 45.77 45.72 45.717 45.717 45.692 45.7 45.705 45.662 45.572 45.48 45.26 45.167 45.092 45.104 45.154 45.012 44.964 44.914 44.849 44.789 44.754 44.704 44.662 44.589 44.499 44.427 44.364 44.384 44.279 44.179 44.092 44.057 44.064 43.852 43.804 43.849 43.817 43.724 43.694 43.682 43.629 43.589 43.579 43.562 43.512 43.462 43.462 43.457 43.379 43.302 43.244 43.167 43.127 43.064 42.987 42.937 42.879 42.844 42.764 42.734 42.682 42.657 42.632 42.632 42.599 42.552 42.519 42.484 42.402 42.297 42.142 42.157 42.044 41.887 41.732 41.669 41.639 41.709 41.734 41.679 41.569 41.374 41.089 41.092 41.167 41.109 41.199 41.164 41.064 40.869 40.489 40.392 40.359 40.302 40.314 40.239 40.162 40.124 40.067 39.967 39.949 39.872 39.827 39.789 39.824 39.872 39.854 39.874 39.912 39.907 39.922 39.954 39.979 40.024 40.027 40.049 40.064 40.117 40.117 40.117 40.137 40.152 40.174 40.197 40.194 40.192 40.202 40.224 40.222 40.287 40.272 40.309 40.312 40.309 40.309 40.304 40.299 40.247 40.229 40.182 40.144 40.074 40.049 40.004 39.947 39.889 39.857 39.834 39.752 39.717 39.674 39.599 39.569 39.539 39.489 39.444 39.414 39.364 39.337 39.294 39.294 39.267 39.169 39.147 39.097 39.059 39.034 39.019 38.937 38.894 38.979 39.019 39.017 38.939 38.794 38.689 38.634 38.642 38.682 38.687 38.642 38.627 38.587 38.544 38.509 38.477 38.462 38.469 38.452 38.412 38.339 38.239 38.209 38.144 38.122 38.049 38.017 37.937 37.892 37.842 37.754 37.682 37.647 37.584 37.552 37.484 37.407 37.324 37.294 37.177 37.112 37.014 37.007 36.909 36.837 36.727 36.649 36.582 36.517 36.412 36.357 36.279 36.199 36.142 36.052 36.002 35.897 35.817 35.742 35.607 35.529 35.439 35.307 35.227 35.139 35.014 34.904 34.767 34.717 34.612 34.512 34.399 34.314 34.244 34.184 34.137 34.092 34.012 33.964 33.912 33.842 33.764 33.692 33.589 33.487 33.419 33.352 33.324 33.244 33.212 33.197 33.192 33.124 33.152 33.104 33.029 32.979 32.964 32.889 32.814
