ncols 444
nrows 32
xllcorner    427044
yllcorner    486342
cellsize     2
NODATA_value -9999
38.02 38.01 38.025 38.038 38.015 38.008 38.01 38.04 38.003 37.973 37.97 37.923 37.85 37.85 37.825 37.81 37.785 37.763 37.745 37.703 37.695 37.66 37.61 37.583 37.55 37.503 37.45 37.373 37.315 37.293 37.285 37.23 37.19 37.128 37.05 37.01 36.99 36.933 36.94 36.888 36.865 36.84 36.795 36.758 36.76 36.713 36.653 36.603 36.585 36.53 36.485 36.413 36.358 36.32 36.295 36.225 36.208 36.128 36.095 36.043 35.985 35.91 35.863 35.758 35.708 35.65 35.595 35.515 35.468 35.43 35.39 35.355 35.315 35.26 35.25 35.215 35.153 35.105 35.045 34.963 34.928 34.928 34.858 34.793 34.783 34.743 34.71 34.655 34.61 34.555 34.525 34.468 34.438 34.41 34.398 34.363 34.308 34.265 34.215 34.133 34.143 34.09 34.058 34.038 34.025 34.025 34.015 33.953 33.943 33.928 33.87 33.828 33.78 33.71 33.663 33.608 33.518 33.465 33.395 33.293 33.205 33.168 33.068 33.05 33.008 32.965 32.895 32.873 32.815 32.778 32.708 32.668 32.653 32.61 32.545 32.513 32.473 32.39 32.278 32.21 32.12 32.06 32.013 31.958 31.93 31.908 31.873 31.818 31.745 31.715 31.695 31.668 31.683 31.608 31.538 31.513 31.52 31.5 31.54 31.515 31.513 31.505 31.49 31.508 31.508 31.493 31.443 31.39 31.293 31.21 31.135 30.98 30.88 30.74 30.618 30.475 30.34 30.268 30.193 30.17 30.108 30.048 30.033 30 29.973 29.96 29.928 29.888 29.87 29.828 29.75 29.728 29.673 29.615 29.535 29.493 29.433 29.345 29.25 29.145 29.085 29.075 29 28.943 28.89 28.838 28.84 28.838 28.813 28.835 28.848 28.875 28.933 28.985 29.025 29.113 29.168 29.205 29.235 29.238 29.22 29.218 29.203 29.18 29.183 29.193 29.183 29.18 29.17 29.18 29.178 29.165 29.138 29.058 29.038 28.985 28.988 28.94 28.873 28.873 28.885 28.908 28.95 28.973 28.99 28.995 28.983 28.98 28.955 28.96 28.95 28.923 28.91 28.91 28.88 28.895 28.84 28.808 28.758 28.768 28.743 28.71 28.668 28.628 28.645 28.685 28.65 28.685 28.723 28.76 28.775 28.803 28.848 28.953 29.028 29.065 29.103 29.145 29.198 29.24 29.175 28.86 28.428 28.493 28.66 28.795 28.823 28.788 28.785 28.723 28.688 28.65 28.668 28.648 28.623 28.583 28.62 28.65 28.613 28.618 28.61 28.625 28.663 28.628 28.595 28.668 28.703 28.718 28.71 28.723 28.738 28.79 28.78 28.805 28.833 28.863 28.918 28.95 28.963 28.978 28.965 28.978 29.02 28.935 28.885 28.853 28.833 28.76 28.773 28.72 28.715 28.698 28.67 28.655 28.628 28.625 28.605 28.573 28.583 28.623 28.638 28.633 28.673 28.703 28.72 28.765 28.738 28.775 28.815 28.813 28.855 28.908 28.973 29.053 29.138 29.16 29.178 29.253 29.313 29.338 29.383 29.438 29.463 29.46 29.433 29.443 29.433 29.408 29.39 29.4 29.353 29.34 29.32 29.318 29.328 29.305 29.268 29.28 29.295 29.283 29.33 29.35 29.355 29.373 29.4 29.418 29.448 29.493 29.545 29.553 29.57 29.553 29.613 29.63 29.633 29.625 29.643 29.723 29.74 29.705 29.71 29.743 29.745 29.78 29.793 29.83 29.875 29.858 29.878 29.915 29.928 29.963 29.918 29.928 29.918 29.888 29.855 29.843 29.738 29.688 29.663 29.643 29.548 29.533 29.47 29.425 29.363 29.325 29.243 29.178 29.165 29.128 29.1 29.045 29.07 29.035 29.053 29.055 29.098 29.138 29.16 29.185 29.225 29.255
38.013 38 38.038 38.043 38.015 37.99 38.033 38.013 37.98 37.955 37.938 37.908 37.885 37.868 37.813 37.815 37.795 37.758 37.733 37.698 37.675 37.655 37.588 37.565 37.513 37.48 37.433 37.41 37.31 37.285 37.275 37.225 37.178 37.143 37.083 37.01 37.015 36.958 36.96 36.888 36.883 36.845 36.79 36.758 36.77 36.71 36.63 36.598 36.55 36.513 36.495 36.425 36.353 36.325 36.295 36.23 36.215 36.123 36.085 36.05 35.993 35.93 35.858 35.79 35.753 35.665 35.56 35.498 35.47 35.448 35.405 35.35 35.295 35.268 35.233 35.203 35.118 35.068 35.018 34.965 34.93 34.94 34.863 34.838 34.8 34.743 34.723 34.655 34.595 34.588 34.543 34.485 34.46 34.435 34.398 34.363 34.283 34.263 34.215 34.155 34.16 34.093 34.048 34.043 34.07 34.048 34.013 33.973 33.958 33.935 33.91 33.843 33.793 33.693 33.64 33.605 33.518 33.463 33.393 33.293 33.228 33.18 33.13 33.043 33 32.97 32.923 32.883 32.81 32.77 32.703 32.663 32.628 32.593 32.523 32.42 32.418 32.37 32.29 32.233 32.165 32.08 32.045 31.985 31.978 31.938 31.88 31.828 31.753 31.75 31.713 31.72 31.705 31.628 31.553 31.56 31.548 31.533 31.51 31.533 31.498 31.483 31.493 31.5 31.48 31.458 31.41 31.368 31.27 31.188 31.068 30.983 30.863 30.748 30.593 30.445 30.28 30.238 30.168 30.12 30.115 30.018 29.998 30.003 29.953 29.925 29.928 29.85 29.845 29.73 29.758 29.723 29.695 29.628 29.588 29.51 29.433 29.345 29.275 29.173 29.095 29.073 29.033 28.938 28.903 28.863 28.838 28.825 28.84 28.845 28.83 28.893 28.955 29.03 29.07 29.148 29.21 29.235 29.27 29.273 29.298 29.265 29.243 29.235 29.245 29.228 29.22 29.208 29.185 29.205 29.183 29.15 29.118 29.045 29.043 29.02 29.005 28.983 28.903 28.873 28.9 28.933 28.953 28.973 28.993 28.998 28.988 28.968 28.948 28.925 28.933 28.883 28.875 28.863 28.863 28.838 28.858 28.798 28.78 28.813 28.745 28.725 28.683 28.663 28.648 28.69 28.68 28.698 28.733 28.738 28.79 28.82 28.848 28.89 28.973 29.068 29.103 29.153 29.185 29.223 29.275 29.005 28.47 28.378 28.553 28.745 28.815 28.8 28.805 28.733 28.723 28.668 28.66 28.658 28.623 28.628 28.655 28.698 28.66 28.688 28.633 28.643 28.69 28.66 28.653 28.68 28.77 28.758 28.783 28.768 28.798 28.795 28.79 28.835 28.875 28.87 28.908 28.943 28.933 28.963 28.968 28.985 28.98 28.938 28.913 28.85 28.828 28.81 28.778 28.733 28.748 28.69 28.685 28.645 28.633 28.645 28.623 28.618 28.593 28.598 28.628 28.635 28.688 28.745 28.758 28.828 28.845 28.878 28.87 28.953 29.025 29.06 29.168 29.173 29.26 29.29 29.37 29.435 29.478 29.5 29.575 29.615 29.663 29.623 29.603 29.575 29.585 29.55 29.538 29.54 29.48 29.455 29.43 29.42 29.395 29.343 29.363 29.38 29.373 29.34 29.353 29.4 29.425 29.438 29.46 29.495 29.508 29.525 29.583 29.608 29.638 29.66 29.69 29.7 29.71 29.72 29.7 29.748 29.778 29.748 29.753 29.765 29.785 29.823 29.85 29.83 29.858 29.893 29.885 29.895 29.945 29.965 29.92 29.91 29.915 29.865 29.8 29.795 29.75 29.683 29.618 29.565 29.48 29.468 29.378 29.343 29.308 29.278 29.218 29.153 29.118 29.108 29.075 29.038 29.068 29.043 29.098 29.08 29.128 29.143 29.188 29.19 29.228 29.268
37.97 38.005 38.003 38.013 38 37.945 37.988 37.993 38.003 37.93 37.95 37.915 37.845 37.83 37.81 37.808 37.76 37.728 37.71 37.675 37.698 37.628 37.565 37.525 37.5 37.468 37.45 37.383 37.32 37.298 37.275 37.248 37.203 37.153 37.093 37.048 37.003 36.983 36.943 36.898 36.865 36.845 36.815 36.768 36.76 36.7 36.648 36.598 36.543 36.513 36.458 36.423 36.375 36.323 36.31 36.263 36.195 36.133 36.095 36.023 35.98 35.96 35.858 35.763 35.728 35.665 35.595 35.523 35.495 35.443 35.388 35.35 35.315 35.313 35.26 35.195 35.113 35.078 35.003 34.978 34.93 34.91 34.855 34.843 34.793 34.75 34.705 34.638 34.605 34.568 34.493 34.478 34.443 34.4 34.395 34.368 34.32 34.26 34.218 34.165 34.148 34.108 34.065 34.045 34.078 34.063 34.003 33.968 33.943 33.96 33.89 33.818 33.79 33.69 33.648 33.583 33.528 33.48 33.395 33.33 33.213 33.19 33.1 33.055 33.013 32.955 32.905 32.87 32.79 32.758 32.68 32.655 32.618 32.56 32.535 32.473 32.443 32.408 32.303 32.23 32.14 32.1 32.075 32 31.99 31.948 31.915 31.845 31.765 31.753 31.738 31.763 31.705 31.62 31.558 31.528 31.518 31.52 31.525 31.51 31.483 31.448 31.485 31.453 31.438 31.438 31.413 31.355 31.29 31.165 31.04 30.923 30.83 30.68 30.573 30.428 30.295 30.24 30.165 30.143 30.093 30.01 29.998 29.97 29.948 29.92 29.913 29.848 29.768 29.72 29.74 29.705 29.693 29.648 29.593 29.533 29.4 29.348 29.273 29.18 29.108 29.078 29.01 28.94 28.91 28.918 28.878 28.85 28.885 28.88 28.87 28.928 28.98 29.05 29.115 29.185 29.243 29.295 29.325 29.348 29.345 29.315 29.283 29.318 29.303 29.24 29.235 29.23 29.208 29.21 29.185 29.168 29.133 29.078 29.088 29.075 29.043 28.998 28.928 28.918 28.943 28.935 28.92 28.945 28.998 28.95 28.945 28.948 28.92 28.903 28.905 28.863 28.868 28.825 28.83 28.798 28.82 28.77 28.778 28.758 28.753 28.72 28.69 28.68 28.68 28.695 28.723 28.703 28.76 28.77 28.818 28.81 28.838 28.855 28.938 29.063 29.093 29.073 29.155 29.2 29.228 29.218 28.883 28.508 28.64 28.85 28.843 28.825 28.815 28.788 28.723 28.673 28.658 28.663 28.645 28.683 28.67 28.69 28.713 28.68 28.69 28.683 28.703 28.698 28.763 28.77 28.808 28.825 28.84 28.84 28.858 28.83 28.775 28.833 28.843 28.855 28.898 28.89 28.898 28.94 28.968 28.975 28.948 28.925 28.895 28.868 28.815 28.788 28.755 28.753 28.733 28.715 28.69 28.668 28.645 28.675 28.668 28.633 28.6 28.613 28.688 28.728 28.78 28.808 28.85 28.918 28.968 28.983 29.04 29.095 29.185 29.223 29.285 29.355 29.425 29.468 29.553 29.605 29.648 29.708 29.705 29.753 29.795 29.81 29.755 29.743 29.745 29.74 29.7 29.618 29.605 29.573 29.528 29.503 29.5 29.455 29.46 29.473 29.458 29.425 29.423 29.46 29.518 29.513 29.555 29.568 29.563 29.603 29.6 29.643 29.7 29.73 29.743 29.785 29.765 29.765 29.765 29.8 29.82 29.81 29.815 29.833 29.863 29.858 29.89 29.883 29.908 29.933 29.905 29.923 29.943 29.933 29.925 29.898 29.838 29.85 29.798 29.753 29.698 29.623 29.568 29.49 29.418 29.37 29.315 29.275 29.25 29.205 29.19 29.125 29.1 29.083 29.048 29.048 29.053 29.09 29.085 29.105 29.14 29.168 29.205 29.215 29.27 29.298
38.008 37.993 37.988 37.99 38.005 37.983 37.998 37.985 37.98 37.935 37.933 37.888 37.863 37.828 37.805 37.788 37.74 37.718 37.678 37.68 37.688 37.61 37.603 37.52 37.49 37.455 37.423 37.348 37.35 37.305 37.273 37.233 37.203 37.168 37.068 37.05 37.033 37.018 36.953 36.915 36.89 36.838 36.82 36.795 36.763 36.718 36.68 36.66 36.543 36.535 36.485 36.43 36.363 36.315 36.265 36.27 36.218 36.17 36.118 36.06 36.01 35.965 35.87 35.795 35.743 35.673 35.593 35.525 35.503 35.453 35.393 35.368 35.308 35.258 35.263 35.16 35.13 35.093 35.035 34.975 34.945 34.9 34.865 34.845 34.795 34.773 34.72 34.658 34.598 34.56 34.52 34.488 34.458 34.415 34.393 34.353 34.328 34.283 34.215 34.158 34.133 34.098 34.073 34.07 34.03 34.043 33.99 33.995 33.96 33.913 33.885 33.83 33.79 33.698 33.663 33.55 33.518 33.483 33.398 33.295 33.2 33.173 33.113 33.045 33.005 32.93 32.87 32.84 32.785 32.743 32.665 32.643 32.568 32.528 32.51 32.445 32.41 32.39 32.298 32.225 32.163 32.123 32.06 32.045 31.995 31.94 31.905 31.845 31.753 31.74 31.73 31.735 31.7 31.623 31.548 31.53 31.538 31.508 31.49 31.47 31.44 31.418 31.43 31.41 31.415 31.445 31.41 31.323 31.26 31.145 31.055 30.908 30.803 30.658 30.523 30.44 30.325 30.255 30.175 30.128 30.07 30.03 30.003 29.97 29.955 29.928 29.89 29.823 29.75 29.74 29.705 29.673 29.655 29.625 29.538 29.503 29.425 29.375 29.295 29.205 29.15 29.088 29 28.953 28.935 28.893 28.873 28.858 28.895 28.883 28.9 28.955 29.035 29.08 29.173 29.215 29.255 29.33 29.365 29.368 29.363 29.34 29.345 29.353 29.328 29.28 29.258 29.248 29.25 29.23 29.213 29.155 29.118 29.125 29.098 29.07 29.033 28.98 28.938 28.928 28.938 28.92 28.913 28.923 28.928 28.94 28.945 28.908 28.903 28.888 28.86 28.848 28.848 28.793 28.775 28.783 28.758 28.773 28.77 28.748 28.738 28.718 28.71 28.673 28.698 28.733 28.76 28.75 28.753 28.78 28.838 28.838 28.848 28.888 28.928 29.003 29.078 29.083 29.115 29.22 29.253 29.328 29.295 28.668 28.57 28.893 28.905 28.835 28.798 28.805 28.77 28.705 28.708 28.68 28.668 28.663 28.69 28.723 28.773 28.75 28.735 28.728 28.743 28.793 28.83 28.805 28.835 28.865 28.888 28.888 28.868 28.863 28.835 28.818 28.855 28.848 28.865 28.863 28.9 28.94 28.953 28.948 28.93 28.903 28.863 28.873 28.82 28.793 28.773 28.763 28.735 28.705 28.685 28.693 28.685 28.7 28.688 28.688 28.66 28.643 28.74 28.778 28.86 28.895 28.938 29.003 29.098 29.12 29.173 29.248 29.29 29.313 29.393 29.478 29.555 29.628 29.723 29.735 29.803 29.81 29.868 29.918 29.948 29.99 29.958 29.923 29.89 29.865 29.82 29.74 29.703 29.698 29.64 29.61 29.598 29.543 29.523 29.543 29.55 29.528 29.538 29.583 29.585 29.583 29.578 29.595 29.64 29.628 29.65 29.698 29.743 29.74 29.788 29.84 29.835 29.865 29.845 29.845 29.883 29.858 29.868 29.883 29.893 29.888 29.903 29.885 29.878 29.925 29.933 29.938 29.933 29.918 29.883 29.873 29.82 29.79 29.76 29.685 29.623 29.558 29.515 29.41 29.37 29.308 29.3 29.208 29.198 29.165 29.143 29.125 29.068 29.063 29.083 29.078 29.08 29.095 29.108 29.13 29.148 29.205 29.253 29.25 29.275 29.305
37.99 37.978 37.983 37.973 38 38.01 38.023 37.968 37.97 37.943 37.9 37.908 37.853 37.813 37.798 37.788 37.73 37.74 37.69 37.653 37.635 37.595 37.59 37.568 37.49 37.443 37.41 37.378 37.353 37.29 37.255 37.213 37.215 37.195 37.108 37.088 37.043 37.015 36.935 36.925 36.92 36.848 36.805 36.79 36.773 36.683 36.648 36.648 36.585 36.52 36.455 36.41 36.378 36.345 36.308 36.278 36.23 36.185 36.083 36.053 36.02 35.97 35.878 35.8 35.763 35.705 35.593 35.545 35.52 35.465 35.405 35.385 35.348 35.28 35.245 35.175 35.155 35.068 35.065 34.985 34.948 34.925 34.883 34.825 34.82 34.778 34.713 34.673 34.603 34.555 34.523 34.508 34.47 34.418 34.365 34.345 34.275 34.26 34.2 34.143 34.113 34.07 34.073 34.04 34.043 34.038 33.983 33.973 33.97 33.913 33.858 33.828 33.758 33.693 33.67 33.583 33.528 33.45 33.36 33.285 33.178 33.14 33.1 33.063 32.958 32.908 32.903 32.86 32.805 32.728 32.678 32.623 32.545 32.505 32.498 32.438 32.385 32.338 32.28 32.195 32.183 32.123 32.075 32.043 31.985 31.953 31.883 31.803 31.758 31.725 31.73 31.733 31.665 31.59 31.543 31.503 31.52 31.483 31.45 31.458 31.463 31.44 31.433 31.418 31.38 31.388 31.33 31.285 31.195 31.11 30.97 30.845 30.775 30.663 30.51 30.418 30.283 30.203 30.138 30.063 30.01 30 29.995 29.935 29.905 29.885 29.84 29.798 29.698 29.723 29.683 29.64 29.643 29.593 29.558 29.495 29.393 29.358 29.265 29.203 29.133 29.103 29.018 28.968 28.908 28.885 28.873 28.833 28.88 28.885 28.92 28.99 29.048 29.11 29.193 29.255 29.313 29.375 29.385 29.41 29.385 29.35 29.385 29.358 29.335 29.28 29.258 29.248 29.238 29.255 29.205 29.145 29.11 29.115 29.07 29.058 28.985 29.003 28.975 28.958 28.943 28.908 28.935 28.915 28.915 28.915 28.898 28.85 28.883 28.903 28.82 28.79 28.798 28.763 28.753 28.755 28.753 28.753 28.77 28.748 28.73 28.745 28.683 28.598 28.58 28.523 28.635 28.788 28.775 28.785 28.813 28.84 28.833 28.893 28.935 29.003 29.053 29.085 29.083 29.173 29.23 29.258 29.305 28.76 28.295 28.42 28.763 28.853 28.825 28.853 28.838 28.77 28.723 28.685 28.708 28.72 28.745 28.753 28.775 28.748 28.79 28.793 28.825 28.84 28.88 28.893 28.898 28.943 28.968 28.905 28.903 28.893 28.863 28.838 28.865 28.878 28.833 28.87 28.905 28.893 28.903 28.908 28.875 28.898 28.858 28.853 28.818 28.825 28.783 28.735 28.755 28.748 28.723 28.73 28.758 28.735 28.758 28.75 28.768 28.755 28.825 28.86 28.935 28.985 29.06 29.125 29.153 29.218 29.288 29.333 29.378 29.428 29.505 29.58 29.693 29.733 29.808 29.853 29.878 29.955 29.993 30.023 30.068 30.055 30.088 30.025 29.983 29.965 29.935 29.89 29.85 29.815 29.74 29.7 29.68 29.67 29.635 29.638 29.62 29.63 29.59 29.645 29.673 29.66 29.643 29.655 29.713 29.715 29.728 29.753 29.76 29.768 29.83 29.89 29.875 29.898 29.893 29.9 29.94 29.918 29.895 29.898 29.923 29.898 29.91 29.895 29.908 29.895 29.9 29.975 29.94 29.875 29.853 29.823 29.8 29.723 29.673 29.638 29.575 29.495 29.428 29.378 29.31 29.275 29.218 29.148 29.15 29.118 29.113 29.105 29.078 29.035 29.1 29.108 29.095 29.085 29.085 29.143 29.19 29.22 29.283 29.27 29.283 29.318
37.96 37.978 37.983 38.025 38.03 38.003 38.005 37.995 37.975 37.933 37.89 37.895 37.865 37.805 37.788 37.778 37.738 37.688 37.66 37.653 37.608 37.615 37.565 37.558 37.49 37.44 37.378 37.38 37.33 37.275 37.248 37.225 37.19 37.18 37.118 37.093 37.073 37.013 36.955 36.935 36.92 36.885 36.828 36.84 36.808 36.713 36.698 36.66 36.623 36.553 36.483 36.418 36.398 36.368 36.353 36.305 36.228 36.18 36.095 36.075 36.013 35.953 35.865 35.81 35.753 35.693 35.593 35.558 35.525 35.458 35.43 35.403 35.333 35.268 35.225 35.17 35.128 35.075 35.045 34.988 34.958 34.918 34.92 34.858 34.83 34.773 34.685 34.67 34.628 34.595 34.54 34.518 34.46 34.418 34.36 34.32 34.3 34.248 34.195 34.155 34.1 34.06 34.055 34.03 34.06 34.058 34.033 33.983 33.945 33.898 33.87 33.838 33.77 33.748 33.66 33.583 33.528 33.475 33.383 33.27 33.195 33.15 33.093 33.03 32.955 32.945 32.905 32.865 32.778 32.733 32.67 32.6 32.558 32.548 32.478 32.423 32.378 32.338 32.28 32.208 32.195 32.11 32.075 32.05 31.985 31.908 31.86 31.8 31.765 31.688 31.738 31.693 31.645 31.583 31.545 31.465 31.493 31.485 31.488 31.453 31.43 31.425 31.4 31.38 31.345 31.315 31.325 31.26 31.183 31.093 30.973 30.84 30.713 30.59 30.508 30.375 30.22 30.165 30.115 30.065 29.998 29.958 29.953 29.888 29.873 29.858 29.825 29.788 29.705 29.703 29.66 29.638 29.628 29.578 29.535 29.453 29.363 29.285 29.213 29.188 29.135 29.093 29.03 28.953 28.918 28.928 28.875 28.863 28.868 28.868 28.915 29.02 29.063 29.125 29.225 29.288 29.33 29.345 29.37 29.39 29.385 29.383 29.328 29.303 29.305 29.253 29.238 29.193 29.215 29.195 29.18 29.115 29.073 29.083 29.088 29.085 29.013 28.983 28.988 28.99 28.94 28.89 28.923 28.875 28.868 28.86 28.895 28.883 28.845 28.815 28.785 28.763 28.743 28.755 28.728 28.743 28.723 28.745 28.773 28.75 28.743 28.778 28.695 28.45 28.373 28.405 28.603 28.838 28.835 28.8 28.795 28.848 28.88 28.895 28.905 28.995 29.005 29.078 29.075 29.153 29.233 29.26 29.283 29.015 28.265 28.245 28.75 28.905 28.86 28.848 28.873 28.818 28.78 28.743 28.738 28.79 28.805 28.793 28.795 28.805 28.828 28.848 28.885 28.905 28.9 28.925 28.938 28.94 28.983 28.99 28.948 28.915 28.91 28.9 28.885 28.878 28.87 28.853 28.848 28.845 28.87 28.9 28.873 28.855 28.823 28.805 28.8 28.798 28.765 28.763 28.79 28.778 28.788 28.795 28.805 28.823 28.853 28.813 28.873 28.903 28.925 29.005 29.035 29.14 29.175 29.258 29.318 29.325 29.353 29.395 29.463 29.538 29.59 29.665 29.738 29.8 29.885 29.985 29.995 30.045 30.058 30.108 30.15 30.15 30.178 30.155 30.09 30.07 30.043 30.005 29.99 29.915 29.84 29.793 29.795 29.755 29.678 29.695 29.698 29.733 29.703 29.663 29.713 29.715 29.73 29.728 29.755 29.768 29.753 29.785 29.803 29.835 29.865 29.88 29.918 29.945 29.948 29.96 29.943 29.95 29.935 29.948 29.955 29.948 29.925 29.91 29.918 29.905 29.878 29.895 29.885 29.863 29.803 29.76 29.763 29.693 29.635 29.573 29.535 29.453 29.385 29.33 29.26 29.23 29.17 29.125 29.13 29.12 29.08 29.093 29.108 29.055 29.073 29.093 29.13 29.118 29.128 29.203 29.218 29.233 29.29 29.288 29.303 29.36
37.953 37.978 37.985 38.003 38.015 38 38.013 38.013 37.968 37.945 37.903 37.875 37.863 37.788 37.795 37.75 37.745 37.723 37.683 37.64 37.61 37.63 37.555 37.54 37.53 37.48 37.403 37.37 37.338 37.275 37.223 37.183 37.198 37.163 37.11 37.088 37.083 37.003 36.993 36.945 36.915 36.885 36.855 36.828 36.8 36.735 36.68 36.648 36.603 36.543 36.495 36.458 36.405 36.393 36.36 36.323 36.24 36.193 36.138 36.05 36.013 35.933 35.883 35.843 35.773 35.685 35.598 35.553 35.513 35.478 35.42 35.393 35.34 35.315 35.25 35.185 35.13 35.08 35.073 35.025 34.968 34.908 34.905 34.858 34.818 34.768 34.708 34.653 34.62 34.585 34.508 34.485 34.44 34.393 34.36 34.335 34.288 34.238 34.19 34.135 34.06 34.028 34.038 34.023 34.025 34.023 34.05 33.995 33.938 33.885 33.853 33.808 33.753 33.718 33.65 33.588 33.528 33.448 33.338 33.263 33.183 33.175 33.08 33.003 32.953 32.903 32.885 32.843 32.743 32.685 32.663 32.593 32.548 32.518 32.45 32.368 32.328 32.31 32.248 32.188 32.128 32.085 32.038 32.015 31.99 31.91 31.83 31.765 31.745 31.698 31.7 31.658 31.603 31.53 31.513 31.473 31.495 31.493 31.47 31.41 31.375 31.4 31.355 31.358 31.34 31.298 31.285 31.22 31.18 31.065 30.883 30.788 30.675 30.588 30.47 30.378 30.23 30.123 30.075 29.98 29.963 29.965 29.918 29.858 29.833 29.84 29.75 29.713 29.68 29.663 29.655 29.623 29.555 29.528 29.47 29.425 29.35 29.258 29.2 29.165 29.11 29.053 29.028 28.955 28.933 28.9 28.89 28.883 28.885 28.915 28.963 29.025 29.073 29.148 29.19 29.22 29.308 29.368 29.393 29.355 29.365 29.37 29.33 29.313 29.308 29.23 29.215 29.165 29.175 29.155 29.123 29.095 29.063 29.043 29.053 29.03 29 28.988 28.975 28.955 28.915 28.928 28.905 28.84 28.853 28.845 28.863 28.84 28.785 28.753 28.735 28.758 28.745 28.723 28.705 28.725 28.728 28.758 28.785 28.78 28.815 28.818 28.793 28.785 28.783 28.81 28.838 28.845 28.85 28.86 28.828 28.853 28.875 28.88 28.863 28.92 28.97 28.993 29.058 29.13 29.18 29.223 29.298 29.253 28.738 28.49 28.835 28.98 28.893 28.87 28.905 28.88 28.84 28.795 28.823 28.833 28.833 28.813 28.8 28.86 28.878 28.883 28.873 28.903 28.965 28.993 28.998 28.99 29 28.993 28.958 28.935 28.878 28.888 28.873 28.868 28.878 28.855 28.89 28.853 28.853 28.88 28.913 28.813 28.81 28.828 28.8 28.815 28.813 28.815 28.853 28.835 28.858 28.87 28.885 28.903 28.933 28.96 29.005 29.055 29.07 29.118 29.17 29.3 29.35 29.385 29.4 29.448 29.415 29.475 29.515 29.585 29.64 29.7 29.793 29.858 29.933 30.025 30.083 30.083 30.123 30.153 30.183 30.213 30.203 30.198 30.195 30.145 30.135 30.103 30.088 30.028 29.963 29.88 29.825 29.813 29.793 29.73 29.73 29.76 29.775 29.76 29.753 29.77 29.793 29.813 29.805 29.843 29.853 29.838 29.883 29.875 29.905 29.933 29.933 29.913 29.928 29.968 29.993 29.963 29.973 29.955 29.975 29.958 29.92 29.923 29.918 29.89 29.855 29.868 29.835 29.84 29.758 29.698 29.698 29.655 29.57 29.513 29.473 29.413 29.36 29.313 29.243 29.16 29.145 29.118 29.12 29.113 29.063 29.083 29.1 29.093 29.1 29.135 29.135 29.14 29.18 29.213 29.24 29.253 29.29 29.328 29.313 29.33
37.968 37.975 37.955 37.985 38 38.003 37.978 37.978 37.943 37.9 37.898 37.843 37.84 37.778 37.8 37.773 37.74 37.728 37.69 37.64 37.633 37.575 37.58 37.535 37.52 37.483 37.423 37.395 37.34 37.275 37.248 37.22 37.205 37.153 37.11 37.068 37.06 36.99 36.955 36.93 36.915 36.878 36.875 36.868 36.795 36.698 36.723 36.675 36.64 36.54 36.508 36.475 36.405 36.373 36.398 36.313 36.255 36.2 36.163 36.088 36.038 35.965 35.9 35.86 35.775 35.7 35.65 35.558 35.523 35.48 35.428 35.378 35.358 35.325 35.27 35.205 35.115 35.088 35.045 35.04 34.955 34.888 34.87 34.878 34.815 34.76 34.723 34.66 34.603 34.555 34.51 34.473 34.44 34.423 34.353 34.313 34.26 34.203 34.193 34.168 34.085 34.03 34.048 34.048 34.05 34.025 34.01 33.95 33.883 33.885 33.835 33.808 33.743 33.708 33.643 33.57 33.473 33.39 33.315 33.265 33.225 33.178 33.085 33.033 32.968 32.915 32.875 32.81 32.723 32.673 32.63 32.575 32.54 32.475 32.4 32.355 32.333 32.265 32.223 32.16 32.113 32.075 32.043 31.995 31.95 31.873 31.843 31.75 31.72 31.663 31.698 31.66 31.585 31.563 31.518 31.47 31.47 31.483 31.45 31.413 31.39 31.39 31.338 31.305 31.288 31.243 31.218 31.208 31.14 31.013 30.865 30.755 30.668 30.508 30.445 30.31 30.178 30.103 30.045 29.963 29.905 29.915 29.865 29.843 29.833 29.805 29.735 29.72 29.675 29.658 29.633 29.588 29.563 29.525 29.458 29.405 29.315 29.248 29.193 29.138 29.105 29.065 28.985 28.955 28.93 28.92 28.865 28.883 28.89 28.925 28.973 29.03 29.085 29.19 29.21 29.248 29.325 29.353 29.403 29.355 29.353 29.368 29.333 29.305 29.29 29.245 29.185 29.1 29.11 29.14 29.065 28.993 29.028 29.008 29.008 29.023 28.958 28.953 28.963 28.94 28.915 28.928 28.893 28.828 28.813 28.813 28.775 28.81 28.82 28.745 28.725 28.73 28.695 28.708 28.713 28.708 28.753 28.788 28.785 28.81 28.83 28.818 28.82 28.853 28.86 28.873 28.868 28.848 28.863 28.87 28.84 28.84 28.828 28.858 28.875 28.88 28.903 28.983 29.02 29.103 29.15 29.24 29.298 29.348 29.243 29.003 28.97 29.108 29.003 28.92 28.943 28.938 28.918 28.88 28.865 28.863 28.853 28.828 28.855 28.938 28.95 28.948 28.92 28.928 28.983 29.018 29.008 29.013 29.005 29.003 28.993 28.933 28.905 28.888 28.89 28.858 28.823 28.815 28.85 28.83 28.863 28.88 28.87 28.845 28.84 28.868 28.863 28.878 28.848 28.89 28.888 28.913 28.89 28.913 28.968 29.043 29.048 29.1 29.165 29.158 29.22 29.268 29.31 29.4 29.433 29.49 29.515 29.52 29.563 29.55 29.565 29.655 29.673 29.77 29.868 29.9 29.978 30.07 30.08 30.123 30.175 30.198 30.205 30.21 30.23 30.248 30.268 30.218 30.18 30.165 30.153 30.065 30.025 29.923 29.873 29.86 29.84 29.798 29.798 29.785 29.788 29.785 29.84 29.82 29.83 29.853 29.883 29.89 29.895 29.875 29.895 29.86 29.92 29.97 29.968 29.938 29.958 30.003 30.003 29.99 30.015 30.025 29.998 29.913 29.908 29.903 29.873 29.85 29.798 29.785 29.798 29.765 29.69 29.653 29.633 29.613 29.525 29.445 29.38 29.4 29.293 29.223 29.215 29.168 29.138 29.1 29.085 29.083 29.088 29.115 29.135 29.148 29.14 29.175 29.173 29.173 29.205 29.22 29.245 29.285 29.303 29.338 29.363 29.37
37.955 37.958 37.975 38.008 38.015 38.008 37.983 37.948 37.94 37.898 37.888 37.838 37.843 37.83 37.785 37.765 37.718 37.685 37.695 37.653 37.63 37.57 37.553 37.545 37.498 37.443 37.435 37.378 37.333 37.323 37.278 37.208 37.155 37.095 37.105 37.06 37.053 37.008 36.97 36.95 36.91 36.868 36.863 36.85 36.805 36.718 36.735 36.668 36.64 36.578 36.543 36.503 36.463 36.415 36.388 36.32 36.28 36.225 36.17 36.09 36.05 35.958 35.915 35.865 35.768 35.698 35.638 35.585 35.503 35.468 35.415 35.373 35.32 35.298 35.255 35.21 35.16 35.083 35.053 35.005 34.94 34.888 34.87 34.84 34.76 34.713 34.708 34.673 34.603 34.53 34.49 34.478 34.423 34.41 34.338 34.295 34.258 34.21 34.168 34.128 34.1 34.018 34.028 34.028 34.018 33.99 33.993 33.96 33.91 33.873 33.843 33.803 33.745 33.718 33.643 33.568 33.46 33.365 33.288 33.243 33.198 33.143 33.098 33.028 32.975 32.928 32.87 32.815 32.758 32.693 32.638 32.553 32.505 32.465 32.393 32.358 32.303 32.275 32.195 32.155 32.083 32.053 32.008 31.96 31.935 31.88 31.808 31.748 31.71 31.685 31.695 31.638 31.56 31.543 31.523 31.508 31.475 31.463 31.44 31.39 31.373 31.293 31.263 31.27 31.255 31.218 31.193 31.148 31.063 30.978 30.808 30.685 30.603 30.483 30.355 30.263 30.12 30.055 30.005 29.938 29.9 29.848 29.828 29.803 29.765 29.725 29.72 29.625 29.643 29.615 29.573 29.558 29.548 29.508 29.43 29.378 29.255 29.228 29.148 29.1 29.078 29.035 28.99 28.925 28.91 28.89 28.878 28.895 28.893 28.905 28.983 29.043 29.09 29.153 29.213 29.308 29.27 29.348 29.385 29.378 29.358 29.358 29.31 29.255 29.215 29.17 29.115 29.115 29.1 29.073 29.05 28.988 28.993 28.998 28.983 28.988 28.945 28.948 28.955 28.938 28.94 28.89 28.868 28.823 28.808 28.793 28.763 28.803 28.775 28.745 28.71 28.698 28.695 28.718 28.735 28.718 28.755 28.82 28.828 28.835 28.818 28.835 28.873 28.893 28.88 28.933 28.91 28.878 28.85 28.87 28.84 28.823 28.82 28.885 28.865 28.88 28.888 28.95 28.98 29.073 29.11 29.185 29.278 29.295 29.293 29.065 28.918 29.078 29.14 28.985 28.975 29.033 29.01 28.938 28.9 28.86 28.9 28.933 28.91 28.973 28.99 29.013 29.01 29.003 29.033 29.028 29.063 29.063 29.013 29.015 29.025 28.973 28.918 28.913 28.878 28.84 28.833 28.823 28.858 28.83 28.868 28.855 28.858 28.858 28.845 28.87 28.895 28.92 28.915 28.945 28.955 28.995 29.01 29.028 29.085 29.128 29.2 29.26 29.315 29.318 29.42 29.44 29.46 29.55 29.598 29.618 29.623 29.608 29.633 29.625 29.655 29.713 29.73 29.78 29.863 29.94 29.988 30.08 30.113 30.145 30.185 30.223 30.243 30.24 30.245 30.23 30.248 30.203 30.183 30.175 30.173 30.1 30.058 29.98 29.93 29.895 29.885 29.835 29.825 29.828 29.833 29.875 29.903 29.895 29.858 29.888 29.918 29.918 29.93 29.953 29.935 29.92 29.953 29.945 29.988 29.983 29.955 30 30.023 29.995 30.008 29.97 29.953 29.933 29.888 29.843 29.805 29.793 29.738 29.705 29.713 29.693 29.645 29.568 29.53 29.543 29.475 29.385 29.333 29.345 29.288 29.235 29.205 29.155 29.113 29.083 29.095 29.113 29.113 29.105 29.175 29.165 29.16 29.18 29.218 29.225 29.215 29.255 29.275 29.313 29.33 29.37 29.398 29.403
37.938 37.96 37.968 37.983 37.983 37.94 37.98 37.94 37.925 37.903 37.863 37.855 37.815 37.785 37.75 37.765 37.743 37.718 37.678 37.6 37.648 37.593 37.573 37.525 37.498 37.42 37.373 37.363 37.275 37.265 37.238 37.2 37.16 37.09 37.093 37.083 37.058 37.003 36.993 36.958 36.94 36.855 36.865 36.863 36.773 36.75 36.723 36.67 36.613 36.555 36.54 36.478 36.47 36.418 36.385 36.325 36.273 36.23 36.188 36.108 36.07 36.008 35.925 35.873 35.77 35.708 35.653 35.603 35.553 35.473 35.42 35.38 35.335 35.298 35.24 35.21 35.16 35.095 35.05 35.018 34.94 34.923 34.883 34.838 34.773 34.71 34.673 34.635 34.565 34.538 34.483 34.453 34.435 34.383 34.33 34.285 34.245 34.21 34.155 34.073 34.07 34.033 34.03 34.028 33.998 33.99 33.975 33.943 33.885 33.86 33.848 33.783 33.735 33.693 33.615 33.54 33.418 33.355 33.243 33.213 33.155 33.108 33.033 32.99 32.938 32.895 32.823 32.795 32.723 32.68 32.628 32.58 32.528 32.483 32.39 32.328 32.323 32.25 32.21 32.133 32.088 32.068 31.98 31.94 31.923 31.838 31.795 31.77 31.725 31.748 31.73 31.603 31.54 31.503 31.508 31.463 31.43 31.415 31.408 31.355 31.325 31.265 31.198 31.218 31.188 31.18 31.168 31.09 31.033 30.88 30.72 30.668 30.54 30.433 30.315 30.22 30.083 30.013 29.978 29.903 29.88 29.833 29.798 29.775 29.74 29.745 29.648 29.588 29.615 29.578 29.535 29.525 29.503 29.445 29.408 29.345 29.245 29.19 29.138 29.113 29.058 29.008 28.983 28.958 28.898 28.86 28.85 28.885 28.885 28.938 28.978 29.033 29.11 29.17 29.218 29.278 29.34 29.363 29.41 29.38 29.328 29.32 29.278 29.228 29.193 29.07 29.01 29.033 29.028 29.035 29.043 28.948 28.92 28.94 28.983 28.94 28.94 28.943 28.92 28.893 28.88 28.86 28.848 28.81 28.798 28.805 28.788 28.78 28.74 28.703 28.738 28.715 28.703 28.718 28.743 28.745 28.79 28.793 28.843 28.848 28.848 28.865 28.883 28.883 28.928 28.925 28.948 28.878 28.87 28.88 28.835 28.82 28.795 28.818 28.848 28.878 28.883 28.928 28.965 29.055 29.103 29.15 29.245 29.275 29.273 28.953 28.658 28.865 29.165 29.108 29.033 29.06 29.088 29.013 28.965 28.96 28.963 28.993 28.998 29.005 29.025 29.065 29.063 29.058 29.028 29.073 29.065 29.083 29.068 29.035 29.053 29.008 28.945 28.908 28.898 28.815 28.81 28.83 28.845 28.828 28.868 28.85 28.845 28.853 28.905 28.923 28.935 28.968 29.028 29.023 29.048 29.098 29.14 29.19 29.248 29.26 29.32 29.375 29.438 29.493 29.548 29.57 29.62 29.648 29.708 29.73 29.735 29.675 29.685 29.66 29.703 29.738 29.78 29.8 29.84 29.933 29.995 30.045 30.118 30.145 30.155 30.22 30.248 30.25 30.275 30.283 30.253 30.258 30.225 30.205 30.17 30.108 30.083 30.035 29.973 29.915 29.89 29.865 29.84 29.858 29.875 29.91 29.92 29.93 29.96 29.933 29.933 29.95 29.943 30 29.985 29.978 29.963 29.938 29.943 29.975 29.953 30.003 30.003 29.995 29.99 29.99 29.945 29.903 29.863 29.765 29.743 29.678 29.673 29.658 29.608 29.578 29.563 29.525 29.475 29.45 29.398 29.338 29.298 29.248 29.23 29.215 29.19 29.163 29.148 29.12 29.12 29.105 29.12 29.163 29.188 29.193 29.225 29.208 29.238 29.3 29.293 29.288 29.318 29.35 29.34 29.373 29.425 29.445
37.973 37.948 37.968 37.955 37.975 37.953 37.958 37.945 37.88 37.87 37.84 37.838 37.82 37.758 37.728 37.713 37.688 37.683 37.658 37.63 37.638 37.613 37.568 37.56 37.533 37.473 37.395 37.37 37.305 37.238 37.215 37.2 37.203 37.133 37.113 37.1 37.045 36.993 36.983 36.965 36.918 36.865 36.88 36.845 36.775 36.76 36.728 36.678 36.583 36.54 36.523 36.495 36.475 36.413 36.393 36.363 36.288 36.245 36.215 36.163 36.105 36.025 35.948 35.845 35.778 35.708 35.638 35.6 35.555 35.478 35.463 35.403 35.35 35.308 35.243 35.218 35.155 35.11 35.063 35.015 34.943 34.935 34.878 34.863 34.798 34.728 34.653 34.615 34.568 34.53 34.48 34.445 34.403 34.35 34.308 34.25 34.24 34.193 34.143 34.085 34.053 34.025 34 34.005 34 33.958 33.965 33.898 33.868 33.863 33.803 33.768 33.723 33.645 33.608 33.518 33.46 33.328 33.268 33.195 33.16 33.08 33.025 32.96 32.908 32.855 32.793 32.808 32.723 32.678 32.618 32.545 32.535 32.46 32.385 32.328 32.285 32.225 32.173 32.108 32.09 32.063 31.995 31.958 31.9 31.803 31.758 31.77 31.755 31.78 31.718 31.62 31.558 31.503 31.458 31.438 31.438 31.388 31.358 31.33 31.298 31.235 31.183 31.203 31.165 31.145 31.105 31.025 30.96 30.808 30.715 30.595 30.488 30.355 30.228 30.183 30.04 30.003 29.943 29.863 29.853 29.825 29.795 29.78 29.743 29.72 29.673 29.588 29.593 29.553 29.515 29.498 29.463 29.42 29.335 29.293 29.208 29.158 29.118 29.07 29.03 28.975 28.965 28.918 28.908 28.92 28.905 28.905 28.895 28.935 28.975 29.038 29.135 29.15 29.198 29.245 29.298 29.33 29.355 29.308 29.298 29.265 29.263 29.205 29.143 29.093 29.02 28.963 28.975 28.995 28.958 28.923 28.93 28.943 28.943 28.918 28.903 28.87 28.883 28.903 28.883 28.863 28.828 28.8 28.813 28.815 28.803 28.768 28.728 28.733 28.735 28.74 28.723 28.738 28.768 28.79 28.82 28.828 28.858 28.883 28.908 28.903 28.928 28.903 28.913 28.908 28.938 28.895 28.883 28.873 28.87 28.833 28.81 28.82 28.858 28.855 28.888 28.905 28.928 28.98 29.048 29.135 29.205 29.265 29.293 29.23 28.805 28.79 28.865 28.995 29.128 29.13 29.138 29.118 29.005 28.99 28.985 29.015 29.048 29.038 29.05 29.083 29.078 29.088 29.063 29.093 29.088 29.083 29.115 29.08 29.018 28.995 28.938 28.903 28.885 28.868 28.79 28.798 28.833 28.813 28.858 28.863 28.875 28.86 28.96 28.978 29.02 29.053 29.098 29.078 29.155 29.245 29.263 29.285 29.35 29.413 29.435 29.5 29.568 29.608 29.655 29.675 29.733 29.775 29.78 29.803 29.808 29.775 29.773 29.738 29.725 29.748 29.755 29.81 29.858 29.893 29.945 30.005 30.083 30.1 30.105 30.158 30.21 30.225 30.253 30.248 30.238 30.228 30.22 30.208 30.185 30.15 30.083 30.043 29.993 29.935 29.905 29.893 29.878 29.863 29.928 29.953 29.973 29.955 29.99 30.005 29.965 29.988 29.975 30.008 29.98 29.978 29.975 29.943 29.95 29.988 29.985 29.963 29.99 29.978 29.97 29.94 29.88 29.858 29.768 29.728 29.66 29.595 29.573 29.595 29.573 29.553 29.475 29.478 29.43 29.368 29.365 29.383 29.295 29.25 29.198 29.183 29.178 29.163 29.155 29.155 29.115 29.14 29.158 29.18 29.2 29.22 29.23 29.23 29.27 29.325 29.335 29.333 29.343 29.375 29.37 29.385 29.44 29.483
38.005 37.973 37.985 37.98 37.97 37.93 37.933 37.923 37.893 37.888 37.838 37.823 37.818 37.75 37.72 37.718 37.68 37.678 37.665 37.613 37.618 37.615 37.553 37.55 37.505 37.455 37.398 37.358 37.315 37.28 37.238 37.203 37.18 37.11 37.103 37.098 37.043 37.003 36.968 36.935 36.935 36.855 36.895 36.83 36.765 36.773 36.72 36.66 36.618 36.57 36.538 36.495 36.5 36.438 36.408 36.343 36.305 36.253 36.22 36.14 36.083 36.015 35.943 35.893 35.825 35.733 35.665 35.61 35.545 35.47 35.48 35.418 35.363 35.298 35.243 35.2 35.165 35.125 35.045 34.993 34.94 34.953 34.898 34.828 34.77 34.735 34.665 34.615 34.535 34.49 34.455 34.423 34.38 34.323 34.303 34.278 34.245 34.208 34.148 34.063 34.05 33.983 34.003 34.028 33.985 33.98 33.918 33.865 33.843 33.835 33.778 33.758 33.703 33.648 33.613 33.495 33.42 33.345 33.253 33.165 33.163 33.078 33.008 32.943 32.928 32.848 32.798 32.765 32.71 32.663 32.588 32.568 32.515 32.435 32.358 32.28 32.248 32.178 32.155 32.12 32.098 32.038 32.018 31.98 31.92 31.833 31.783 31.773 31.75 31.753 31.698 31.605 31.578 31.493 31.448 31.405 31.385 31.335 31.283 31.258 31.24 31.153 31.12 31.1 31.025 31.02 31.033 30.975 30.875 30.75 30.638 30.56 30.48 30.34 30.213 30.12 29.998 29.968 29.898 29.848 29.81 29.755 29.745 29.753 29.723 29.705 29.66 29.598 29.535 29.538 29.52 29.483 29.428 29.403 29.318 29.265 29.18 29.145 29.073 29.045 29.053 28.995 28.965 28.93 28.928 28.915 28.915 28.895 28.895 28.943 29 29.025 29.105 29.178 29.215 29.243 29.305 29.295 29.298 29.29 29.295 29.293 29.24 29.145 29.07 29.01 28.998 29 28.995 28.935 28.933 28.9 28.905 28.935 28.943 28.903 28.885 28.878 28.91 28.905 28.875 28.83 28.83 28.823 28.82 28.803 28.79 28.8 28.73 28.755 28.775 28.765 28.758 28.798 28.803 28.82 28.883 28.85 28.87 28.913 28.918 28.925 28.938 28.893 28.92 28.923 28.9 28.868 28.858 28.84 28.835 28.838 28.83 28.805 28.843 28.845 28.878 28.875 28.895 28.935 29.04 29.093 29.16 29.245 29.268 29.333 29.233 28.963 28.495 28.845 29.123 29.178 29.188 29.228 29.153 29.075 29.015 29.013 29.053 29.045 29.048 29.08 29.123 29.13 29.133 29.133 29.115 29.09 29.123 29.115 29.088 29.043 28.988 28.943 28.888 28.848 28.848 28.81 28.795 28.82 28.845 28.885 28.905 28.92 29.013 29.033 29.073 29.153 29.218 29.23 29.27 29.298 29.4 29.445 29.463 29.505 29.57 29.655 29.67 29.753 29.778 29.783 29.85 29.865 29.823 29.848 29.84 29.818 29.785 29.775 29.753 29.758 29.775 29.805 29.82 29.873 29.923 29.963 30.008 30.003 30.058 30.095 30.128 30.123 30.15 30.208 30.203 30.178 30.19 30.178 30.163 30.115 30.06 30.003 29.975 29.958 29.9 29.923 29.935 29.918 29.943 29.95 29.965 29.983 30.01 30.04 30.013 29.99 29.985 29.998 29.985 29.975 29.968 29.97 29.95 29.953 29.96 29.933 29.915 29.903 29.878 29.833 29.823 29.763 29.675 29.65 29.615 29.588 29.513 29.523 29.523 29.47 29.458 29.443 29.405 29.37 29.345 29.34 29.303 29.25 29.21 29.168 29.193 29.178 29.18 29.183 29.155 29.165 29.18 29.188 29.225 29.215 29.265 29.323 29.318 29.32 29.355 29.38 29.42 29.438 29.438 29.418 29.463 29.52
37.993 38 37.983 37.955 37.975 37.92 37.865 37.89 37.888 37.855 37.818 37.808 37.823 37.74 37.715 37.695 37.648 37.688 37.638 37.625 37.6 37.6 37.563 37.545 37.49 37.45 37.415 37.335 37.305 37.298 37.27 37.225 37.175 37.12 37.098 37.085 37.028 36.98 36.943 36.913 36.915 36.905 36.913 36.86 36.8 36.783 36.718 36.658 36.645 36.583 36.528 36.54 36.5 36.468 36.42 36.373 36.323 36.243 36.213 36.17 36.098 36.045 35.97 35.875 35.813 35.74 35.68 35.61 35.555 35.49 35.493 35.445 35.398 35.29 35.263 35.235 35.153 35.123 35.058 35.003 34.953 34.938 34.893 34.825 34.743 34.673 34.67 34.6 34.555 34.518 34.45 34.423 34.418 34.378 34.295 34.233 34.23 34.175 34.098 34.05 34.038 34.01 34.008 34 33.965 33.975 33.905 33.865 33.815 33.84 33.783 33.733 33.643 33.593 33.555 33.47 33.38 33.345 33.263 33.178 33.113 33.055 32.973 32.915 32.88 32.823 32.805 32.763 32.655 32.64 32.605 32.585 32.515 32.465 32.375 32.305 32.243 32.183 32.123 32.125 32.08 32.015 31.99 31.97 31.953 31.838 31.783 31.74 31.768 31.773 31.69 31.615 31.59 31.515 31.46 31.355 31.338 31.29 31.253 31.195 31.175 31.113 31.108 31.045 31.033 31.023 30.995 30.94 30.825 30.705 30.61 30.48 30.378 30.305 30.19 30.1 29.998 29.958 29.898 29.835 29.838 29.808 29.748 29.718 29.735 29.73 29.633 29.615 29.553 29.53 29.49 29.468 29.43 29.365 29.27 29.225 29.183 29.133 29.095 29.04 29.018 29.008 28.958 28.95 28.913 28.93 28.918 28.913 28.943 28.973 29.03 29.083 29.118 29.163 29.18 29.248 29.3 29.268 29.243 29.253 29.263 29.235 29.208 29.11 29.018 29.018 28.995 28.965 28.935 28.968 28.943 28.893 28.928 28.95 28.933 28.9 28.903 28.933 28.948 28.915 28.875 28.84 28.86 28.833 28.815 28.815 28.835 28.823 28.78 28.79 28.818 28.8 28.805 28.8 28.848 28.868 28.875 28.89 28.908 28.928 28.93 28.94 28.918 28.885 28.893 28.92 28.91 28.873 28.908 28.875 28.845 28.84 28.803 28.788 28.83 28.868 28.903 28.888 28.93 28.925 29.003 29.075 29.148 29.228 29.26 29.303 29.435 29.378 28.59 28.52 29.035 29.228 29.243 29.245 29.22 29.143 29.08 29.01 29 29.033 28.993 29.058 29.12 29.153 29.153 29.143 29.143 29.125 29.125 29.13 29.098 29.033 29.003 28.968 28.893 28.848 28.845 28.835 28.84 28.835 28.883 28.928 28.953 29.003 29.07 29.128 29.158 29.228 29.323 29.36 29.415 29.458 29.52 29.57 29.583 29.623 29.688 29.715 29.76 29.853 29.898 29.885 29.918 29.928 29.855 29.848 29.825 29.815 29.765 29.758 29.778 29.765 29.748 29.775 29.768 29.813 29.833 29.868 29.868 29.893 29.948 29.983 30 30.02 30.07 30.098 30.135 30.11 30.11 30.118 30.098 30.065 30.038 29.993 29.985 29.958 29.923 29.893 29.925 29.933 29.938 29.963 29.983 30 30.028 30.038 30.015 30.028 29.985 30.003 29.97 29.965 29.938 29.948 29.915 29.913 29.915 29.913 29.865 29.828 29.82 29.763 29.72 29.698 29.615 29.583 29.53 29.5 29.458 29.453 29.465 29.405 29.42 29.388 29.393 29.358 29.33 29.285 29.29 29.278 29.213 29.195 29.233 29.223 29.235 29.175 29.203 29.22 29.238 29.233 29.238 29.275 29.318 29.345 29.363 29.348 29.39 29.44 29.453 29.46 29.498 29.473 29.488 29.513
37.963 37.968 37.973 37.903 37.95 37.888 37.855 37.873 37.88 37.845 37.815 37.793 37.775 37.728 37.693 37.653 37.65 37.703 37.628 37.63 37.598 37.588 37.558 37.55 37.513 37.45 37.405 37.335 37.295 37.288 37.23 37.22 37.148 37.123 37.123 37.055 37.02 36.98 36.98 36.928 36.895 36.893 36.893 36.835 36.81 36.763 36.73 36.693 36.62 36.57 36.525 36.508 36.458 36.443 36.423 36.363 36.325 36.268 36.23 36.158 36.085 36.043 35.96 35.87 35.81 35.755 35.705 35.628 35.573 35.525 35.495 35.435 35.378 35.313 35.285 35.223 35.2 35.123 35.038 35.013 34.963 34.913 34.855 34.838 34.74 34.673 34.633 34.578 34.55 34.508 34.448 34.423 34.388 34.323 34.283 34.228 34.21 34.16 34.1 34.043 34.023 34.028 33.985 33.96 33.955 33.948 33.918 33.843 33.835 33.815 33.773 33.725 33.675 33.578 33.535 33.44 33.365 33.318 33.24 33.128 33.105 33.03 32.935 32.925 32.875 32.788 32.805 32.738 32.66 32.653 32.618 32.563 32.503 32.415 32.368 32.283 32.225 32.158 32.12 32.11 32.065 32.008 32.008 31.953 31.88 31.833 31.808 31.783 31.808 31.785 31.693 31.603 31.555 31.57 31.445 31.378 31.335 31.248 31.218 31.12 31.093 31.073 31.058 30.998 30.998 30.998 30.935 30.875 30.795 30.658 30.573 30.475 30.35 30.25 30.138 30.035 30 29.895 29.89 29.895 29.863 29.808 29.753 29.733 29.743 29.71 29.643 29.605 29.543 29.513 29.468 29.46 29.405 29.35 29.27 29.225 29.113 29.09 29.058 29.038 29.033 28.985 28.968 28.95 28.94 28.94 28.928 28.93 28.973 28.99 29.033 29.088 29.095 29.183 29.228 29.228 29.258 29.265 29.215 29.228 29.22 29.188 29.133 29.068 29.013 28.99 29.01 28.98 28.94 28.953 28.95 28.93 28.938 28.94 28.938 28.908 28.918 28.95 28.898 28.893 28.885 28.865 28.87 28.88 28.883 28.868 28.84 28.823 28.8 28.87 28.843 28.815 28.803 28.833 28.865 28.885 28.885 28.938 28.925 28.908 28.908 28.95 28.928 28.923 28.918 28.94 28.875 28.858 28.913 28.89 28.863 28.865 28.818 28.803 28.79 28.84 28.87 28.865 28.935 28.963 29 29.063 29.138 29.188 29.255 29.315 29.43 29.395 28.828 28.343 28.908 29.185 29.253 29.258 29.26 29.203 29.103 29.033 29.015 29.03 29.008 29.058 29.098 29.165 29.165 29.16 29.158 29.165 29.158 29.113 29.093 29.055 29.01 29.008 28.94 28.865 28.88 28.868 28.905 28.86 28.933 28.99 29.05 29.07 29.115 29.228 29.335 29.38 29.42 29.468 29.533 29.62 29.648 29.695 29.72 29.72 29.758 29.773 29.843 29.913 29.925 29.945 29.965 29.96 29.918 29.845 29.818 29.815 29.803 29.748 29.74 29.738 29.73 29.745 29.735 29.758 29.775 29.798 29.783 29.778 29.803 29.84 29.853 29.863 29.91 29.965 30.02 30.02 30.043 30.05 30.028 30.018 29.985 29.96 29.915 29.945 29.943 29.898 29.928 29.94 29.928 29.953 29.958 29.983 30.008 29.993 30.023 30.015 30.01 29.98 29.963 29.955 29.88 29.875 29.86 29.813 29.838 29.828 29.765 29.755 29.715 29.683 29.655 29.583 29.548 29.508 29.443 29.398 29.38 29.393 29.393 29.365 29.365 29.318 29.295 29.358 29.298 29.255 29.283 29.27 29.255 29.245 29.235 29.238 29.255 29.203 29.24 29.25 29.285 29.263 29.26 29.303 29.35 29.37 29.378 29.408 29.418 29.443 29.47 29.48 29.518 29.51 29.515 29.5
37.948 37.963 37.943 37.905 37.903 37.888 37.858 37.843 37.853 37.815 37.79 37.775 37.778 37.718 37.653 37.62 37.615 37.623 37.595 37.603 37.578 37.563 37.573 37.513 37.488 37.403 37.378 37.318 37.303 37.298 37.22 37.193 37.115 37.09 37.118 37.055 37.045 36.983 36.948 36.93 36.918 36.893 36.88 36.863 36.808 36.745 36.743 36.688 36.613 36.56 36.523 36.5 36.515 36.428 36.403 36.353 36.31 36.243 36.235 36.17 36.105 36.043 35.963 35.9 35.823 35.768 35.7 35.653 35.625 35.535 35.498 35.478 35.418 35.288 35.298 35.218 35.19 35.133 35.083 35.008 34.96 34.92 34.858 34.82 34.75 34.713 34.633 34.573 34.533 34.475 34.428 34.413 34.375 34.33 34.278 34.238 34.198 34.168 34.11 34.068 34.028 34.025 34.003 33.96 33.953 33.918 33.923 33.833 33.83 33.78 33.753 33.718 33.655 33.568 33.498 33.395 33.35 33.305 33.17 33.088 33.085 33.013 32.918 32.893 32.863 32.808 32.768 32.703 32.625 32.61 32.603 32.563 32.498 32.403 32.36 32.275 32.238 32.173 32.168 32.1 32.045 31.985 31.978 31.94 31.905 31.833 31.805 31.768 31.805 31.77 31.678 31.615 31.585 31.513 31.438 31.38 31.325 31.22 31.16 31.08 31.033 31.033 31.015 30.958 30.955 30.953 30.868 30.828 30.745 30.638 30.52 30.443 30.35 30.278 30.18 30.073 30.028 29.9 29.905 29.913 29.858 29.795 29.775 29.76 29.735 29.633 29.668 29.618 29.583 29.523 29.47 29.443 29.413 29.37 29.29 29.23 29.153 29.108 29.083 29.068 29.023 28.98 28.983 28.963 28.965 28.955 28.938 28.945 29.015 29.025 29.063 29.13 29.153 29.168 29.243 29.228 29.243 29.235 29.21 29.188 29.18 29.16 29.103 29.098 29.025 29.018 29.01 28.993 28.943 28.955 28.963 28.963 28.968 29.003 28.97 28.983 28.943 28.955 28.933 28.943 28.9 28.868 28.875 28.888 28.87 28.903 28.903 28.898 28.89 28.9 28.875 28.845 28.863 28.863 28.878 28.935 28.9 28.923 28.933 28.93 28.923 28.938 28.923 28.903 28.938 28.933 28.86 28.878 28.875 28.865 28.885 28.858 28.825 28.813 28.795 28.808 28.835 28.868 28.893 28.943 29.005 29.058 29.128 29.16 29.248 29.315 29.405 29.515 29.285 28.763 28.593 28.995 29.26 29.258 29.253 29.228 29.128 29.06 28.985 28.955 28.975 29.03 29.11 29.128 29.143 29.143 29.188 29.2 29.14 29.125 29.085 29.048 28.99 28.96 28.953 28.865 28.913 28.94 28.94 28.965 28.978 29.025 29.12 29.158 29.213 29.293 29.423 29.493 29.545 29.58 29.645 29.72 29.783 29.775 29.813 29.838 29.833 29.875 29.863 29.928 29.955 29.965 29.97 29.968 29.9 29.875 29.823 29.763 29.775 29.715 29.703 29.66 29.673 29.64 29.658 29.663 29.643 29.643 29.638 29.65 29.66 29.698 29.723 29.748 29.798 29.823 29.86 29.908 29.9 29.875 29.928 29.92 29.883 29.845 29.898 29.923 29.913 29.905 29.925 29.923 29.918 29.89 29.898 29.958 29.978 29.995 29.973 29.955 29.93 29.95 29.93 29.908 29.828 29.795 29.795 29.763 29.738 29.72 29.698 29.643 29.66 29.61 29.553 29.47 29.445 29.448 29.363 29.365 29.338 29.335 29.345 29.35 29.33 29.305 29.295 29.303 29.313 29.273 29.28 29.31 29.29 29.285 29.255 29.265 29.263 29.258 29.278 29.305 29.32 29.32 29.318 29.348 29.39 29.403 29.485 29.45 29.478 29.495 29.473 29.5 29.518 29.538 29.528 29.54
37.935 37.948 37.943 37.923 37.918 37.878 37.86 37.853 37.853 37.808 37.763 37.765 37.76 37.71 37.668 37.638 37.633 37.615 37.583 37.593 37.568 37.505 37.525 37.493 37.45 37.375 37.358 37.323 37.293 37.268 37.258 37.19 37.143 37.123 37.128 37.038 37.03 36.99 36.943 36.955 36.938 36.885 36.883 36.858 36.818 36.758 36.73 36.685 36.61 36.553 36.53 36.508 36.53 36.46 36.413 36.348 36.295 36.268 36.235 36.18 36.088 36.038 35.963 35.908 35.81 35.79 35.708 35.683 35.648 35.593 35.475 35.473 35.415 35.32 35.28 35.253 35.213 35.125 35.055 35.015 34.968 34.863 34.835 34.77 34.733 34.68 34.633 34.528 34.51 34.5 34.418 34.4 34.355 34.303 34.265 34.248 34.2 34.15 34.075 34.065 34.03 34.048 33.995 33.938 33.963 33.93 33.908 33.86 33.815 33.798 33.715 33.71 33.65 33.573 33.508 33.41 33.318 33.265 33.165 33.073 33.055 32.98 32.908 32.913 32.873 32.773 32.763 32.693 32.613 32.613 32.61 32.56 32.473 32.42 32.348 32.298 32.22 32.178 32.15 32.095 32.05 32.005 31.968 31.883 31.858 31.838 31.783 31.773 31.805 31.743 31.655 31.585 31.585 31.538 31.463 31.393 31.278 31.213 31.093 31.05 31.008 30.988 30.993 30.933 30.91 30.903 30.835 30.765 30.705 30.615 30.53 30.453 30.365 30.288 30.213 30.103 30.058 29.975 29.95 29.953 29.905 29.858 29.825 29.78 29.765 29.688 29.688 29.638 29.595 29.538 29.51 29.485 29.438 29.38 29.308 29.225 29.163 29.115 29.08 29.038 29.028 29.003 29.013 28.968 28.97 28.955 28.945 28.95 28.988 29.075 29.1 29.14 29.175 29.185 29.225 29.198 29.235 29.233 29.183 29.168 29.163 29.14 29.09 29.078 29.018 29.008 29.013 29.01 28.978 28.98 28.975 28.968 29 29.028 28.988 28.975 28.96 29.01 28.943 28.963 28.938 28.935 28.918 28.915 28.928 28.935 28.923 28.925 28.935 28.945 28.91 28.903 28.91 28.905 28.94 28.965 28.948 28.93 28.943 28.948 28.938 28.948 28.93 28.938 28.943 28.908 28.87 28.855 28.86 28.86 28.885 28.86 28.835 28.82 28.758 28.785 28.848 28.88 28.88 28.95 28.985 29.018 29.088 29.175 29.228 29.293 29.375 29.485 29.605 29.143 28.658 28.845 29.238 29.233 29.23 29.223 29.185 29.085 29.008 28.97 29.013 29.038 29.07 29.115 29.148 29.165 29.165 29.19 29.168 29.09 29.058 29.023 28.965 28.953 28.985 28.885 28.875 28.955 28.978 29.033 29.04 29.118 29.21 29.283 29.31 29.388 29.495 29.618 29.675 29.683 29.748 29.865 29.868 29.86 29.885 29.91 29.903 29.943 29.963 29.993 29.973 30.008 29.96 29.943 29.9 29.85 29.778 29.76 29.705 29.68 29.653 29.593 29.59 29.555 29.558 29.52 29.503 29.525 29.525 29.558 29.52 29.555 29.598 29.605 29.65 29.7 29.72 29.76 29.755 29.755 29.793 29.82 29.828 29.818 29.83 29.848 29.885 29.87 29.905 29.88 29.86 29.845 29.883 29.903 29.905 29.935 29.923 29.883 29.853 29.843 29.863 29.825 29.77 29.693 29.678 29.675 29.623 29.625 29.615 29.57 29.525 29.49 29.465 29.433 29.363 29.375 29.335 29.33 29.308 29.265 29.265 29.278 29.3 29.295 29.275 29.283 29.31 29.283 29.308 29.32 29.338 29.34 29.315 29.365 29.32 29.315 29.353 29.34 29.325 29.373 29.38 29.365 29.435 29.433 29.493 29.503 29.513 29.513 29.54 29.548 29.548 29.548 29.568 29.548
37.945 37.955 37.93 37.92 37.918 37.865 37.85 37.813 37.803 37.785 37.773 37.763 37.72 37.655 37.658 37.625 37.61 37.61 37.613 37.565 37.54 37.503 37.455 37.428 37.408 37.388 37.343 37.293 37.25 37.253 37.235 37.185 37.15 37.125 37.098 37.048 37.038 36.97 36.95 36.968 36.95 36.915 36.9 36.83 36.82 36.75 36.713 36.693 36.583 36.553 36.53 36.513 36.495 36.45 36.385 36.36 36.34 36.265 36.228 36.173 36.108 36.033 35.963 35.915 35.845 35.813 35.745 35.703 35.653 35.59 35.508 35.495 35.405 35.33 35.27 35.24 35.175 35.138 35.055 35.033 34.915 34.85 34.855 34.79 34.73 34.665 34.615 34.568 34.515 34.468 34.433 34.398 34.348 34.288 34.275 34.215 34.143 34.09 34.08 34.038 34.003 33.995 33.948 33.945 33.958 33.95 33.905 33.855 33.818 33.795 33.713 33.68 33.588 33.538 33.475 33.39 33.303 33.243 33.14 33.065 33.033 32.963 32.92 32.91 32.845 32.778 32.75 32.688 32.643 32.595 32.57 32.533 32.468 32.403 32.31 32.27 32.175 32.163 32.125 32.068 32.015 31.998 31.93 31.883 31.798 31.815 31.765 31.78 31.808 31.698 31.61 31.578 31.568 31.55 31.44 31.365 31.255 31.203 31.098 31.015 30.983 30.975 30.958 30.935 30.91 30.853 30.815 30.77 30.71 30.593 30.528 30.455 30.4 30.32 30.263 30.165 30.098 30.05 30.04 30.01 29.985 29.935 29.895 29.853 29.835 29.763 29.728 29.663 29.64 29.605 29.565 29.523 29.473 29.378 29.325 29.238 29.175 29.135 29.12 29.08 29.045 29.015 29.01 28.985 28.96 29.005 28.985 28.998 29.008 29.088 29.128 29.145 29.15 29.19 29.195 29.193 29.223 29.173 29.153 29.14 29.125 29.14 29.105 29.04 29.025 29.063 29.033 29.013 29.005 28.973 28.983 28.99 29.08 29.065 29.013 28.995 29.018 29.048 29.025 29.015 28.963 28.98 28.99 28.953 28.993 28.995 28.99 28.953 28.958 29.005 28.965 28.958 28.938 28.93 28.983 28.983 28.953 28.95 28.958 28.978 28.988 28.975 28.943 28.9 28.923 28.88 28.878 28.868 28.858 28.863 28.883 28.813 28.8 28.823 28.788 28.825 28.853 28.868 28.9 28.925 28.963 28.998 29.068 29.19 29.243 29.283 29.355 29.458 29.555 29.3 28.835 28.638 29.158 29.245 29.218 29.235 29.198 29.12 29.03 29.02 29.028 29.048 29.073 29.09 29.133 29.16 29.173 29.16 29.138 29.073 29.03 29.03 29.023 28.968 29.003 29.005 28.995 29.003 29.038 29.095 29.135 29.215 29.263 29.375 29.468 29.508 29.605 29.655 29.775 29.84 29.888 29.948 30.003 29.975 29.98 29.96 29.923 29.948 30.013 30.005 29.97 29.988 29.94 29.87 29.808 29.795 29.728 29.663 29.625 29.608 29.518 29.51 29.508 29.465 29.43 29.4 29.408 29.358 29.378 29.37 29.38 29.443 29.468 29.495 29.518 29.558 29.565 29.605 29.613 29.64 29.703 29.685 29.705 29.738 29.723 29.755 29.788 29.793 29.78 29.79 29.773 29.788 29.793 29.825 29.813 29.83 29.785 29.793 29.783 29.735 29.728 29.725 29.68 29.638 29.578 29.545 29.485 29.495 29.513 29.5 29.425 29.4 29.425 29.39 29.31 29.315 29.3 29.265 29.23 29.24 29.238 29.25 29.29 29.293 29.318 29.278 29.288 29.34 29.32 29.32 29.355 29.33 29.31 29.333 29.345 29.365 29.36 29.335 29.368 29.378 29.395 29.418 29.468 29.483 29.513 29.555 29.548 29.55 29.545 29.583 29.605 29.638 29.62 29.603
37.88 37.895 37.885 37.883 37.888 37.86 37.865 37.828 37.778 37.775 37.743 37.705 37.673 37.655 37.633 37.59 37.62 37.613 37.563 37.535 37.498 37.5 37.46 37.41 37.38 37.37 37.308 37.238 37.245 37.235 37.175 37.16 37.103 37.115 37.095 37.053 37.013 36.968 36.98 36.975 36.948 36.933 36.9 36.838 36.793 36.755 36.708 36.675 36.63 36.563 36.543 36.52 36.483 36.455 36.388 36.343 36.355 36.3 36.208 36.173 36.11 36.038 35.993 35.908 35.86 35.808 35.738 35.73 35.68 35.613 35.538 35.495 35.433 35.368 35.278 35.26 35.18 35.11 35.045 35.023 34.95 34.923 34.838 34.775 34.72 34.68 34.623 34.548 34.468 34.463 34.428 34.378 34.363 34.298 34.248 34.21 34.153 34.083 34.058 34.045 34.058 34.02 34.015 33.96 33.935 33.913 33.905 33.848 33.808 33.77 33.713 33.693 33.59 33.538 33.46 33.353 33.31 33.24 33.13 33.053 33.02 32.94 32.908 32.89 32.828 32.763 32.715 32.66 32.608 32.573 32.563 32.54 32.468 32.383 32.29 32.265 32.178 32.178 32.138 32.038 32.003 31.973 31.923 31.865 31.783 31.76 31.72 31.743 31.758 31.64 31.595 31.56 31.575 31.515 31.433 31.36 31.248 31.13 31.045 30.963 30.943 30.935 30.918 30.918 30.885 30.833 30.825 30.758 30.718 30.625 30.57 30.488 30.438 30.358 30.308 30.228 30.155 30.118 30.088 30.03 30.015 30.013 29.968 29.913 29.908 29.785 29.738 29.728 29.7 29.64 29.605 29.55 29.458 29.423 29.38 29.288 29.245 29.218 29.16 29.135 29.093 29.088 29.048 29.01 28.993 29 29.005 29.02 29.055 29.095 29.12 29.16 29.188 29.235 29.225 29.185 29.173 29.14 29.153 29.15 29.118 29.178 29.145 29.088 29.018 29.035 29.023 29.005 29 28.975 28.99 29.018 29.09 29.058 29.065 29.02 29.045 29.063 29.063 29.035 29.003 29.035 29.018 29.023 29.043 29.06 29.03 29.025 29.015 29.035 29.02 29.028 28.993 28.988 28.998 28.975 28.965 28.995 28.995 29.015 28.985 28.955 28.935 28.928 28.948 28.86 28.855 28.83 28.86 28.873 28.878 28.855 28.83 28.815 28.845 28.875 28.833 28.85 28.88 28.915 28.93 28.943 29.005 29.11 29.218 29.258 29.348 29.453 29.523 29.54 29.273 28.513 28.963 29.26 29.198 29.218 29.213 29.155 29.095 29.053 28.993 29.053 29.095 29.115 29.16 29.18 29.165 29.16 29.128 29.098 29.04 29.028 29.05 29.033 29.028 29.05 29.073 29.08 29.078 29.218 29.26 29.335 29.385 29.448 29.555 29.66 29.695 29.758 29.893 29.95 29.958 29.998 30.023 30.043 30.055 30.013 29.995 30 30.013 29.993 29.955 29.918 29.88 29.828 29.75 29.718 29.685 29.605 29.543 29.525 29.445 29.425 29.388 29.353 29.32 29.318 29.308 29.253 29.223 29.248 29.238 29.28 29.32 29.348 29.345 29.408 29.435 29.49 29.51 29.52 29.568 29.565 29.62 29.635 29.615 29.683 29.718 29.733 29.735 29.728 29.69 29.703 29.683 29.678 29.703 29.69 29.663 29.665 29.673 29.628 29.56 29.575 29.56 29.515 29.468 29.46 29.453 29.403 29.41 29.405 29.33 29.333 29.33 29.313 29.24 29.235 29.228 29.213 29.208 29.24 29.215 29.25 29.288 29.323 29.348 29.33 29.318 29.353 29.37 29.36 29.355 29.355 29.348 29.35 29.375 29.4 29.418 29.378 29.423 29.41 29.458 29.478 29.505 29.543 29.563 29.573 29.605 29.603 29.608 29.648 29.653 29.643 29.638 29.66
37.858 37.845 37.86 37.86 37.878 37.855 37.818 37.818 37.72 37.71 37.74 37.693 37.663 37.67 37.635 37.583 37.603 37.57 37.558 37.513 37.483 37.448 37.43 37.398 37.368 37.358 37.285 37.25 37.238 37.19 37.133 37.133 37.115 37.103 37.048 37.025 37.01 36.958 36.97 36.983 36.938 36.913 36.873 36.828 36.803 36.758 36.708 36.673 36.61 36.575 36.565 36.538 36.5 36.455 36.405 36.375 36.33 36.3 36.213 36.155 36.093 36.043 35.995 35.9 35.86 35.815 35.763 35.735 35.675 35.608 35.54 35.498 35.42 35.373 35.293 35.25 35.185 35.133 35.07 35.008 34.995 34.918 34.845 34.79 34.705 34.67 34.633 34.563 34.49 34.468 34.405 34.38 34.33 34.298 34.225 34.185 34.143 34.04 34.005 34.025 34.045 34.018 33.99 33.953 33.928 33.913 33.895 33.85 33.798 33.745 33.71 33.668 33.595 33.51 33.433 33.333 33.27 33.198 33.145 33.04 33.008 32.943 32.89 32.855 32.808 32.748 32.703 32.665 32.583 32.585 32.578 32.53 32.455 32.398 32.293 32.265 32.178 32.14 32.13 31.998 32.003 31.955 31.92 31.835 31.768 31.745 31.725 31.75 31.673 31.59 31.545 31.533 31.518 31.495 31.415 31.353 31.243 31.135 31.043 30.975 30.95 30.905 30.93 30.903 30.895 30.868 30.843 30.795 30.753 30.67 30.623 30.58 30.49 30.41 30.375 30.325 30.263 30.22 30.183 30.143 30.098 30.078 30.038 30.025 29.94 29.88 29.818 29.798 29.748 29.7 29.633 29.6 29.518 29.435 29.405 29.33 29.28 29.22 29.173 29.138 29.088 29.105 29.093 29.06 29.038 29.003 29.02 29.048 29.083 29.11 29.153 29.168 29.173 29.205 29.185 29.158 29.145 29.105 29.128 29.15 29.15 29.138 29.085 29.028 29.058 29.053 29.05 29.013 29.018 28.96 29.023 29.058 29.085 29.07 29.085 29.033 29.043 29.053 29.06 29.053 29.05 29.02 29.025 29.058 29.073 29.093 29.043 29.025 29.045 29.03 29.038 29.055 29.02 29.03 29.04 29.008 29.048 29.06 29.025 29.035 28.985 28.973 28.958 28.96 28.948 28.863 28.868 28.843 28.853 28.895 28.868 28.873 28.84 28.78 28.838 28.873 28.883 28.838 28.88 28.89 28.918 28.948 29.018 29.073 29.198 29.255 29.305 29.38 29.483 29.535 29.54 28.7 28.573 29.17 29.215 29.215 29.213 29.205 29.135 29.095 29.03 29.06 29.078 29.11 29.153 29.14 29.155 29.123 29.118 29.08 29.05 29.045 29.105 29.09 29.115 29.16 29.158 29.16 29.208 29.288 29.31 29.388 29.453 29.55 29.6 29.74 29.848 29.883 29.938 29.983 30.015 30.03 30.038 30.033 30.055 30.043 30.015 29.978 29.96 29.958 29.928 29.853 29.798 29.79 29.693 29.578 29.578 29.513 29.455 29.41 29.383 29.318 29.29 29.27 29.208 29.208 29.175 29.138 29.093 29.128 29.1 29.108 29.163 29.238 29.22 29.265 29.305 29.343 29.398 29.41 29.45 29.468 29.475 29.518 29.55 29.56 29.585 29.625 29.62 29.598 29.605 29.575 29.58 29.585 29.595 29.578 29.533 29.543 29.545 29.52 29.463 29.438 29.45 29.423 29.39 29.38 29.343 29.303 29.268 29.293 29.32 29.255 29.248 29.253 29.225 29.17 29.165 29.175 29.253 29.265 29.28 29.275 29.25 29.29 29.323 29.335 29.343 29.355 29.395 29.39 29.38 29.385 29.413 29.4 29.398 29.425 29.445 29.403 29.438 29.478 29.508 29.513 29.535 29.555 29.575 29.613 29.605 29.618 29.633 29.665 29.665 29.663 29.655 29.673
37.813 37.815 37.808 37.85 37.818 37.85 37.805 37.773 37.748 37.7 37.713 37.675 37.618 37.608 37.588 37.565 37.558 37.523 37.533 37.49 37.463 37.423 37.385 37.373 37.358 37.305 37.26 37.235 37.233 37.17 37.12 37.103 37.09 37.053 37.038 36.998 37.003 36.963 36.945 36.97 36.983 36.91 36.89 36.86 36.788 36.738 36.713 36.673 36.605 36.563 36.548 36.513 36.478 36.435 36.405 36.388 36.358 36.308 36.235 36.183 36.113 36.058 35.983 35.913 35.915 35.853 35.775 35.715 35.69 35.625 35.578 35.533 35.433 35.365 35.305 35.255 35.195 35.1 35.065 34.98 34.975 34.923 34.83 34.773 34.685 34.635 34.593 34.555 34.488 34.428 34.375 34.355 34.3 34.25 34.218 34.18 34.128 34.043 34.018 34.023 34.018 34.005 33.97 33.99 33.928 33.91 33.893 33.88 33.808 33.733 33.7 33.658 33.588 33.5 33.435 33.29 33.228 33.168 33.128 33.038 33.013 32.95 32.89 32.85 32.795 32.745 32.685 32.683 32.605 32.585 32.555 32.528 32.46 32.378 32.3 32.26 32.198 32.125 32.08 32.003 32 31.93 31.895 31.788 31.74 31.695 31.693 31.705 31.638 31.558 31.528 31.533 31.47 31.425 31.38 31.333 31.223 31.13 31.035 30.998 30.965 30.918 30.925 30.903 30.888 30.888 30.863 30.83 30.828 30.758 30.71 30.678 30.57 30.518 30.473 30.403 30.355 30.33 30.27 30.188 30.178 30.195 30.143 30.065 30 29.955 29.898 29.85 29.813 29.75 29.713 29.638 29.563 29.51 29.435 29.365 29.34 29.293 29.24 29.193 29.165 29.145 29.113 29.06 29.065 29.023 29.068 29.08 29.118 29.16 29.215 29.198 29.168 29.213 29.195 29.153 29.15 29.108 29.115 29.128 29.098 29.058 29.025 29.04 29.03 29.015 29.033 29.013 29.01 28.98 29.03 29.07 29.085 29.068 29.1 29.103 29.093 29.088 29.103 29.09 29.098 29.073 29.073 29.088 29.093 29.1 29.103 29.078 29.085 29.063 29.07 29.09 29.028 29.025 29.038 29.02 29.04 29.06 29.068 29.05 29 28.99 29.005 28.985 28.933 28.9 28.88 28.845 28.89 28.895 28.865 28.858 28.875 28.84 28.835 28.878 28.865 28.835 28.885 28.908 28.898 28.97 29.055 29.093 29.143 29.23 29.3 29.345 29.433 29.505 29.515 29.093 28.44 28.855 29.198 29.22 29.198 29.19 29.158 29.093 29.053 29.063 29.093 29.128 29.148 29.128 29.16 29.168 29.118 29.078 29.088 29.08 29.11 29.143 29.148 29.225 29.268 29.26 29.338 29.373 29.423 29.495 29.55 29.66 29.743 29.84 29.895 29.96 30.005 30.048 30.068 30.07 30.075 30.075 30.023 30.04 30.023 29.95 29.92 29.87 29.863 29.758 29.695 29.665 29.61 29.523 29.48 29.398 29.365 29.323 29.255 29.215 29.178 29.148 29.088 29.068 29.068 29.008 28.973 29.035 29.01 29.03 29.07 29.128 29.145 29.168 29.208 29.263 29.298 29.298 29.333 29.355 29.4 29.413 29.44 29.428 29.483 29.503 29.515 29.485 29.458 29.458 29.46 29.465 29.453 29.423 29.365 29.413 29.398 29.393 29.373 29.343 29.358 29.365 29.313 29.265 29.245 29.243 29.233 29.198 29.24 29.23 29.22 29.215 29.243 29.175 29.17 29.218 29.253 29.245 29.28 29.265 29.278 29.323 29.375 29.33 29.355 29.36 29.428 29.43 29.41 29.42 29.475 29.428 29.43 29.463 29.468 29.435 29.46 29.513 29.508 29.533 29.575 29.573 29.615 29.658 29.635 29.67 29.66 29.693 29.708 29.693 29.68 29.7
37.805 37.795 37.805 37.823 37.798 37.803 37.795 37.768 37.748 37.695 37.66 37.648 37.62 37.598 37.558 37.57 37.52 37.495 37.505 37.458 37.45 37.423 37.37 37.318 37.335 37.3 37.238 37.225 37.203 37.153 37.1 37.113 37.08 37.025 37.005 36.958 36.985 36.983 36.933 36.95 36.93 36.908 36.853 36.83 36.783 36.753 36.713 36.67 36.598 36.553 36.528 36.52 36.515 36.443 36.388 36.373 36.385 36.283 36.243 36.205 36.13 36.065 35.978 35.953 35.91 35.848 35.775 35.74 35.695 35.643 35.588 35.533 35.445 35.368 35.34 35.295 35.215 35.125 35.063 35.01 34.965 34.908 34.813 34.78 34.713 34.633 34.595 34.54 34.463 34.42 34.375 34.33 34.298 34.23 34.198 34.135 34.073 34.015 33.993 34.018 34.005 33.99 33.965 33.945 33.918 33.893 33.875 33.85 33.793 33.745 33.683 33.628 33.59 33.493 33.425 33.323 33.255 33.185 33.09 33.058 33.02 32.938 32.885 32.838 32.77 32.748 32.683 32.65 32.61 32.593 32.543 32.5 32.425 32.36 32.328 32.285 32.188 32.115 32.055 31.983 31.94 31.913 31.855 31.775 31.723 31.675 31.67 31.668 31.58 31.51 31.483 31.45 31.443 31.395 31.383 31.323 31.23 31.173 31.058 31.023 30.965 30.928 30.945 30.948 30.963 30.918 30.908 30.875 30.88 30.835 30.803 30.77 30.673 30.618 30.578 30.543 30.493 30.428 30.383 30.303 30.325 30.3 30.22 30.128 30.048 30.03 29.98 29.908 29.863 29.81 29.778 29.693 29.645 29.593 29.478 29.42 29.38 29.343 29.283 29.253 29.225 29.185 29.118 29.143 29.125 29.068 29.08 29.1 29.128 29.175 29.218 29.185 29.198 29.178 29.173 29.153 29.105 29.08 29.125 29.115 29.113 29.113 29.088 29.043 29.028 29.04 29.04 29.028 29.015 29.023 28.99 29.035 29.08 29.088 29.093 29.128 29.115 29.075 29.153 29.158 29.15 29.1 29.093 29.118 29.15 29.158 29.13 29.123 29.128 29.095 29.093 29.088 29.048 29.053 29.073 29.055 29.065 29.043 29.063 29.028 28.993 28.993 28.99 29.028 28.97 28.928 28.87 28.898 28.925 28.928 28.898 28.85 28.855 28.843 28.845 28.88 28.878 28.868 28.865 28.908 28.93 28.985 29.05 29.125 29.135 29.23 29.275 29.333 29.428 29.49 29.525 29.423 28.6 28.493 28.935 29.2 29.2 29.198 29.185 29.1 29.06 29.07 29.09 29.1 29.123 29.128 29.15 29.165 29.12 29.113 29.128 29.123 29.15 29.183 29.228 29.28 29.353 29.383 29.405 29.45 29.533 29.603 29.688 29.775 29.84 29.903 29.978 30.028 30.07 30.115 30.138 30.108 30.083 30.07 30.035 30.008 29.98 29.943 29.88 29.78 29.75 29.695 29.613 29.548 29.483 29.41 29.333 29.28 29.25 29.183 29.153 29.118 29.08 29.058 29.013 29 28.96 28.918 28.94 28.943 28.92 28.948 28.94 29.005 29.043 29.078 29.118 29.155 29.178 29.18 29.223 29.245 29.28 29.29 29.345 29.33 29.358 29.385 29.4 29.408 29.385 29.378 29.365 29.34 29.335 29.325 29.27 29.285 29.268 29.268 29.268 29.245 29.268 29.278 29.253 29.225 29.16 29.133 29.18 29.175 29.19 29.188 29.173 29.155 29.203 29.218 29.195 29.238 29.255 29.26 29.285 29.258 29.275 29.298 29.358 29.375 29.363 29.405 29.413 29.45 29.473 29.43 29.44 29.435 29.448 29.475 29.505 29.52 29.543 29.608 29.568 29.558 29.565 29.603 29.658 29.698 29.688 29.693 29.683 29.668 29.715 29.723 29.713 29.725
37.79 37.773 37.8 37.815 37.78 37.803 37.783 37.745 37.71 37.705 37.648 37.603 37.605 37.57 37.535 37.513 37.52 37.465 37.455 37.435 37.438 37.413 37.375 37.308 37.28 37.258 37.205 37.2 37.17 37.123 37.088 37.098 37.073 37.028 36.995 36.963 36.958 36.965 36.94 36.948 36.903 36.925 36.875 36.835 36.79 36.723 36.68 36.688 36.618 36.578 36.54 36.54 36.508 36.45 36.418 36.388 36.37 36.33 36.223 36.18 36.15 36.05 35.978 35.93 35.88 35.855 35.793 35.753 35.693 35.648 35.585 35.51 35.445 35.365 35.348 35.27 35.218 35.153 35.105 35.02 34.958 34.903 34.84 34.788 34.713 34.648 34.578 34.515 34.463 34.395 34.363 34.325 34.295 34.218 34.175 34.105 34.058 34.018 33.983 33.993 33.995 33.968 33.963 33.94 33.925 33.918 33.873 33.848 33.79 33.743 33.675 33.613 33.598 33.495 33.413 33.318 33.258 33.17 33.115 33.078 33 32.938 32.875 32.838 32.793 32.74 32.685 32.635 32.618 32.578 32.555 32.515 32.413 32.365 32.335 32.248 32.208 32.145 32.063 32.01 31.948 31.92 31.835 31.74 31.713 31.653 31.658 31.623 31.53 31.485 31.468 31.423 31.43 31.445 31.388 31.31 31.255 31.19 31.093 31.025 30.96 30.993 31.013 30.948 30.983 30.99 30.978 30.945 30.918 30.91 30.87 30.84 30.758 30.743 30.713 30.66 30.6 30.608 30.515 30.485 30.443 30.388 30.335 30.27 30.175 30.155 30.05 29.968 29.95 29.905 29.853 29.778 29.695 29.66 29.57 29.503 29.413 29.36 29.325 29.29 29.25 29.235 29.163 29.15 29.14 29.12 29.118 29.143 29.16 29.193 29.213 29.203 29.193 29.185 29.175 29.165 29.065 29.05 29.07 29.085 29.113 29.115 29.07 29.055 29.025 28.985 29.035 29.035 29.02 29.065 29.03 29.063 29.085 29.103 29.118 29.123 29.143 29.11 29.153 29.175 29.14 29.148 29.145 29.128 29.15 29.168 29.145 29.135 29.143 29.103 29.11 29.123 29.1 29.09 29.075 29.083 29.08 29.063 29.08 29.075 29.03 29.025 29.013 29.005 28.958 28.978 28.928 28.948 28.925 28.965 28.948 28.863 28.873 28.863 28.868 28.845 28.873 28.865 28.855 28.918 28.958 29.008 29.048 29.108 29.16 29.235 29.293 29.34 29.405 29.458 29.553 29.58 29.018 28.325 28.658 29.125 29.193 29.165 29.195 29.13 29.078 29.11 29.125 29.103 29.12 29.163 29.123 29.15 29.155 29.138 29.143 29.168 29.198 29.248 29.33 29.355 29.42 29.455 29.503 29.57 29.645 29.705 29.788 29.86 29.953 30.003 30.06 30.12 30.113 30.148 30.143 30.105 30.073 30.07 30.038 29.96 29.913 29.843 29.78 29.713 29.643 29.575 29.488 29.438 29.365 29.308 29.223 29.173 29.12 29.065 29.06 29.02 28.988 28.96 28.925 28.893 28.865 28.88 28.85 28.86 28.843 28.855 28.878 28.915 28.993 28.965 29 29.055 29.093 29.088 29.14 29.19 29.175 29.213 29.27 29.288 29.28 29.323 29.325 29.305 29.285 29.273 29.265 29.223 29.205 29.23 29.218 29.203 29.2 29.195 29.223 29.185 29.2 29.213 29.193 29.165 29.155 29.153 29.148 29.14 29.148 29.15 29.16 29.16 29.193 29.223 29.2 29.22 29.27 29.235 29.295 29.295 29.313 29.34 29.378 29.42 29.415 29.44 29.443 29.46 29.483 29.475 29.473 29.54 29.543 29.53 29.568 29.538 29.525 29.6 29.6 29.593 29.613 29.648 29.643 29.658 29.645 29.693 29.675 29.695 29.71 29.74 29.755 29.705
37.763 37.743 37.768 37.745 37.753 37.733 37.728 37.725 37.693 37.71 37.648 37.583 37.573 37.545 37.548 37.49 37.485 37.438 37.425 37.39 37.393 37.365 37.31 37.278 37.26 37.228 37.183 37.185 37.16 37.13 37.108 37.065 37.023 37.018 37.008 36.97 36.948 36.963 36.95 36.96 36.928 36.88 36.888 36.828 36.793 36.725 36.715 36.67 36.643 36.62 36.563 36.54 36.533 36.483 36.44 36.385 36.365 36.305 36.235 36.203 36.113 36.05 35.978 35.91 35.865 35.828 35.798 35.77 35.72 35.65 35.58 35.535 35.445 35.37 35.343 35.305 35.228 35.148 35.093 35.023 34.973 34.893 34.81 34.76 34.688 34.625 34.588 34.498 34.448 34.4 34.343 34.323 34.263 34.21 34.168 34.113 34.06 34.02 33.985 34.005 33.993 33.965 33.95 33.93 33.923 33.918 33.888 33.825 33.768 33.72 33.695 33.638 33.56 33.49 33.403 33.315 33.253 33.193 33.105 33.053 33.028 32.973 32.903 32.858 32.808 32.763 32.708 32.643 32.648 32.615 32.535 32.515 32.433 32.363 32.303 32.26 32.215 32.15 32.07 31.995 31.96 31.908 31.833 31.733 31.71 31.673 31.62 31.565 31.478 31.45 31.44 31.458 31.453 31.455 31.413 31.338 31.293 31.243 31.168 31.118 31.055 31.088 31.068 31.045 31.05 31.038 31.023 31.02 30.993 30.955 30.945 30.92 30.873 30.863 30.84 30.768 30.733 30.688 30.623 30.583 30.538 30.51 30.473 30.36 30.248 30.225 30.158 30.083 30.013 29.99 29.915 29.858 29.758 29.71 29.653 29.568 29.49 29.453 29.39 29.338 29.313 29.253 29.218 29.188 29.175 29.155 29.175 29.183 29.198 29.23 29.213 29.168 29.215 29.198 29.178 29.155 29.103 29.12 29.093 29.088 29.108 29.055 29.075 29.073 29.038 29.008 29.015 28.983 28.98 29.035 28.99 29.043 29.09 29.12 29.128 29.145 29.15 29.17 29.2 29.183 29.195 29.19 29.17 29.19 29.188 29.19 29.138 29.153 29.173 29.145 29.09 29.095 29.133 29.125 29.113 29.093 29.088 29.095 29.095 29.088 29.038 29.028 29.07 29.023 29 28.963 28.955 28.96 28.93 28.953 28.935 28.883 28.855 28.91 28.89 28.888 28.895 28.898 28.853 28.865 28.935 28.993 29.033 29.113 29.145 29.173 29.265 29.338 29.373 29.44 29.515 29.608 29.395 28.558 28.44 28.993 29.19 29.188 29.185 29.208 29.103 29.13 29.128 29.113 29.135 29.158 29.15 29.158 29.195 29.198 29.19 29.205 29.238 29.313 29.393 29.423 29.528 29.57 29.608 29.708 29.72 29.828 29.87 29.945 30.033 30.08 30.093 30.125 30.143 30.105 30.103 30.115 30.09 30.03 29.978 29.893 29.835 29.768 29.695 29.608 29.535 29.478 29.418 29.33 29.243 29.205 29.13 29.073 29.018 28.97 28.945 28.878 28.878 28.83 28.795 28.84 28.823 28.778 28.77 28.8 28.813 28.825 28.845 28.855 28.895 28.923 28.935 28.99 29.025 29.048 29.085 29.1 29.115 29.14 29.188 29.23 29.203 29.205 29.215 29.198 29.18 29.205 29.178 29.17 29.13 29.158 29.125 29.128 29.11 29.125 29.16 29.148 29.148 29.135 29.158 29.1 29.123 29.118 29.133 29.143 29.145 29.145 29.173 29.17 29.158 29.195 29.235 29.235 29.275 29.278 29.288 29.33 29.348 29.328 29.363 29.443 29.455 29.46 29.46 29.488 29.48 29.483 29.498 29.583 29.583 29.58 29.608 29.575 29.588 29.598 29.613 29.623 29.63 29.665 29.675 29.663 29.67 29.743 29.708 29.71 29.735 29.743 29.728 29.745
37.73 37.74 37.745 37.718 37.69 37.698 37.69 37.655 37.648 37.665 37.64 37.548 37.523 37.508 37.5 37.478 37.438 37.428 37.405 37.375 37.345 37.348 37.315 37.263 37.225 37.2 37.205 37.165 37.125 37.118 37.103 37.053 37.013 36.975 36.97 36.975 36.975 36.975 36.958 36.95 36.938 36.913 36.878 36.833 36.79 36.73 36.68 36.65 36.643 36.595 36.555 36.528 36.505 36.46 36.43 36.408 36.375 36.295 36.26 36.21 36.13 36.058 35.975 35.928 35.878 35.81 35.795 35.765 35.703 35.648 35.59 35.548 35.45 35.383 35.31 35.253 35.218 35.118 35.08 35.04 34.955 34.878 34.8 34.725 34.665 34.638 34.6 34.51 34.463 34.41 34.335 34.313 34.258 34.2 34.173 34.13 34.053 34.003 33.988 33.995 33.953 33.925 33.933 33.89 33.915 33.87 33.88 33.838 33.748 33.678 33.638 33.64 33.568 33.47 33.4 33.325 33.258 33.21 33.095 33.058 33.02 32.948 32.928 32.888 32.813 32.77 32.695 32.673 32.65 32.635 32.565 32.498 32.413 32.383 32.313 32.283 32.213 32.158 32.07 32.013 31.97 31.93 31.828 31.763 31.688 31.665 31.66 31.568 31.498 31.46 31.43 31.458 31.47 31.43 31.4 31.385 31.355 31.315 31.193 31.16 31.143 31.133 31.115 31.108 31.09 31.123 31.133 31.11 31.123 31.098 31.053 31.008 31.02 31.018 30.965 30.878 30.83 30.778 30.763 30.693 30.655 30.62 30.55 30.428 30.355 30.313 30.25 30.16 30.088 30.043 29.988 29.93 29.853 29.768 29.72 29.663 29.588 29.518 29.458 29.378 29.365 29.315 29.24 29.22 29.19 29.215 29.17 29.228 29.225 29.21 29.223 29.22 29.228 29.22 29.153 29.128 29.088 29.12 29.078 29.088 29.098 29.07 29.083 29.095 29.025 29.015 28.983 28.985 28.995 28.993 29.01 29.058 29.125 29.15 29.158 29.188 29.165 29.193 29.193 29.208 29.213 29.185 29.21 29.208 29.195 29.19 29.185 29.175 29.168 29.153 29.13 29.11 29.138 29.16 29.143 29.135 29.11 29.105 29.108 29.1 29.06 29.045 29.083 29.058 29.01 29.003 28.978 29.005 28.985 28.96 28.975 28.908 28.858 28.873 28.888 28.883 28.883 28.905 28.91 28.918 28.943 29.003 29.05 29.075 29.12 29.155 29.23 29.31 29.348 29.405 29.513 29.558 29.588 28.918 28.5 28.78 29.165 29.198 29.19 29.215 29.208 29.158 29.155 29.138 29.135 29.128 29.145 29.145 29.165 29.228 29.243 29.293 29.325 29.425 29.493 29.543 29.628 29.68 29.715 29.835 29.893 29.94 29.988 30.065 30.085 30.04 30.1 30.158 30.16 30.15 30.09 30.058 30.018 29.938 29.848 29.793 29.723 29.663 29.57 29.485 29.413 29.358 29.275 29.223 29.145 29.083 29.06 28.995 28.913 28.87 28.825 28.78 28.783 28.753 28.75 28.723 28.77 28.778 28.738 28.753 28.77 28.77 28.815 28.825 28.848 28.878 28.913 28.963 28.955 28.983 28.998 29.035 29.045 29.073 29.14 29.173 29.133 29.128 29.13 29.143 29.113 29.13 29.143 29.085 29.083 29.07 29.088 29.075 29.065 29.083 29.105 29.09 29.095 29.12 29.113 29.115 29.133 29.118 29.113 29.125 29.105 29.11 29.148 29.173 29.165 29.22 29.233 29.233 29.283 29.278 29.325 29.368 29.378 29.36 29.39 29.44 29.483 29.48 29.475 29.493 29.538 29.525 29.53 29.58 29.628 29.598 29.555 29.63 29.648 29.618 29.62 29.65 29.63 29.655 29.615 29.668 29.69 29.74 29.755 29.725 29.738 29.74 29.733 29.778
37.69 37.685 37.69 37.673 37.663 37.69 37.653 37.64 37.623 37.628 37.633 37.525 37.493 37.465 37.47 37.435 37.413 37.398 37.385 37.37 37.37 37.323 37.295 37.238 37.215 37.175 37.168 37.153 37.103 37.083 37.123 37.11 37.025 37.02 36.97 36.96 36.975 36.98 36.975 36.93 36.915 36.883 36.878 36.828 36.783 36.725 36.688 36.65 36.66 36.588 36.53 36.523 36.498 36.485 36.413 36.395 36.348 36.308 36.255 36.198 36.12 36.053 35.995 35.918 35.88 35.82 35.773 35.738 35.703 35.655 35.595 35.535 35.445 35.39 35.325 35.253 35.223 35.17 35.085 35.023 34.955 34.87 34.84 34.76 34.645 34.645 34.57 34.513 34.455 34.38 34.363 34.315 34.26 34.205 34.143 34.1 34.043 34.018 33.993 33.978 33.96 33.92 33.905 33.888 33.908 33.87 33.823 33.785 33.733 33.71 33.663 33.63 33.585 33.478 33.408 33.33 33.26 33.198 33.14 33.06 33.013 32.998 32.943 32.898 32.82 32.773 32.733 32.688 32.675 32.673 32.583 32.515 32.42 32.388 32.345 32.29 32.225 32.188 32.083 32.045 31.998 31.933 31.848 31.785 31.688 31.705 31.67 31.578 31.508 31.443 31.425 31.428 31.463 31.43 31.413 31.37 31.375 31.303 31.273 31.22 31.188 31.195 31.203 31.178 31.145 31.168 31.205 31.185 31.208 31.195 31.173 31.14 31.138 31.105 31.078 31.013 30.93 30.863 30.845 30.783 30.71 30.695 30.585 30.535 30.455 30.41 30.348 30.263 30.195 30.148 30.053 29.985 29.92 29.833 29.775 29.72 29.665 29.578 29.5 29.463 29.425 29.34 29.308 29.255 29.245 29.23 29.225 29.253 29.253 29.253 29.243 29.25 29.245 29.238 29.153 29.115 29.138 29.093 29.098 29.085 29.095 29.05 29.053 29.048 29.015 29.038 29.013 28.99 28.97 29.003 29.038 29.053 29.118 29.12 29.16 29.198 29.183 29.198 29.188 29.23 29.205 29.223 29.213 29.228 29.205 29.165 29.17 29.168 29.168 29.158 29.13 29.13 29.16 29.148 29.143 29.14 29.108 29.12 29.108 29.093 29.088 29.068 29.085 29.068 29.015 29.02 28.973 29.013 28.998 28.943 28.955 28.928 28.918 28.905 28.903 28.863 28.908 28.908 28.953 28.935 28.978 29.043 29.09 29.073 29.083 29.185 29.218 29.25 29.345 29.365 29.47 29.523 29.57 29.29 28.613 28.54 29.153 29.188 29.18 29.215 29.248 29.215 29.155 29.148 29.128 29.13 29.158 29.183 29.188 29.253 29.283 29.375 29.418 29.535 29.618 29.65 29.75 29.818 29.88 29.953 29.973 30.055 30.068 30.125 30.133 30.118 30.11 30.155 30.16 30.138 30.05 30 29.96 29.835 29.758 29.7 29.628 29.545 29.453 29.403 29.308 29.218 29.173 29.118 29.055 29.003 28.945 28.9 28.855 28.813 28.76 28.735 28.733 28.728 28.69 28.708 28.733 28.738 28.738 28.73 28.745 28.755 28.78 28.795 28.798 28.83 28.915 28.95 28.928 28.963 28.98 28.998 29.013 29.043 29.05 29.105 29.095 29.11 29.11 29.11 29.098 29.083 29.078 29.048 29.023 29.033 29.035 29.03 29.03 29.04 29.05 29.068 29.073 29.075 29.1 29.113 29.113 29.138 29.12 29.12 29.088 29.108 29.153 29.17 29.175 29.225 29.283 29.32 29.285 29.318 29.37 29.37 29.4 29.408 29.403 29.443 29.493 29.498 29.46 29.513 29.555 29.563 29.558 29.575 29.648 29.67 29.62 29.663 29.678 29.658 29.648 29.688 29.64 29.62 29.643 29.625 29.685 29.743 29.748 29.753 29.743 29.75 29.748 29.795
37.63 37.623 37.653 37.635 37.628 37.665 37.615 37.61 37.593 37.58 37.575 37.528 37.455 37.445 37.42 37.403 37.39 37.408 37.383 37.375 37.343 37.313 37.278 37.235 37.213 37.16 37.163 37.143 37.113 37.093 37.108 37.055 37.01 37.018 36.975 36.963 36.995 36.975 36.96 36.908 36.913 36.91 36.88 36.818 36.76 36.72 36.7 36.643 36.615 36.603 36.545 36.523 36.498 36.488 36.428 36.385 36.363 36.288 36.235 36.215 36.115 36.068 36.015 35.945 35.883 35.825 35.76 35.725 35.708 35.65 35.593 35.533 35.455 35.39 35.348 35.255 35.228 35.163 35.105 35.04 34.95 34.85 34.82 34.74 34.65 34.623 34.57 34.493 34.473 34.405 34.33 34.298 34.228 34.185 34.133 34.078 34.033 34.008 33.99 33.96 33.953 33.96 33.92 33.885 33.835 33.833 33.823 33.798 33.743 33.725 33.66 33.638 33.603 33.495 33.438 33.353 33.283 33.21 33.158 33.093 33.028 33.005 32.96 32.91 32.85 32.813 32.745 32.703 32.7 32.683 32.623 32.545 32.45 32.403 32.34 32.318 32.243 32.198 32.145 32.065 32.013 31.94 31.898 31.83 31.735 31.753 31.683 31.558 31.473 31.41 31.408 31.408 31.453 31.435 31.418 31.368 31.373 31.303 31.298 31.255 31.27 31.258 31.288 31.305 31.253 31.268 31.3 31.293 31.268 31.248 31.288 31.27 31.228 31.173 31.173 31.13 31.078 30.97 30.94 30.885 30.835 30.798 30.69 30.608 30.585 30.51 30.403 30.358 30.238 30.173 30.135 30.063 30.015 29.96 29.855 29.8 29.73 29.635 29.59 29.535 29.495 29.42 29.328 29.313 29.283 29.283 29.26 29.278 29.323 29.315 29.275 29.265 29.268 29.235 29.193 29.15 29.145 29.113 29.113 29.09 29.083 29.083 29.053 29.09 29.07 29.048 29.025 28.985 28.99 29.003 29.04 29.063 29.105 29.11 29.195 29.203 29.19 29.245 29.223 29.235 29.228 29.223 29.238 29.225 29.195 29.178 29.218 29.195 29.178 29.185 29.15 29.138 29.143 29.13 29.165 29.15 29.133 29.165 29.128 29.128 29.098 29.093 29.078 29.095 29.078 29.018 29 28.998 28.975 28.983 28.93 28.943 28.948 28.925 28.94 28.908 28.943 28.943 28.95 28.995 28.978 29.018 29.07 29.088 29.13 29.145 29.173 29.24 29.315 29.38 29.418 29.505 29.55 29.505 29.06 28.418 28.94 29.23 29.215 29.245 29.27 29.275 29.233 29.188 29.148 29.138 29.178 29.243 29.25 29.313 29.353 29.458 29.535 29.58 29.68 29.765 29.855 29.93 30 30.04 30.118 30.158 30.155 30.138 30.18 30.128 30.138 30.12 30.11 30.07 29.98 29.915 29.83 29.733 29.658 29.585 29.495 29.403 29.34 29.313 29.203 29.103 29.093 29.043 28.963 28.883 28.873 28.838 28.77 28.73 28.72 28.63 28.643 28.655 28.65 28.67 28.678 28.695 28.733 28.698 28.745 28.725 28.765 28.758 28.773 28.8 28.895 28.898 28.938 28.955 28.955 28.968 28.97 28.985 29.013 29.033 29.06 29.028 29.07 29.078 29.09 29.065 29.045 29.035 29.025 28.983 29 29.005 29 28.995 29.048 29.085 29.095 29.058 29.07 29.085 29.078 29.133 29.115 29.123 29.118 29.138 29.163 29.205 29.218 29.245 29.305 29.333 29.315 29.34 29.375 29.403 29.43 29.445 29.453 29.468 29.503 29.54 29.495 29.52 29.565 29.605 29.59 29.603 29.658 29.68 29.665 29.69 29.7 29.7 29.69 29.715 29.68 29.65 29.67 29.655 29.678 29.72 29.745 29.76 29.733 29.735 29.77 29.768
37.568 37.598 37.593 37.588 37.61 37.615 37.585 37.58 37.565 37.565 37.525 37.503 37.47 37.448 37.415 37.4 37.378 37.36 37.335 37.318 37.29 37.278 37.195 37.218 37.193 37.165 37.135 37.113 37.095 37.05 37.063 37.033 36.988 37.008 36.985 36.978 36.973 36.96 36.92 36.9 36.905 36.915 36.833 36.808 36.758 36.713 36.67 36.628 36.595 36.603 36.565 36.548 36.483 36.475 36.458 36.43 36.358 36.295 36.203 36.195 36.115 36.048 36.023 35.915 35.878 35.855 35.798 35.733 35.71 35.618 35.565 35.528 35.473 35.395 35.348 35.243 35.195 35.128 35.103 35.058 34.965 34.853 34.778 34.733 34.68 34.613 34.54 34.5 34.44 34.385 34.315 34.275 34.2 34.178 34.14 34.053 34.023 34.028 34.038 33.99 33.953 33.965 33.89 33.86 33.835 33.83 33.805 33.793 33.743 33.715 33.66 33.643 33.583 33.493 33.448 33.335 33.293 33.223 33.138 33.078 33.053 33.02 32.955 32.92 32.873 32.815 32.775 32.755 32.748 32.725 32.623 32.585 32.458 32.433 32.385 32.325 32.255 32.18 32.123 32.053 32.003 31.913 31.88 31.82 31.775 31.76 31.643 31.523 31.44 31.423 31.405 31.415 31.43 31.438 31.42 31.385 31.383 31.34 31.358 31.353 31.348 31.345 31.383 31.378 31.38 31.385 31.383 31.413 31.4 31.355 31.365 31.323 31.3 31.27 31.245 31.208 31.16 31.12 31.055 30.983 30.938 30.83 30.763 30.705 30.63 30.545 30.46 30.413 30.355 30.225 30.203 30.13 30.078 30.025 29.96 29.893 29.8 29.738 29.688 29.63 29.56 29.513 29.415 29.4 29.353 29.33 29.28 29.293 29.325 29.315 29.305 29.333 29.318 29.253 29.213 29.168 29.163 29.133 29.118 29.088 29.053 29.088 29.068 29.068 29.09 29.055 29.035 29.028 28.963 28.995 29.045 29.055 29.125 29.155 29.19 29.2 29.213 29.265 29.208 29.2 29.223 29.225 29.22 29.228 29.213 29.213 29.248 29.205 29.195 29.188 29.15 29.148 29.153 29.15 29.175 29.158 29.16 29.165 29.168 29.113 29.123 29.123 29.115 29.1 29.093 29.085 29.058 29.045 29.013 29.003 28.995 29.003 28.978 28.96 28.938 28.915 28.948 28.955 28.973 28.995 29.015 29.043 29.048 29.093 29.115 29.113 29.14 29.218 29.28 29.355 29.408 29.455 29.523 29.543 29.515 28.753 28.48 29.005 29.195 29.258 29.288 29.34 29.288 29.23 29.203 29.198 29.22 29.248 29.315 29.38 29.448 29.545 29.668 29.745 29.783 29.883 29.945 30.04 30.078 30.138 30.193 30.235 30.183 30.168 30.195 30.185 30.148 30.085 30.058 29.99 29.915 29.838 29.745 29.66 29.573 29.46 29.375 29.318 29.248 29.205 29.115 29.035 28.97 28.933 28.89 28.82 28.77 28.768 28.753 28.72 28.638 28.635 28.625 28.61 28.663 28.68 28.663 28.688 28.735 28.698 28.713 28.705 28.73 28.735 28.783 28.845 28.883 28.908 28.918 28.95 28.958 28.965 28.968 28.975 29.028 28.995 29.023 29.018 29.043 29.023 29.035 29.028 29.035 29.033 29.035 29.005 28.99 29.038 28.993 29.003 29.013 29.07 29.085 29.123 29.1 29.118 29.128 29.13 29.163 29.15 29.13 29.185 29.178 29.238 29.28 29.27 29.313 29.343 29.358 29.355 29.388 29.408 29.418 29.45 29.46 29.468 29.495 29.533 29.52 29.538 29.57 29.618 29.63 29.633 29.688 29.67 29.7 29.69 29.695 29.68 29.685 29.703 29.655 29.638 29.68 29.673 29.695 29.703 29.735 29.753 29.723 29.738 29.768 29.778
37.543 37.553 37.535 37.558 37.573 37.558 37.55 37.535 37.533 37.545 37.513 37.478 37.465 37.43 37.383 37.398 37.368 37.33 37.318 37.263 37.228 37.26 37.19 37.183 37.163 37.155 37.143 37.11 37.09 37.048 37.033 37 36.978 36.993 36.958 36.958 36.968 36.96 36.943 36.913 36.908 36.888 36.835 36.78 36.748 36.703 36.658 36.6 36.58 36.563 36.543 36.518 36.473 36.463 36.453 36.408 36.315 36.233 36.17 36.168 36.1 36.055 36 35.903 35.853 35.83 35.815 35.73 35.71 35.605 35.57 35.508 35.453 35.385 35.323 35.27 35.215 35.19 35.098 35.035 34.93 34.83 34.77 34.733 34.63 34.603 34.533 34.45 34.438 34.4 34.35 34.263 34.205 34.18 34.123 34.058 34.03 34.01 34.013 33.98 33.953 33.92 33.918 33.848 33.83 33.843 33.82 33.768 33.748 33.718 33.69 33.645 33.6 33.503 33.45 33.368 33.28 33.248 33.16 33.098 33.043 33.04 33 32.958 32.913 32.828 32.793 32.765 32.748 32.728 32.655 32.58 32.48 32.428 32.36 32.345 32.258 32.16 32.115 32.055 31.993 31.915 31.888 31.81 31.77 31.74 31.663 31.525 31.445 31.435 31.423 31.38 31.435 31.42 31.39 31.408 31.403 31.39 31.388 31.423 31.455 31.445 31.398 31.423 31.488 31.493 31.508 31.498 31.493 31.488 31.465 31.405 31.395 31.363 31.323 31.298 31.228 31.193 31.128 31.07 31.018 30.963 30.805 30.76 30.69 30.635 30.538 30.483 30.41 30.33 30.275 30.21 30.118 30.078 30.035 29.973 29.888 29.818 29.758 29.715 29.625 29.553 29.498 29.465 29.445 29.4 29.353 29.405 29.39 29.353 29.343 29.355 29.32 29.26 29.235 29.155 29.135 29.128 29.138 29.11 29.088 29.093 29.093 29.098 29.095 29.058 29.01 29.005 29.005 29.043 29.073 29.143 29.135 29.138 29.195 29.205 29.228 29.235 29.238 29.213 29.245 29.243 29.23 29.238 29.2 29.19 29.228 29.235 29.17 29.15 29.16 29.19 29.203 29.193 29.2 29.183 29.185 29.188 29.155 29.15 29.14 29.145 29.085 29.135 29.11 29.088 29.08 29.055 29.048 29.008 28.995 29.023 29.008 29.01 29.01 28.945 28.988 28.948 28.978 28.993 29.04 29.053 29.09 29.105 29.09 29.123 29.14 29.193 29.28 29.298 29.378 29.423 29.518 29.538 29.593 29.285 28.503 28.678 29.155 29.305 29.278 29.32 29.325 29.318 29.245 29.268 29.28 29.368 29.398 29.468 29.528 29.668 29.775 29.843 29.88 30.003 30.075 30.128 30.163 30.21 30.188 30.24 30.24 30.21 30.178 30.125 30.088 30.025 29.963 29.88 29.793 29.73 29.628 29.568 29.47 29.345 29.283 29.215 29.123 29.065 29.025 28.973 28.908 28.845 28.788 28.77 28.725 28.698 28.66 28.605 28.64 28.62 28.615 28.598 28.59 28.608 28.64 28.668 28.713 28.715 28.703 28.725 28.713 28.748 28.788 28.813 28.833 28.915 28.935 28.938 28.925 28.955 28.983 28.983 29.018 28.985 28.978 28.995 29.045 29.03 29.043 29.01 29.025 29.035 29.025 28.985 28.99 28.975 29.013 29.03 29.033 29.065 29.105 29.125 29.09 29.11 29.13 29.138 29.158 29.16 29.198 29.23 29.228 29.23 29.288 29.3 29.328 29.388 29.43 29.398 29.42 29.43 29.418 29.458 29.513 29.505 29.495 29.54 29.57 29.608 29.57 29.618 29.693 29.668 29.695 29.67 29.713 29.738 29.705 29.715 29.723 29.7 29.708 29.688 29.688 29.68 29.7 29.72 29.743 29.783 29.813 29.758 29.783 29.795
37.49 37.538 37.53 37.553 37.548 37.528 37.545 37.51 37.5 37.495 37.445 37.46 37.44 37.398 37.36 37.325 37.31 37.298 37.3 37.25 37.21 37.233 37.218 37.16 37.145 37.128 37.128 37.108 37.045 37.04 37.015 37.003 36.998 36.998 36.953 36.948 36.943 36.965 36.948 36.915 36.88 36.848 36.805 36.773 36.735 36.683 36.653 36.605 36.558 36.575 36.58 36.513 36.485 36.42 36.435 36.38 36.315 36.26 36.188 36.103 36.09 36.04 35.998 35.905 35.883 35.858 35.8 35.728 35.728 35.61 35.558 35.5 35.438 35.388 35.323 35.26 35.205 35.178 35.085 35.025 34.94 34.858 34.785 34.71 34.63 34.605 34.535 34.45 34.408 34.36 34.333 34.248 34.205 34.168 34.135 34.068 34.03 33.99 33.985 33.93 33.945 33.908 33.89 33.845 33.843 33.8 33.803 33.79 33.763 33.75 33.718 33.67 33.595 33.505 33.438 33.38 33.313 33.278 33.168 33.123 33.083 33.06 33.02 32.963 32.915 32.865 32.805 32.788 32.795 32.743 32.673 32.565 32.508 32.433 32.378 32.348 32.278 32.17 32.143 32.075 31.975 31.918 31.873 31.803 31.78 31.715 31.633 31.553 31.5 31.438 31.383 31.385 31.45 31.423 31.405 31.4 31.41 31.453 31.438 31.48 31.468 31.515 31.518 31.53 31.54 31.558 31.628 31.575 31.583 31.578 31.548 31.52 31.498 31.435 31.378 31.363 31.318 31.24 31.21 31.133 31.06 30.973 30.85 30.805 30.728 30.678 30.595 30.538 30.433 30.365 30.325 30.235 30.18 30.153 30.083 30.045 29.965 29.893 29.863 29.79 29.728 29.64 29.57 29.525 29.498 29.458 29.418 29.433 29.425 29.4 29.375 29.365 29.328 29.293 29.235 29.213 29.18 29.138 29.15 29.175 29.123 29.108 29.125 29.105 29.135 29.083 29.025 29.028 29.053 29.065 29.088 29.118 29.09 29.155 29.208 29.235 29.265 29.235 29.255 29.288 29.245 29.25 29.268 29.223 29.188 29.223 29.215 29.225 29.218 29.193 29.165 29.2 29.205 29.22 29.185 29.2 29.225 29.218 29.145 29.168 29.16 29.173 29.098 29.123 29.125 29.145 29.125 29.058 29.05 29.038 29.023 29.048 29.055 29.043 29.003 29.013 28.995 29.005 29.02 29.02 29.058 29.1 29.12 29.113 29.115 29.12 29.14 29.16 29.22 29.265 29.35 29.35 29.435 29.48 29.535 29.538 28.985 28.48 28.863 29.29 29.293 29.313 29.365 29.345 29.275 29.325 29.353 29.418 29.515 29.575 29.65 29.763 29.925 29.95 30.02 30.09 30.143 30.205 30.245 30.298 30.285 30.285 30.243 30.173 30.15 30.09 30.035 29.945 29.843 29.785 29.703 29.595 29.53 29.46 29.363 29.238 29.143 29.1 29.03 28.955 28.903 28.925 28.845 28.808 28.73 28.698 28.68 28.665 28.6 28.6 28.618 28.598 28.603 28.578 28.585 28.628 28.638 28.663 28.688 28.725 28.743 28.785 28.74 28.78 28.783 28.83 28.84 28.89 28.953 28.935 28.965 28.983 28.998 28.99 29.028 29.035 28.973 28.988 29.028 29.018 29.005 29.03 29.033 29.04 29.053 29.013 28.995 29.013 29.043 29.048 29.04 29.04 29.1 29.08 29.118 29.128 29.105 29.133 29.158 29.18 29.2 29.19 29.253 29.253 29.3 29.33 29.335 29.363 29.428 29.42 29.443 29.473 29.483 29.483 29.503 29.543 29.528 29.558 29.605 29.628 29.59 29.618 29.698 29.715 29.69 29.675 29.71 29.76 29.735 29.745 29.738 29.755 29.71 29.703 29.698 29.693 29.69 29.725 29.73 29.74 29.798 29.75 29.79 29.795
37.49 37.49 37.48 37.505 37.508 37.49 37.518 37.518 37.458 37.46 37.443 37.43 37.403 37.373 37.363 37.338 37.333 37.278 37.29 37.235 37.193 37.18 37.165 37.145 37.143 37.105 37.13 37.083 37.013 36.995 37.015 36.993 36.995 36.953 36.895 36.928 36.9 36.928 36.945 36.9 36.883 36.85 36.795 36.768 36.72 36.66 36.615 36.61 36.583 36.575 36.538 36.49 36.473 36.43 36.4 36.36 36.293 36.26 36.2 36.103 36.06 36.028 35.945 35.908 35.848 35.823 35.785 35.723 35.688 35.595 35.558 35.503 35.438 35.393 35.308 35.248 35.19 35.168 35.078 35.01 34.92 34.853 34.773 34.698 34.65 34.588 34.505 34.468 34.408 34.378 34.328 34.253 34.188 34.195 34.118 34.05 34.015 34.003 33.98 33.943 33.948 33.9 33.89 33.848 33.858 33.825 33.818 33.795 33.758 33.753 33.728 33.655 33.56 33.513 33.433 33.383 33.318 33.275 33.193 33.123 33.1 33.053 33.018 32.95 32.913 32.863 32.82 32.808 32.788 32.745 32.645 32.578 32.5 32.43 32.373 32.293 32.245 32.18 32.15 32.06 31.953 31.878 31.84 31.82 31.8 31.728 31.593 31.56 31.508 31.47 31.428 31.418 31.428 31.438 31.403 31.398 31.453 31.51 31.503 31.493 31.57 31.55 31.603 31.595 31.63 31.67 31.675 31.678 31.633 31.648 31.625 31.59 31.575 31.515 31.473 31.448 31.4 31.33 31.23 31.233 31.13 31.028 30.943 30.875 30.778 30.705 30.65 30.565 30.475 30.403 30.335 30.295 30.235 30.19 30.115 30.093 30.033 29.948 29.923 29.873 29.765 29.685 29.668 29.615 29.58 29.54 29.48 29.473 29.46 29.445 29.418 29.408 29.39 29.355 29.28 29.26 29.238 29.245 29.195 29.208 29.208 29.158 29.16 29.113 29.12 29.148 29.105 29.1 29.078 29.13 29.135 29.163 29.115 29.163 29.238 29.265 29.25 29.24 29.245 29.298 29.285 29.278 29.28 29.24 29.228 29.238 29.27 29.228 29.218 29.173 29.2 29.243 29.243 29.245 29.235 29.263 29.258 29.208 29.2 29.19 29.185 29.15 29.143 29.128 29.133 29.143 29.12 29.1 29.098 29.098 29.073 29.068 29.098 29.088 29.028 29.063 29.06 29.068 29.058 29.045 29.055 29.123 29.13 29.103 29.103 29.085 29.123 29.133 29.185 29.248 29.305 29.328 29.363 29.445 29.52 29.575 29.39 28.563 28.705 29.198 29.328 29.335 29.378 29.41 29.403 29.408 29.455 29.508 29.553 29.658 29.763 29.855 30.01 30.088 30.133 30.19 30.25 30.293 30.3 30.34 30.305 30.28 30.223 30.123 30.085 30.008 29.95 29.853 29.768 29.675 29.593 29.51 29.413 29.315 29.24 29.163 29.085 29.01 28.968 28.893 28.84 28.81 28.785 28.733 28.7 28.663 28.668 28.623 28.613 28.588 28.59 28.578 28.583 28.613 28.59 28.605 28.628 28.68 28.688 28.708 28.733 28.758 28.798 28.823 28.808 28.85 28.873 28.91 28.948 28.973 28.993 28.998 28.995 28.99 28.998 29.01 29.025 29.043 29.033 29.048 29.008 29.068 29.053 29.04 29.078 29.043 29.038 29.033 29.045 29.083 29.07 29.06 29.095 29.098 29.163 29.178 29.153 29.155 29.2 29.195 29.21 29.235 29.255 29.283 29.31 29.35 29.38 29.388 29.443 29.43 29.475 29.505 29.5 29.508 29.515 29.575 29.563 29.555 29.578 29.64 29.66 29.645 29.7 29.718 29.715 29.72 29.728 29.785 29.765 29.733 29.735 29.743 29.728 29.695 29.72 29.71 29.688 29.723 29.703 29.698 29.75 29.773 29.793 29.77
37.42 37.438 37.458 37.463 37.453 37.458 37.428 37.425 37.428 37.443 37.425 37.413 37.388 37.34 37.363 37.323 37.323 37.278 37.233 37.215 37.198 37.16 37.118 37.125 37.105 37.073 37.063 37.018 36.985 37.015 36.985 36.928 36.95 36.933 36.89 36.895 36.91 36.91 36.92 36.893 36.863 36.818 36.795 36.77 36.723 36.653 36.585 36.578 36.59 36.57 36.558 36.528 36.46 36.443 36.433 36.405 36.32 36.24 36.188 36.08 36.055 36.018 35.933 35.888 35.853 35.8 35.768 35.723 35.65 35.583 35.525 35.488 35.423 35.37 35.275 35.225 35.188 35.14 35.073 35.013 34.89 34.85 34.78 34.713 34.668 34.595 34.533 34.498 34.423 34.4 34.328 34.25 34.195 34.175 34.125 34.045 34.013 34 33.955 33.98 33.953 33.905 33.878 33.875 33.87 33.803 33.795 33.84 33.78 33.718 33.718 33.66 33.578 33.528 33.453 33.373 33.343 33.258 33.203 33.155 33.098 33.065 33.005 32.923 32.893 32.88 32.848 32.808 32.773 32.74 32.663 32.588 32.51 32.458 32.373 32.328 32.268 32.193 32.12 32.063 31.993 31.91 31.88 31.825 31.82 31.685 31.575 31.585 31.553 31.495 31.453 31.438 31.41 31.435 31.415 31.433 31.443 31.515 31.528 31.55 31.625 31.628 31.663 31.675 31.708 31.723 31.72 31.74 31.68 31.708 31.698 31.683 31.628 31.593 31.538 31.5 31.45 31.38 31.29 31.25 31.153 31.043 31 30.908 30.803 30.748 30.68 30.58 30.48 30.42 30.398 30.33 30.268 30.23 30.188 30.175 30.093 30.008 30.003 29.96 29.873 29.803 29.748 29.708 29.655 29.605 29.54 29.543 29.478 29.458 29.455 29.45 29.395 29.363 29.315 29.285 29.27 29.255 29.285 29.255 29.22 29.203 29.213 29.168 29.165 29.123 29.118 29.13 29.113 29.135 29.138 29.143 29.19 29.223 29.29 29.29 29.303 29.328 29.315 29.33 29.328 29.36 29.338 29.263 29.248 29.265 29.268 29.255 29.245 29.22 29.24 29.26 29.273 29.233 29.253 29.283 29.263 29.188 29.223 29.208 29.23 29.183 29.163 29.168 29.183 29.163 29.18 29.148 29.148 29.143 29.095 29.118 29.135 29.095 29.078 29.113 29.088 29.093 29.083 29.115 29.123 29.108 29.093 29.12 29.13 29.133 29.108 29.125 29.145 29.223 29.23 29.303 29.325 29.403 29.483 29.558 29.503 28.725 28.48 29.268 29.353 29.38 29.4 29.44 29.47 29.44 29.518 29.585 29.645 29.725 29.863 29.95 30.048 30.198 30.258 30.27 30.32 30.335 30.303 30.308 30.275 30.248 30.145 30.098 30.008 29.918 29.86 29.775 29.643 29.573 29.498 29.378 29.275 29.218 29.16 29.103 29.025 28.948 28.9 28.838 28.785 28.77 28.77 28.723 28.688 28.595 28.6 28.605 28.585 28.57 28.595 28.555 28.57 28.598 28.58 28.61 28.68 28.713 28.713 28.75 28.763 28.783 28.81 28.835 28.878 28.895 28.933 28.97 28.935 28.978 29.02 29.003 29.003 29.033 29.008 29.01 29.068 29.058 29.058 29.058 29.063 29.08 29.115 29.083 29.085 29.088 29.085 29.06 29.06 29.088 29.09 29.098 29.12 29.15 29.188 29.21 29.185 29.185 29.203 29.218 29.245 29.27 29.295 29.295 29.33 29.393 29.415 29.43 29.475 29.473 29.478 29.473 29.52 29.535 29.528 29.563 29.568 29.588 29.578 29.635 29.68 29.645 29.685 29.688 29.713 29.725 29.72 29.753 29.76 29.738 29.745 29.735 29.748 29.715 29.71 29.703 29.668 29.693 29.71 29.705 29.738 29.753 29.765 29.813
37.375 37.408 37.433 37.398 37.398 37.423 37.39 37.375 37.385 37.38 37.37 37.343 37.338 37.348 37.335 37.32 37.268 37.233 37.215 37.198 37.19 37.178 37.073 37.058 37.065 37.053 37.018 36.995 36.98 37.003 36.963 36.928 36.928 36.888 36.888 36.89 36.875 36.885 36.88 36.873 36.835 36.828 36.808 36.773 36.715 36.668 36.623 36.59 36.56 36.593 36.555 36.54 36.465 36.453 36.458 36.4 36.333 36.24 36.18 36.105 36.05 36.038 35.935 35.86 35.838 35.815 35.743 35.715 35.608 35.545 35.523 35.505 35.395 35.36 35.28 35.215 35.14 35.098 35.028 34.99 34.9 34.83 34.763 34.698 34.66 34.563 34.515 34.485 34.41 34.385 34.3 34.273 34.203 34.14 34.105 34.06 34.025 33.993 33.93 33.963 33.943 33.93 33.86 33.84 33.84 33.828 33.8 33.808 33.74 33.735 33.715 33.658 33.565 33.503 33.465 33.403 33.343 33.27 33.2 33.17 33.123 33.063 33.008 32.983 32.91 32.87 32.843 32.8 32.778 32.73 32.67 32.593 32.51 32.415 32.37 32.318 32.233 32.17 32.115 32.038 31.98 31.955 31.885 31.803 31.733 31.67 31.595 31.558 31.548 31.51 31.498 31.47 31.425 31.398 31.433 31.473 31.493 31.54 31.57 31.608 31.64 31.668 31.645 31.705 31.743 31.793 31.795 31.798 31.788 31.795 31.778 31.763 31.715 31.638 31.613 31.57 31.463 31.418 31.338 31.258 31.2 31.06 31.013 30.94 30.86 30.748 30.703 30.635 30.518 30.455 30.413 30.363 30.318 30.28 30.213 30.198 30.135 30.088 30.07 29.978 29.918 29.893 29.833 29.793 29.733 29.663 29.623 29.613 29.545 29.48 29.488 29.473 29.455 29.393 29.353 29.338 29.335 29.348 29.308 29.28 29.258 29.27 29.255 29.185 29.203 29.195 29.148 29.15 29.155 29.143 29.145 29.19 29.223 29.273 29.313 29.36 29.363 29.358 29.345 29.388 29.375 29.375 29.41 29.338 29.338 29.335 29.323 29.298 29.28 29.268 29.268 29.28 29.268 29.285 29.285 29.3 29.303 29.23 29.263 29.24 29.265 29.25 29.203 29.18 29.243 29.23 29.198 29.183 29.15 29.173 29.17 29.13 29.165 29.168 29.115 29.108 29.103 29.093 29.115 29.15 29.123 29.098 29.105 29.098 29.153 29.133 29.128 29.095 29.113 29.188 29.218 29.298 29.325 29.36 29.465 29.533 29.563 29.125 28.375 28.985 29.268 29.388 29.458 29.488 29.54 29.535 29.563 29.643 29.728 29.82 29.93 30.018 30.095 30.218 30.305 30.29 30.283 30.313 30.275 30.283 30.243 30.138 30.038 30.008 29.89 29.825 29.743 29.655 29.568 29.473 29.38 29.295 29.19 29.148 29.11 29.053 29.025 28.92 28.86 28.84 28.763 28.733 28.71 28.665 28.648 28.605 28.585 28.553 28.563 28.568 28.563 28.565 28.53 28.575 28.578 28.648 28.663 28.723 28.703 28.733 28.758 28.788 28.85 28.865 28.868 28.898 28.948 28.945 28.945 29.008 29.05 29.05 29.038 29.095 29.065 29.053 29.09 29.083 29.085 29.095 29.135 29.158 29.14 29.105 29.11 29.14 29.14 29.108 29.078 29.09 29.135 29.155 29.145 29.163 29.208 29.215 29.205 29.185 29.238 29.28 29.29 29.288 29.325 29.33 29.35 29.375 29.408 29.413 29.468 29.473 29.488 29.498 29.515 29.56 29.573 29.56 29.578 29.618 29.595 29.64 29.678 29.655 29.64 29.703 29.733 29.695 29.713 29.743 29.748 29.743 29.738 29.75 29.775 29.695 29.718 29.715 29.685 29.675 29.713 29.723 29.74 29.728 29.748 29.765
