ncols 441
nrows 32
xllcorner    427110
yllcorner    485624
cellsize     2
NODATA_value -9999
35.775 35.713 35.718 35.715 35.745 35.75 35.768 35.77 35.823 35.855 35.843 35.89 35.9 35.895 35.9 35.905 35.865 35.798 35.76 35.673 35.603 35.548 35.48 35.355 35.265 35.205 35.083 35.035 34.968 34.913 34.865 34.833 34.828 34.868 34.888 34.923 34.94 34.993 35.028 34.983 35.003 34.995 34.918 34.888 34.803 34.72 34.63 34.618 34.483 34.353 34.223 34.065 33.925 33.775 33.63 33.485 33.438 33.375 33.253 33.23 33.14 33.045 33.048 33.095 33.115 33.15 33.215 33.255 33.34 33.253 33.058 32.923 32.86 32.935 32.88 32.87 32.883 32.883 32.808 32.705 32.645 32.533 32.403 32.37 32.298 32.28 32.298 32.27 32.165 32.165 32.193 32.165 32.13 32.15 32.233 32.263 32.353 32.328 32.3 32.365 32.56 32.835 32.798 32.603 32.578 32.66 32.685 32.645 32.618 32.66 32.82 32.915 32.983 33.04 33.095 33.213 33.228 33.145 33.145 33.005 32.92 32.833 32.813 32.73 32.643 32.495 32.38 32.438 32.36 32.308 32.343 32.345 32.12 32.043 32.108 32.078 31.98 31.565 31.263 31.72 31.8 31.733 31.74 31.705 31.64 31.56 31.513 31.433 31.39 31.345 31.313 31.315 31.273 31.25 31.233 31.21 31.238 31.263 31.3 31.32 31.4 31.415 31.473 31.575 31.62 31.68 31.748 31.808 31.878 31.878 31.915 31.975 32.018 32.063 32.038 32.035 32.043 32.02 32.06 32.078 31.99 31.925 31.955 31.955 31.94 31.84 31.83 31.913 31.978 31.995 31.978 31.93 31.84 31.853 31.878 31.87 31.87 31.84 31.805 31.76 31.735 31.755 31.768 31.693 31.66 31.618 31.59 31.578 31.575 31.543 31.488 31.47 31.405 31.425 31.448 31.45 31.433 31.45 31.43 31.403 31.468 31.428 31.415 31.425 31.4 31.383 31.383 31.38 31.388 31.408 31.435 31.443 31.448 31.5 31.5 31.56 31.595 31.61 31.64 31.583 31.588 31.57 31.56 31.568 31.56 31.548 31.495 31.458 31.473 31.45 31.448 31.413 31.398 31.323 31.315 31.313 31.28 31.29 31.298 31.28 31.223 31.25 31.248 31.275 31.26 31.225 31.185 31.145 31.118 31.125 31.108 31.093 31.058 31.06 31.078 30.998 30.96 30.933 30.915 30.9 30.878 30.833 30.798 30.768 30.815 30.778 30.783 30.798 30.77 30.76 30.863 30.903 30.895 30.943 30.983 30.958 30.958 30.985 31.04 31.005 30.995 31.005 31.023 30.978 30.973 30.973 30.953 30.915 30.888 30.93 30.968 30.928 30.943 30.935 30.923 30.87 30.905 30.898 30.865 30.84 30.853 30.868 30.873 30.9 30.87 30.873 30.875 30.818 30.798 30.765 30.768 30.733 30.718 30.665 30.663 30.66 30.658 30.62 30.658 30.663 30.663 30.65 30.62 30.66 30.623 30.668 30.6 30.608 30.61 30.563 30.5 30.528 30.495 30.468 30.495 30.42 30.408 30.368 30.408 30.418 30.485 30.373 30.263 30.253 30.245 30.24 30.185 30.17 30.163 30.173 30.168 30.153 30.11 30.103 30.093 30.06 30.04 30.01 29.983 29.963 29.96 29.89 29.833 29.833 29.793 29.763 29.745 29.72 29.71 29.703 29.7 29.748 29.773 29.77 29.795 29.828 29.86 29.858 29.888 29.915 29.858 29.848 29.848 29.81 29.768 29.71 29.68 29.633 29.61 29.575 29.553 29.508 29.485 29.438 29.438 29.413 29.408 29.413 29.403 29.425 29.395 29.408 29.423 29.458 29.443 29.473 29.508 29.548 29.56 29.585 29.653 29.713 29.768 29.793 29.833 29.865 29.865 29.848 29.83 29.848 29.845
35.808 35.78 35.733 35.693 35.71 35.73 35.753 35.775 35.79 35.82 35.818 35.85 35.858 35.848 35.838 35.813 35.783 35.745 35.708 35.638 35.585 35.51 35.418 35.3 35.245 35.198 35.083 35.04 35.015 34.928 34.875 34.87 34.855 34.86 34.9 34.948 34.973 34.973 35.04 35.053 34.995 34.96 34.928 34.848 34.783 34.735 34.585 34.523 34.43 34.298 34.185 34.073 33.935 33.81 33.668 33.535 33.455 33.405 33.32 33.253 33.178 33.105 33.08 33.075 33.108 33.208 33.223 33.233 33.325 33.49 33.33 33.2 33.123 33.095 33.11 32.983 32.948 32.938 32.895 32.823 32.675 32.565 32.485 32.428 32.38 32.338 32.353 32.3 32.17 32.175 32.19 32.158 32.115 32.105 32.183 32.22 32.345 32.4 32.398 32.443 32.49 32.615 32.663 32.65 32.65 32.683 32.67 32.65 32.63 32.76 32.865 32.968 33.115 33.173 33.168 33.173 33.17 33.09 33.143 33.1 32.983 32.825 32.743 32.665 32.598 32.52 32.37 32.35 32.283 32.188 32.218 32.153 32.078 32.175 32.203 32.193 32.048 31.845 31.34 31.365 31.803 31.73 31.725 31.69 31.655 31.588 31.528 31.413 31.368 31.32 31.295 31.255 31.205 31.178 31.178 31.215 31.243 31.268 31.308 31.36 31.425 31.448 31.475 31.585 31.63 31.69 31.768 31.815 31.868 31.908 31.918 31.973 31.978 31.978 31.95 31.92 31.885 31.875 31.898 31.863 31.793 31.813 31.85 31.918 31.868 31.853 31.91 31.96 31.938 31.975 31.92 31.873 31.835 31.843 31.855 31.843 31.823 31.835 31.808 31.713 31.7 31.73 31.708 31.658 31.64 31.61 31.618 31.578 31.558 31.5 31.48 31.41 31.353 31.363 31.393 31.37 31.343 31.348 31.383 31.405 31.423 31.4 31.403 31.368 31.368 31.363 31.36 31.383 31.378 31.413 31.41 31.408 31.423 31.498 31.478 31.533 31.603 31.633 31.643 31.605 31.603 31.62 31.623 31.585 31.565 31.54 31.52 31.495 31.49 31.445 31.425 31.383 31.363 31.353 31.325 31.303 31.293 31.278 31.293 31.288 31.255 31.243 31.248 31.238 31.173 31.15 31.15 31.138 31.128 31.11 31.103 31.078 31.078 31.045 31.02 30.928 30.903 30.898 30.863 30.803 30.815 30.793 30.728 30.773 30.803 30.75 30.75 30.808 30.758 30.803 30.803 30.88 30.865 30.89 30.958 30.935 30.943 30.995 31.048 31.04 31.01 31.005 30.998 30.988 30.95 30.96 30.94 30.923 30.91 30.955 30.945 30.918 30.905 30.865 30.883 30.875 30.86 30.883 30.84 30.868 30.855 30.858 30.868 30.845 30.833 30.818 30.78 30.755 30.763 30.73 30.698 30.678 30.68 30.653 30.63 30.62 30.673 30.623 30.603 30.633 30.625 30.61 30.623 30.598 30.573 30.575 30.655 30.63 30.603 30.513 30.495 30.52 30.453 30.435 30.49 30.418 30.395 30.378 30.353 30.383 30.428 30.378 30.27 30.25 30.238 30.23 30.215 30.143 30.148 30.173 30.17 30.143 30.118 30.123 30.125 30.078 30.045 29.993 29.958 29.935 29.945 29.893 29.868 29.83 29.795 29.74 29.728 29.673 29.67 29.665 29.66 29.685 29.73 29.745 29.758 29.795 29.83 29.815 29.87 29.898 29.873 29.868 29.813 29.823 29.788 29.755 29.673 29.635 29.598 29.57 29.515 29.46 29.455 29.453 29.418 29.373 29.398 29.395 29.4 29.393 29.338 29.383 29.435 29.42 29.428 29.445 29.498 29.55 29.58 29.598 29.688 29.723 29.785 29.805 29.845 29.88 29.86 29.82 29.82 29.818 29.81
35.838 35.775 35.75 35.718 35.715 35.708 35.735 35.763 35.768 35.763 35.748 35.78 35.813 35.8 35.795 35.763 35.75 35.713 35.638 35.61 35.52 35.473 35.395 35.283 35.218 35.16 35.068 35.04 35.005 34.933 34.918 34.908 34.88 34.885 34.925 34.953 34.978 35.005 35.04 35.025 35.01 34.945 34.9 34.833 34.748 34.65 34.595 34.473 34.393 34.285 34.148 34.05 33.928 33.813 33.723 33.59 33.485 33.408 33.355 33.275 33.218 33.163 33.16 33.158 33.168 33.21 33.285 33.31 33.353 33.43 33.458 33.36 33.27 33.2 33.133 33.09 33.015 33.018 32.958 32.898 32.833 32.705 32.595 32.555 32.48 32.468 32.453 32.383 32.24 32.27 32.203 32.248 32.318 32.233 32.27 32.343 32.39 32.485 32.523 32.503 32.483 32.613 32.75 32.74 32.713 32.688 32.678 32.663 32.685 32.82 33.023 33.045 33.19 33.238 33.275 33.265 33.198 33.183 33.105 33.11 33.003 32.918 32.715 32.63 32.588 32.578 32.438 32.368 32.36 32.258 32.243 32.183 32.19 32.205 32.16 32.165 32.028 31.91 31.35 31.133 31.615 31.74 31.698 31.683 31.638 31.585 31.48 31.455 31.378 31.303 31.24 31.228 31.203 31.158 31.158 31.198 31.22 31.258 31.31 31.35 31.413 31.473 31.515 31.6 31.7 31.755 31.8 31.853 31.85 31.908 31.878 31.885 31.82 31.815 31.775 31.7 31.685 31.713 31.735 31.755 31.738 31.83 31.848 31.86 31.878 31.878 31.908 31.938 31.918 31.918 31.873 31.878 31.855 31.803 31.83 31.838 31.788 31.8 31.778 31.728 31.7 31.73 31.708 31.64 31.605 31.6 31.585 31.54 31.498 31.48 31.443 31.42 31.383 31.343 31.318 31.343 31.363 31.37 31.358 31.37 31.383 31.358 31.405 31.363 31.338 31.35 31.345 31.39 31.385 31.415 31.445 31.438 31.435 31.53 31.52 31.58 31.605 31.6 31.593 31.608 31.6 31.635 31.628 31.635 31.613 31.585 31.538 31.503 31.513 31.458 31.433 31.385 31.375 31.343 31.318 31.29 31.31 31.253 31.248 31.228 31.235 31.22 31.223 31.173 31.13 31.15 31.14 31.115 31.11 31.08 31.06 31.01 30.998 30.935 30.96 30.923 30.87 30.87 30.83 30.785 30.805 30.795 30.758 30.768 30.823 30.778 30.713 30.8 30.825 30.813 30.81 30.86 30.895 30.88 30.928 30.983 30.975 30.995 31.02 31.04 31.025 31.01 30.985 30.97 30.943 30.98 30.97 30.92 30.905 30.93 30.915 30.858 30.858 30.895 30.878 30.82 30.803 30.813 30.848 30.818 30.815 30.823 30.79 30.77 30.763 30.74 30.698 30.725 30.725 30.7 30.685 30.675 30.675 30.673 30.678 30.685 30.63 30.6 30.625 30.603 30.575 30.573 30.518 30.583 30.585 30.58 30.558 30.545 30.508 30.505 30.415 30.413 30.448 30.403 30.433 30.36 30.38 30.353 30.33 30.38 30.403 30.393 30.303 30.233 30.233 30.25 30.218 30.168 30.178 30.193 30.168 30.133 30.105 30.115 30.083 30.065 30.033 30 29.965 29.968 29.938 29.913 29.84 29.81 29.76 29.728 29.658 29.64 29.63 29.663 29.655 29.635 29.673 29.688 29.725 29.743 29.775 29.8 29.808 29.85 29.85 29.865 29.788 29.83 29.783 29.728 29.653 29.63 29.573 29.55 29.518 29.493 29.478 29.398 29.4 29.348 29.398 29.393 29.358 29.378 29.368 29.39 29.4 29.42 29.465 29.458 29.493 29.548 29.605 29.625 29.695 29.738 29.79 29.83 29.878 29.88 29.855 29.845 29.835 29.83 29.8
35.855 35.798 35.74 35.7 35.7 35.675 35.703 35.69 35.705 35.705 35.725 35.713 35.705 35.743 35.73 35.733 35.693 35.653 35.62 35.565 35.478 35.413 35.34 35.283 35.198 35.125 35.06 35.043 34.998 34.983 34.953 34.925 34.928 34.905 34.93 34.968 34.965 35.005 35.008 34.978 34.983 34.925 34.873 34.803 34.728 34.633 34.54 34.42 34.36 34.295 34.178 34.06 33.945 33.828 33.685 33.583 33.483 33.418 33.398 33.34 33.315 33.27 33.283 33.255 33.225 33.258 33.29 33.375 33.415 33.415 33.498 33.543 33.423 33.26 33.175 33.068 33.018 33.04 33.035 32.993 32.948 32.818 32.703 32.688 32.623 32.625 32.593 32.568 32.488 32.5 32.365 32.335 32.343 32.328 32.398 32.435 32.468 32.535 32.6 32.57 32.555 32.665 32.72 32.855 32.758 32.718 32.705 32.743 32.785 32.825 32.955 33.14 33.245 33.343 33.308 33.403 33.378 33.278 33.16 33.045 32.97 32.91 32.693 32.628 32.695 32.76 32.775 32.598 32.475 32.45 32.283 32.258 32.193 32.128 32.068 31.955 31.805 31.655 31.26 31.175 31.558 31.675 31.665 31.623 31.598 31.54 31.458 31.42 31.39 31.325 31.258 31.22 31.185 31.165 31.145 31.19 31.21 31.27 31.325 31.373 31.47 31.555 31.593 31.698 31.738 31.748 31.74 31.728 31.72 31.695 31.68 31.628 31.625 31.673 31.618 31.563 31.64 31.71 31.74 31.73 31.773 31.84 31.825 31.798 31.838 31.863 31.863 31.86 31.873 31.855 31.838 31.863 31.86 31.82 31.863 31.848 31.805 31.773 31.745 31.708 31.665 31.64 31.633 31.63 31.585 31.555 31.523 31.47 31.458 31.433 31.393 31.378 31.378 31.338 31.288 31.343 31.33 31.315 31.325 31.313 31.305 31.308 31.358 31.345 31.383 31.37 31.355 31.39 31.383 31.435 31.435 31.46 31.485 31.548 31.553 31.58 31.6 31.653 31.675 31.7 31.66 31.663 31.653 31.65 31.63 31.56 31.55 31.545 31.52 31.423 31.42 31.398 31.393 31.355 31.328 31.303 31.32 31.255 31.22 31.215 31.215 31.19 31.18 31.168 31.12 31.173 31.138 31.073 31.093 31.085 31.05 31.03 31.003 30.983 30.95 30.89 30.85 30.838 30.808 30.818 30.835 30.818 30.775 30.75 30.765 30.79 30.73 30.733 30.808 30.795 30.853 30.83 30.903 30.888 30.93 30.948 30.958 30.953 30.978 30.968 30.978 31.008 30.968 30.97 30.958 30.965 30.943 30.92 30.92 30.928 30.903 30.893 30.845 30.848 30.84 30.813 30.793 30.715 30.783 30.74 30.738 30.758 30.775 30.745 30.768 30.718 30.738 30.748 30.693 30.66 30.653 30.635 30.63 30.633 30.668 30.638 30.6 30.608 30.638 30.61 30.57 30.573 30.538 30.553 30.535 30.52 30.448 30.475 30.493 30.498 30.465 30.373 30.408 30.415 30.353 30.383 30.33 30.313 30.32 30.298 30.355 30.383 30.378 30.25 30.235 30.235 30.215 30.203 30.178 30.18 30.16 30.163 30.13 30.105 30.075 30.055 30.058 30.018 29.983 29.958 29.905 29.89 29.828 29.785 29.75 29.715 29.698 29.638 29.628 29.623 29.588 29.578 29.638 29.678 29.673 29.698 29.74 29.763 29.768 29.83 29.825 29.833 29.785 29.775 29.73 29.715 29.678 29.655 29.63 29.605 29.535 29.493 29.473 29.395 29.383 29.355 29.385 29.383 29.383 29.37 29.383 29.393 29.385 29.403 29.463 29.46 29.51 29.573 29.648 29.66 29.703 29.79 29.793 29.823 29.92 29.903 29.88 29.863 29.865 29.81 29.808
35.843 35.775 35.765 35.693 35.653 35.66 35.635 35.648 35.67 35.663 35.665 35.67 35.685 35.72 35.68 35.668 35.663 35.605 35.578 35.523 35.455 35.34 35.323 35.265 35.218 35.153 35.108 35.06 35.005 34.985 34.998 34.93 34.918 34.92 34.938 34.963 34.94 34.98 34.99 34.988 34.955 34.928 34.875 34.773 34.703 34.608 34.53 34.448 34.33 34.268 34.213 34.103 33.965 33.823 33.688 33.59 33.498 33.475 33.468 33.428 33.363 33.363 33.34 33.338 33.305 33.325 33.373 33.383 33.403 33.408 33.498 33.633 33.525 33.413 33.278 33.183 33.118 33.148 33.15 33.108 33.083 33.043 32.93 32.913 32.885 32.858 32.825 32.7 32.583 32.63 32.515 32.385 32.338 32.465 32.485 32.53 32.643 32.64 32.62 32.523 32.58 32.753 32.755 32.79 32.77 32.755 32.76 32.765 32.805 32.913 33.035 33.213 33.373 33.445 33.353 33.435 33.498 33.38 33.218 33.128 33.083 32.973 32.808 32.67 32.72 32.798 32.965 32.823 32.618 32.41 32.22 32.2 32.153 31.875 31.585 31.433 31.4 31.178 31.205 31.308 31.433 31.455 31.568 31.535 31.533 31.46 31.43 31.398 31.37 31.303 31.238 31.245 31.183 31.205 31.183 31.225 31.248 31.338 31.415 31.508 31.598 31.608 31.605 31.635 31.6 31.525 31.528 31.503 31.515 31.565 31.568 31.518 31.588 31.628 31.608 31.578 31.625 31.67 31.68 31.69 31.76 31.795 31.79 31.793 31.803 31.838 31.865 31.843 31.818 31.8 31.778 31.823 31.848 31.82 31.818 31.788 31.753 31.71 31.7 31.708 31.653 31.625 31.633 31.64 31.583 31.545 31.51 31.49 31.475 31.4 31.375 31.373 31.365 31.315 31.27 31.313 31.323 31.268 31.278 31.265 31.28 31.265 31.333 31.373 31.358 31.355 31.348 31.413 31.405 31.418 31.468 31.478 31.498 31.548 31.583 31.613 31.655 31.688 31.72 31.73 31.703 31.68 31.673 31.643 31.658 31.61 31.55 31.553 31.52 31.453 31.453 31.398 31.403 31.39 31.363 31.283 31.25 31.223 31.213 31.228 31.205 31.173 31.215 31.148 31.155 31.145 31.128 31.05 31.08 31.06 31.055 31.058 31.018 30.938 30.963 30.9 30.845 30.883 30.835 30.815 30.806 30.775 30.77 30.79 30.785 30.79 30.775 30.748 30.785 30.798 30.8 30.823 30.903 30.908 30.903 30.95 30.955 30.96 30.975 30.99 30.995 31.025 31.005 30.988 30.983 30.963 30.92 30.908 30.863 30.853 30.91 30.88 30.865 30.84 30.855 30.79 30.748 30.7 30.728 30.728 30.723 30.728 30.71 30.665 30.718 30.71 30.67 30.675 30.71 30.635 30.648 30.638 30.638 30.638 30.63 30.613 30.598 30.585 30.523 30.545 30.533 30.495 30.533 30.545 30.545 30.493 30.493 30.488 30.455 30.43 30.468 30.41 30.373 30.373 30.365 30.415 30.353 30.393 30.31 30.23 30.283 30.318 30.343 30.275 30.238 30.233 30.225 30.195 30.188 30.163 30.183 30.148 30.138 30.123 30.088 30.08 30.07 30.033 30.018 29.98 29.95 29.898 29.863 29.81 29.745 29.695 29.655 29.623 29.6 29.558 29.55 29.56 29.565 29.613 29.618 29.645 29.68 29.713 29.73 29.755 29.773 29.775 29.77 29.753 29.748 29.725 29.663 29.663 29.633 29.585 29.523 29.49 29.433 29.39 29.365 29.348 29.343 29.345 29.373 29.365 29.385 29.39 29.388 29.42 29.473 29.485 29.513 29.603 29.68 29.685 29.723 29.778 29.808 29.865 29.88 29.918 29.858 29.848 29.81 29.818 29.813
35.825 35.78 35.71 35.673 35.615 35.585 35.575 35.588 35.613 35.553 35.625 35.635 35.63 35.638 35.63 35.615 35.575 35.543 35.528 35.488 35.435 35.323 35.283 35.243 35.165 35.16 35.118 35.08 35.01 35.005 34.993 34.953 34.958 34.94 34.958 34.97 34.963 34.96 34.983 34.978 34.935 34.913 34.885 34.758 34.668 34.625 34.505 34.423 34.323 34.223 34.13 34.043 33.948 33.845 33.728 33.685 33.613 33.563 33.54 33.518 33.403 33.388 33.408 33.423 33.403 33.393 33.378 33.4 33.395 33.408 33.47 33.66 33.775 33.558 33.355 33.29 33.29 33.215 33.263 33.245 33.278 33.265 33.165 33.133 33.1 33.015 32.96 32.815 32.715 32.715 32.708 32.608 32.505 32.543 32.488 32.54 32.658 32.693 32.658 32.595 32.625 32.76 32.808 32.78 32.715 32.73 32.785 32.838 32.803 32.91 33.078 33.3 33.468 33.575 33.56 33.473 33.433 33.383 33.3 33.265 33.103 32.968 32.933 32.753 32.678 32.74 32.85 32.81 32.595 32.413 32.243 32.095 31.898 31.448 31.38 31.34 31.33 31.26 31.293 31.313 31.348 31.31 31.328 31.413 31.463 31.445 31.425 31.405 31.348 31.298 31.27 31.263 31.248 31.265 31.278 31.323 31.373 31.445 31.52 31.538 31.485 31.413 31.403 31.353 31.413 31.448 31.428 31.438 31.44 31.538 31.54 31.553 31.625 31.64 31.62 31.65 31.66 31.65 31.675 31.688 31.71 31.72 31.75 31.743 31.773 31.76 31.818 31.818 31.775 31.77 31.753 31.763 31.763 31.73 31.728 31.713 31.705 31.665 31.66 31.66 31.63 31.615 31.603 31.603 31.585 31.543 31.485 31.485 31.453 31.42 31.408 31.353 31.323 31.278 31.29 31.26 31.243 31.235 31.258 31.273 31.275 31.328 31.318 31.345 31.35 31.348 31.345 31.383 31.385 31.403 31.463 31.478 31.51 31.548 31.583 31.613 31.685 31.735 31.73 31.705 31.735 31.743 31.713 31.665 31.665 31.623 31.613 31.588 31.498 31.47 31.483 31.408 31.38 31.383 31.32 31.29 31.283 31.253 31.21 31.208 31.208 31.188 31.183 31.155 31.153 31.14 31.11 31.068 31.065 31.038 30.973 31.035 30.95 30.89 30.92 30.868 30.82 30.863 30.865 30.78 30.795 30.78 30.795 30.778 30.78 30.795 30.76 30.75 30.74 30.728 30.768 30.813 30.848 30.855 30.898 30.953 30.95 30.968 30.97 30.973 30.96 30.993 30.988 30.955 30.945 30.945 30.895 30.92 30.905 30.868 30.868 30.858 30.795 30.803 30.783 30.708 30.688 30.675 30.655 30.68 30.665 30.65 30.665 30.665 30.675 30.643 30.66 30.658 30.68 30.653 30.618 30.63 30.648 30.603 30.595 30.565 30.523 30.538 30.508 30.51 30.498 30.5 30.503 30.475 30.515 30.523 30.52 30.495 30.44 30.41 30.418 30.44 30.373 30.355 30.368 30.308 30.36 30.363 30.29 30.213 30.23 30.26 30.303 30.27 30.228 30.223 30.233 30.235 30.18 30.133 30.155 30.153 30.12 30.108 30.093 30.103 30.07 30.055 30.055 29.988 29.96 29.875 29.86 29.813 29.718 29.69 29.675 29.64 29.578 29.525 29.5 29.498 29.51 29.53 29.558 29.578 29.618 29.663 29.685 29.71 29.738 29.76 29.763 29.765 29.753 29.715 29.695 29.633 29.6 29.59 29.505 29.5 29.458 29.42 29.383 29.34 29.328 29.355 29.35 29.355 29.355 29.343 29.4 29.428 29.445 29.518 29.565 29.623 29.665 29.73 29.775 29.805 29.86 29.88 29.89 29.875 29.878 29.87 29.843 29.813 29.79
35.765 35.765 35.685 35.628 35.585 35.565 35.543 35.543 35.56 35.575 35.59 35.593 35.578 35.6 35.613 35.533 35.528 35.548 35.473 35.405 35.365 35.273 35.205 35.195 35.178 35.148 35.11 35.06 35.008 34.98 35.008 35.008 34.95 34.938 34.965 34.948 34.978 34.965 34.923 34.95 34.94 34.873 34.838 34.773 34.675 34.6 34.5 34.388 34.315 34.215 34.115 34.023 33.973 33.923 33.88 33.773 33.685 33.583 33.57 33.578 33.513 33.478 33.528 33.578 33.545 33.493 33.468 33.463 33.425 33.485 33.53 33.608 33.71 33.653 33.515 33.403 33.448 33.318 33.305 33.355 33.45 33.47 33.405 33.343 33.24 33.19 33.115 32.975 32.888 32.883 32.848 32.81 32.738 32.695 32.638 32.583 32.59 32.595 32.633 32.593 32.568 32.613 32.568 32.63 32.678 32.713 32.755 32.795 32.878 32.975 33.15 33.26 33.445 33.603 33.563 33.525 33.49 33.47 33.385 33.32 33.168 33.015 32.89 32.76 32.698 32.663 32.738 32.573 32.348 32.113 31.905 31.658 31.435 31.328 31.738 31.778 31.543 31.353 31.318 31.295 31.223 31.18 31.208 31.28 31.368 31.403 31.415 31.37 31.34 31.295 31.333 31.36 31.41 31.453 31.438 31.415 31.445 31.395 31.343 31.343 31.32 31.315 31.313 31.265 31.305 31.39 31.418 31.528 31.533 31.55 31.538 31.523 31.595 31.61 31.603 31.638 31.615 31.625 31.655 31.673 31.688 31.663 31.708 31.73 31.753 31.693 31.73 31.728 31.74 31.735 31.72 31.68 31.713 31.685 31.668 31.693 31.71 31.645 31.613 31.668 31.63 31.633 31.605 31.55 31.535 31.508 31.478 31.448 31.423 31.395 31.393 31.35 31.315 31.245 31.228 31.23 31.213 31.223 31.223 31.22 31.258 31.285 31.31 31.328 31.33 31.37 31.343 31.383 31.415 31.405 31.445 31.475 31.543 31.58 31.623 31.603 31.66 31.748 31.718 31.74 31.775 31.753 31.77 31.713 31.688 31.63 31.623 31.585 31.495 31.475 31.458 31.413 31.395 31.375 31.335 31.313 31.29 31.263 31.235 31.2 31.193 31.193 31.165 31.128 31.178 31.153 31.075 31.053 31.05 31.043 30.98 30.95 30.898 30.885 30.905 30.885 30.825 30.833 30.868 30.793 30.795 30.79 30.8 30.768 30.76 30.765 30.78 30.773 30.755 30.75 30.793 30.815 30.818 30.87 30.898 30.925 30.973 30.945 30.953 30.95 30.95 30.915 30.945 30.943 30.91 30.9 30.89 30.895 30.91 30.868 30.88 30.855 30.823 30.788 30.743 30.703 30.648 30.66 30.618 30.59 30.623 30.63 30.678 30.67 30.653 30.655 30.665 30.645 30.668 30.615 30.6 30.585 30.535 30.575 30.55 30.53 30.535 30.57 30.538 30.53 30.495 30.49 30.475 30.455 30.453 30.413 30.443 30.465 30.433 30.41 30.38 30.41 30.358 30.373 30.398 30.343 30.355 30.335 30.32 30.238 30.183 30.23 30.223 30.243 30.253 30.225 30.225 30.22 30.183 30.153 30.13 30.138 30.118 30.113 30.133 30.108 30.103 30.058 30.033 30.008 29.948 29.875 29.85 29.808 29.713 29.688 29.653 29.608 29.535 29.508 29.463 29.44 29.425 29.46 29.503 29.55 29.588 29.625 29.673 29.655 29.688 29.728 29.743 29.725 29.733 29.723 29.693 29.633 29.588 29.58 29.513 29.493 29.45 29.39 29.375 29.338 29.313 29.345 29.375 29.353 29.373 29.355 29.395 29.44 29.485 29.535 29.583 29.605 29.678 29.73 29.793 29.84 29.868 29.885 29.848 29.878 29.875 29.868 29.853 29.835 29.778
35.768 35.733 35.678 35.6 35.585 35.545 35.525 35.52 35.555 35.503 35.56 35.575 35.575 35.578 35.57 35.525 35.525 35.493 35.393 35.333 35.3 35.243 35.188 35.173 35.17 35.135 35.12 35.105 35.053 35.02 35 34.973 34.99 35.013 35.005 34.97 34.968 34.928 34.94 34.95 34.91 34.858 34.863 34.768 34.658 34.555 34.43 34.37 34.283 34.208 34.185 34.063 33.978 33.993 33.93 33.815 33.73 33.658 33.598 33.623 33.635 33.568 33.59 33.633 33.61 33.525 33.51 33.513 33.488 33.51 33.533 33.56 33.66 33.738 33.643 33.528 33.5 33.54 33.518 33.518 33.59 33.625 33.59 33.505 33.4 33.295 33.2 33.14 33.078 33.003 32.97 32.895 32.87 32.805 32.713 32.558 32.588 32.61 32.585 32.593 32.538 32.555 32.45 32.473 32.583 32.653 32.748 32.805 32.893 32.98 33.183 33.288 33.43 33.553 33.555 33.635 33.62 33.51 33.44 33.393 33.278 33.088 32.913 32.748 32.618 32.578 32.725 32.405 31.793 31.4 31.355 31.205 31.34 31.705 31.875 31.82 31.693 31.57 31.468 31.33 31.198 31.163 31.158 31.275 31.38 31.415 31.445 31.423 31.433 31.4 31.455 31.48 31.475 31.47 31.433 31.403 31.323 31.275 31.278 31.375 31.343 31.278 31.348 31.34 31.333 31.395 31.45 31.563 31.548 31.548 31.558 31.538 31.575 31.6 31.603 31.62 31.613 31.61 31.65 31.63 31.665 31.645 31.648 31.67 31.67 31.65 31.66 31.638 31.698 31.688 31.658 31.665 31.67 31.683 31.658 31.678 31.67 31.66 31.623 31.603 31.625 31.58 31.528 31.518 31.518 31.465 31.465 31.435 31.415 31.358 31.365 31.293 31.265 31.23 31.183 31.173 31.183 31.195 31.188 31.178 31.225 31.265 31.323 31.323 31.343 31.368 31.385 31.39 31.413 31.453 31.48 31.48 31.493 31.558 31.635 31.653 31.705 31.765 31.778 31.823 31.8 31.783 31.77 31.733 31.658 31.65 31.645 31.583 31.535 31.45 31.498 31.398 31.403 31.373 31.373 31.335 31.3 31.3 31.245 31.198 31.213 31.188 31.148 31.16 31.185 31.123 31.103 31.085 31.048 31.008 31.003 30.99 30.955 30.915 30.92 30.93 30.853 30.818 30.8 30.765 30.785 30.76 30.765 30.78 30.718 30.733 30.773 30.753 30.745 30.818 30.806 30.818 30.83 30.825 30.863 30.865 30.86 30.843 30.873 30.945 30.958 30.94 30.945 30.943 30.938 30.953 30.913 30.86 30.85 30.868 30.813 30.77 30.743 30.708 30.675 30.658 30.63 30.613 30.613 30.633 30.64 30.588 30.588 30.575 30.598 30.603 30.615 30.615 30.633 30.635 30.598 30.59 30.54 30.535 30.498 30.533 30.518 30.518 30.495 30.5 30.48 30.435 30.413 30.42 30.44 30.408 30.37 30.393 30.375 30.388 30.415 30.428 30.383 30.353 30.358 30.308 30.333 30.338 30.253 30.198 30.175 30.193 30.188 30.228 30.323 30.228 30.208 30.193 30.17 30.14 30.138 30.13 30.13 30.1 30.075 30.09 30.098 30.09 30.033 30.003 29.993 29.905 29.865 29.8 29.745 29.69 29.625 29.58 29.515 29.475 29.428 29.425 29.42 29.428 29.458 29.473 29.518 29.58 29.59 29.613 29.65 29.693 29.738 29.693 29.703 29.675 29.645 29.628 29.61 29.588 29.53 29.465 29.443 29.388 29.373 29.31 29.32 29.33 29.358 29.348 29.363 29.378 29.408 29.428 29.485 29.545 29.598 29.625 29.683 29.765 29.825 29.83 29.873 29.875 29.825 29.885 29.92 29.88 29.863 29.813 29.768
35.73 35.705 35.678 35.588 35.553 35.528 35.503 35.523 35.513 35.503 35.533 35.545 35.543 35.53 35.51 35.47 35.473 35.433 35.345 35.268 35.23 35.188 35.148 35.123 35.103 35.09 35.125 35.11 35.045 35.05 35.025 35.005 35 35.028 35.023 34.973 35.013 34.968 34.93 34.908 34.868 34.875 34.82 34.728 34.615 34.535 34.475 34.375 34.333 34.23 34.163 34.07 34.005 33.948 33.918 33.858 33.795 33.735 33.71 33.7 33.733 33.72 33.66 33.648 33.628 33.585 33.575 33.575 33.55 33.583 33.553 33.525 33.545 33.613 33.625 33.548 33.56 33.643 33.633 33.615 33.67 33.635 33.59 33.57 33.528 33.465 33.378 33.283 33.23 33.128 33.083 33.058 32.86 32.845 32.808 32.713 32.69 32.685 32.643 32.62 32.555 32.533 32.473 32.44 32.478 32.64 32.773 32.788 32.803 32.963 33.138 33.22 33.355 33.47 33.573 33.593 33.608 33.548 33.475 33.463 33.255 32.66 32.283 32.208 32.155 32.19 32.11 31.655 31.615 31.445 31.453 31.533 31.548 31.688 31.695 31.633 31.638 31.71 31.67 31.565 31.505 31.365 31.168 31.198 31.4 31.47 31.485 31.475 31.453 31.44 31.43 31.425 31.41 31.408 31.373 31.325 31.303 31.245 31.278 31.345 31.34 31.358 31.41 31.388 31.338 31.363 31.455 31.483 31.5 31.55 31.56 31.568 31.585 31.605 31.613 31.633 31.615 31.575 31.605 31.595 31.62 31.615 31.618 31.583 31.62 31.665 31.653 31.61 31.615 31.618 31.585 31.625 31.595 31.633 31.653 31.633 31.618 31.663 31.645 31.575 31.573 31.56 31.543 31.488 31.483 31.428 31.435 31.385 31.35 31.325 31.33 31.26 31.205 31.23 31.23 31.2 31.158 31.158 31.208 31.17 31.218 31.238 31.308 31.348 31.353 31.343 31.42 31.425 31.423 31.475 31.503 31.52 31.593 31.625 31.66 31.728 31.758 31.785 31.785 31.83 31.825 31.805 31.793 31.75 31.703 31.668 31.64 31.61 31.545 31.493 31.505 31.483 31.46 31.41 31.395 31.335 31.306 31.288 31.235 31.253 31.263 31.228 31.208 31.175 31.183 31.133 31.108 31.12 31.058 31.003 31.005 30.975 30.95 30.893 30.885 30.863 30.85 30.79 30.735 30.768 30.788 30.748 30.74 30.798 30.76 30.773 30.8 30.765 30.753 30.775 30.773 30.773 30.783 30.818 30.803 30.8 30.875 30.86 30.875 30.918 30.965 30.945 30.918 30.92 30.895 30.915 30.853 30.818 30.815 30.83 30.803 30.738 30.71 30.68 30.65 30.625 30.628 30.625 30.578 30.573 30.588 30.53 30.495 30.51 30.57 30.585 30.568 30.6 30.625 30.603 30.6 30.588 30.568 30.505 30.463 30.503 30.475 30.445 30.45 30.44 30.485 30.443 30.423 30.418 30.425 30.453 30.415 30.425 30.4 30.348 30.358 30.39 30.315 30.33 30.308 30.288 30.32 30.32 30.23 30.175 30.22 30.205 30.163 30.195 30.26 30.218 30.178 30.208 30.195 30.155 30.113 30.115 30.128 30.113 30.103 30.11 30.113 30.09 30.055 30.058 30.003 29.943 29.895 29.813 29.748 29.705 29.64 29.538 29.485 29.443 29.385 29.403 29.385 29.383 29.418 29.425 29.473 29.503 29.55 29.595 29.65 29.67 29.728 29.71 29.68 29.688 29.655 29.61 29.593 29.585 29.513 29.475 29.455 29.388 29.378 29.32 29.328 29.348 29.365 29.345 29.363 29.395 29.425 29.435 29.475 29.53 29.575 29.648 29.713 29.79 29.833 29.84 29.868 29.86 29.885 29.913 29.905 29.91 29.855 29.815 29.768
35.695 35.648 35.643 35.585 35.553 35.508 35.468 35.468 35.48 35.493 35.47 35.495 35.49 35.478 35.453 35.425 35.35 35.33 35.29 35.238 35.195 35.15 35.11 35.113 35.068 35.05 35.06 35.118 35.08 35.083 35.043 35.018 35.033 35.023 35.013 34.975 35.03 35.005 34.935 34.885 34.828 34.82 34.778 34.725 34.633 34.593 34.545 34.413 34.348 34.278 34.185 34.07 34.008 33.978 33.943 33.95 33.938 33.898 33.813 33.8 33.825 33.803 33.708 33.663 33.668 33.665 33.713 33.678 33.62 33.62 33.573 33.583 33.578 33.628 33.593 33.623 33.653 33.65 33.65 33.643 33.628 33.583 33.59 33.618 33.603 33.553 33.528 33.45 33.388 33.293 33.225 33.19 33.053 33.035 32.965 32.845 32.763 32.708 32.678 32.593 32.468 32.508 32.61 32.625 32.615 32.678 32.758 32.718 32.808 32.983 33.06 33.238 33.448 33.523 33.58 33.593 33.61 33.6 33.588 33.443 32.855 31.995 31.728 31.723 31.82 31.963 31.805 31.76 31.825 31.8 31.873 31.998 31.83 31.578 31.57 31.548 31.628 31.73 31.775 31.698 31.615 31.458 31.313 31.308 31.433 31.475 31.445 31.398 31.395 31.378 31.36 31.373 31.413 31.423 31.308 31.328 31.38 31.335 31.355 31.363 31.353 31.328 31.355 31.328 31.343 31.393 31.438 31.483 31.495 31.49 31.495 31.525 31.488 31.575 31.578 31.62 31.613 31.55 31.565 31.583 31.545 31.555 31.568 31.583 31.585 31.588 31.583 31.57 31.55 31.603 31.573 31.615 31.623 31.618 31.623 31.56 31.6 31.6 31.578 31.573 31.518 31.513 31.488 31.445 31.413 31.393 31.403 31.338 31.295 31.325 31.278 31.218 31.185 31.16 31.188 31.148 31.138 31.165 31.185 31.198 31.233 31.228 31.28 31.33 31.315 31.39 31.45 31.473 31.54 31.555 31.55 31.583 31.648 31.668 31.698 31.725 31.748 31.785 31.805 31.808 31.843 31.788 31.785 31.788 31.725 31.698 31.668 31.613 31.57 31.54 31.556 31.533 31.478 31.393 31.395 31.38 31.31 31.283 31.248 31.238 31.25 31.245 31.22 31.22 31.198 31.138 31.098 31.123 31.088 31.056 31.02 30.983 30.933 30.885 30.85 30.843 30.833 30.803 30.745 30.818 30.785 30.748 30.77 30.793 30.783 30.788 30.753 30.755 30.755 30.743 30.793 30.778 30.783 30.813 30.808 30.82 30.883 30.853 30.865 30.875 30.91 30.905 30.915 30.913 30.853 30.818 30.83 30.803 30.775 30.783 30.778 30.763 30.705 30.678 30.613 30.583 30.55 30.558 30.53 30.535 30.55 30.54 30.488 30.515 30.56 30.56 30.588 30.565 30.585 30.585 30.56 30.54 30.51 30.503 30.435 30.475 30.443 30.415 30.428 30.423 30.455 30.385 30.39 30.403 30.41 30.393 30.388 30.36 30.388 30.345 30.368 30.328 30.333 30.28 30.29 30.295 30.28 30.32 30.27 30.178 30.183 30.2 30.135 30.163 30.21 30.24 30.208 30.188 30.155 30.153 30.098 30.098 30.11 30.103 30.103 30.108 30.118 30.085 30.083 30.045 29.988 29.938 29.878 29.798 29.71 29.685 29.608 29.51 29.488 29.443 29.355 29.333 29.323 29.335 29.368 29.368 29.408 29.45 29.5 29.543 29.578 29.62 29.678 29.673 29.67 29.683 29.658 29.605 29.58 29.56 29.523 29.448 29.433 29.383 29.373 29.333 29.288 29.31 29.313 29.36 29.385 29.4 29.448 29.483 29.53 29.55 29.608 29.67 29.743 29.79 29.835 29.84 29.845 29.843 29.9 29.905 29.863 29.86 29.838 29.78 29.743
35.678 35.645 35.618 35.57 35.533 35.513 35.435 35.383 35.408 35.483 35.465 35.488 35.458 35.448 35.41 35.385 35.313 35.288 35.238 35.198 35.148 35.13 35.083 35.105 35.073 35.053 35.035 35.098 35.088 35.08 35.07 35.073 35.053 35.015 35.023 34.993 34.975 34.963 34.9 34.84 34.803 34.795 34.803 34.758 34.675 34.59 34.493 34.353 34.298 34.268 34.175 34.105 34.075 34.065 34.018 34.023 33.99 33.963 33.9 33.875 33.865 33.84 33.838 33.818 33.833 33.833 33.803 33.75 33.71 33.705 33.675 33.62 33.65 33.638 33.6 33.618 33.718 33.698 33.683 33.668 33.685 33.693 33.673 33.648 33.64 33.618 33.615 33.528 33.505 33.415 33.365 33.285 33.183 33.168 33.08 32.95 32.825 32.79 32.723 32.67 32.593 32.623 32.708 32.64 32.69 32.7 32.748 32.765 32.825 32.97 33.105 33.253 33.438 33.533 33.678 33.608 33.563 33.518 33.348 33.083 32.195 31.678 31.703 31.918 32.055 32.265 32.183 32.165 32.173 32.105 32.023 31.83 31.66 31.585 31.583 31.628 31.688 31.735 31.738 31.628 31.495 31.403 31.383 31.348 31.368 31.405 31.338 31.343 31.328 31.36 31.325 31.4 31.463 31.395 31.353 31.368 31.345 31.29 31.335 31.343 31.345 31.368 31.333 31.37 31.383 31.4 31.415 31.435 31.45 31.448 31.48 31.49 31.5 31.533 31.563 31.625 31.603 31.588 31.558 31.55 31.528 31.51 31.53 31.548 31.513 31.523 31.548 31.573 31.55 31.565 31.585 31.61 31.598 31.618 31.625 31.56 31.578 31.58 31.543 31.51 31.485 31.505 31.455 31.425 31.373 31.368 31.37 31.3 31.26 31.26 31.24 31.19 31.188 31.143 31.125 31.125 31.145 31.143 31.173 31.153 31.208 31.243 31.28 31.348 31.355 31.393 31.45 31.505 31.538 31.575 31.573 31.623 31.67 31.67 31.668 31.718 31.74 31.725 31.798 31.815 31.835 31.828 31.78 31.785 31.765 31.743 31.668 31.658 31.623 31.543 31.51 31.508 31.465 31.395 31.375 31.358 31.345 31.35 31.29 31.255 31.235 31.263 31.243 31.22 31.168 31.14 31.123 31.123 31.075 31.06 31.015 30.963 30.935 30.918 30.87 30.883 30.828 30.8 30.76 30.79 30.798 30.785 30.73 30.79 30.803 30.806 30.82 30.758 30.753 30.813 30.8 30.788 30.808 30.788 30.78 30.775 30.835 30.853 30.83 30.843 30.855 30.873 30.878 30.89 30.803 30.81 30.788 30.75 30.743 30.715 30.748 30.705 30.678 30.643 30.638 30.575 30.558 30.523 30.538 30.543 30.518 30.545 30.495 30.52 30.53 30.543 30.573 30.555 30.57 30.558 30.55 30.525 30.495 30.45 30.428 30.413 30.423 30.4 30.4 30.435 30.418 30.333 30.343 30.355 30.34 30.335 30.32 30.335 30.345 30.3 30.31 30.298 30.265 30.268 30.295 30.268 30.303 30.288 30.263 30.215 30.178 30.165 30.098 30.163 30.208 30.255 30.218 30.15 30.143 30.11 30.098 30.08 30.063 30.078 30.07 30.118 30.098 30.065 30.058 30.038 29.995 29.945 29.883 29.778 29.715 29.668 29.58 29.488 29.445 29.373 29.335 29.28 29.263 29.25 29.258 29.33 29.345 29.385 29.435 29.488 29.555 29.595 29.608 29.653 29.653 29.668 29.648 29.62 29.545 29.548 29.51 29.468 29.41 29.38 29.328 29.34 29.32 29.29 29.33 29.37 29.375 29.38 29.438 29.508 29.518 29.555 29.603 29.66 29.735 29.775 29.813 29.828 29.815 29.828 29.84 29.85 29.833 29.82 29.823 29.738 29.718
35.703 35.615 35.595 35.568 35.493 35.485 35.453 35.405 35.41 35.423 35.433 35.433 35.433 35.41 35.36 35.375 35.3 35.255 35.2 35.145 35.108 35.093 35.04 35.055 35.053 35.06 35.035 35.098 35.108 35.095 35.11 35.12 35.085 35.055 35.02 34.958 34.94 34.94 34.915 34.885 34.875 34.868 34.815 34.75 34.653 34.573 34.468 34.375 34.315 34.253 34.215 34.18 34.15 34.15 34.098 34.058 34.055 34.028 33.99 33.92 33.92 33.943 33.958 33.943 33.923 33.878 33.868 33.818 33.79 33.798 33.773 33.705 33.733 33.748 33.718 33.713 33.688 33.75 33.708 33.698 33.715 33.658 33.648 33.67 33.688 33.695 33.685 33.618 33.595 33.47 33.353 33.315 33.305 33.283 33.195 33.035 32.92 32.878 32.843 32.81 32.745 32.683 32.66 32.705 32.715 32.775 32.758 32.77 32.833 32.885 33.02 33.09 33.345 33.413 33.385 33.268 33.055 32.665 32.318 32.13 31.733 31.875 32.308 32.653 32.54 32.423 32.275 32.133 32.098 31.938 31.793 31.683 31.658 31.685 31.733 31.763 31.763 31.738 31.683 31.623 31.535 31.385 31.208 30.993 31.125 31.25 31.248 31.25 31.21 31.305 31.31 31.42 31.45 31.4 31.398 31.383 31.323 31.31 31.343 31.325 31.345 31.365 31.345 31.358 31.413 31.393 31.4 31.423 31.423 31.425 31.503 31.49 31.548 31.608 31.575 31.585 31.57 31.565 31.545 31.51 31.49 31.505 31.54 31.555 31.518 31.52 31.543 31.55 31.565 31.568 31.56 31.563 31.538 31.538 31.555 31.55 31.523 31.523 31.515 31.478 31.47 31.463 31.45 31.395 31.335 31.313 31.305 31.305 31.243 31.215 31.188 31.195 31.198 31.14 31.115 31.128 31.12 31.135 31.163 31.155 31.205 31.228 31.248 31.295 31.33 31.393 31.433 31.478 31.52 31.563 31.565 31.565 31.608 31.685 31.668 31.708 31.768 31.753 31.815 31.83 31.855 31.86 31.848 31.853 31.833 31.763 31.71 31.645 31.6 31.58 31.508 31.5 31.48 31.443 31.408 31.385 31.355 31.348 31.288 31.273 31.255 31.29 31.268 31.22 31.198 31.185 31.2 31.148 31.108 31.123 31.043 31 30.953 30.92 30.885 30.855 30.808 30.84 30.803 30.828 30.845 30.785 30.778 30.808 30.798 30.803 30.815 30.78 30.743 30.765 30.778 30.775 30.778 30.825 30.768 30.783 30.81 30.788 30.803 30.84 30.85 30.793 30.818 30.823 30.783 30.765 30.753 30.728 30.655 30.645 30.71 30.63 30.638 30.62 30.605 30.565 30.578 30.555 30.55 30.538 30.5 30.498 30.518 30.493 30.49 30.52 30.498 30.51 30.52 30.515 30.493 30.48 30.465 30.458 30.413 30.395 30.39 30.325 30.308 30.348 30.338 30.378 30.328 30.378 30.353 30.298 30.318 30.358 30.353 30.283 30.31 30.315 30.22 30.268 30.298 30.278 30.235 30.248 30.248 30.185 30.14 30.143 30.125 30.135 30.143 30.245 30.285 30.133 30.13 30.113 30.07 30.075 30.033 30.053 30.06 30.113 30.103 30.083 30.055 29.98 29.975 29.933 29.865 29.785 29.72 29.638 29.575 29.475 29.425 29.36 29.288 29.24 29.21 29.183 29.19 29.238 29.27 29.313 29.375 29.41 29.483 29.555 29.618 29.618 29.62 29.653 29.613 29.603 29.543 29.503 29.505 29.468 29.43 29.388 29.355 29.34 29.33 29.298 29.308 29.395 29.38 29.403 29.443 29.495 29.53 29.553 29.61 29.675 29.748 29.775 29.83 29.803 29.81 29.86 29.85 29.83 29.825 29.843 29.81 29.725 29.698
35.673 35.62 35.603 35.568 35.495 35.465 35.445 35.433 35.383 35.408 35.418 35.38 35.408 35.37 35.353 35.34 35.26 35.218 35.16 35.113 35.1 35.073 35.045 35.048 35.07 35.11 35.105 35.13 35.133 35.138 35.145 35.11 35.065 35.02 34.965 34.945 34.945 34.943 34.953 34.905 34.895 34.835 34.793 34.718 34.653 34.553 34.473 34.373 34.328 34.308 34.283 34.253 34.223 34.188 34.155 34.123 34.105 34.09 34.048 34.008 34.018 34.043 34.048 34.018 33.995 33.968 33.933 33.89 33.9 33.938 33.913 33.928 33.848 33.893 33.858 33.8 33.75 33.725 33.795 33.81 33.77 33.745 33.715 33.753 33.77 33.753 33.748 33.738 33.695 33.59 33.47 33.465 33.403 33.368 33.268 33.055 33.043 33.005 32.943 32.905 32.713 32.665 32.643 32.635 32.703 32.775 32.793 32.798 32.828 32.81 32.913 32.995 33.1 33 32.79 32.528 32.168 31.745 31.678 31.77 32.27 32.78 33.088 33.045 32.758 32.415 32.19 32.005 31.915 31.848 31.83 31.815 31.798 31.753 31.74 31.688 31.633 31.578 31.498 31.508 31.498 31.488 31.348 31.033 31.055 31.178 31.213 31.168 31.178 31.268 31.31 31.35 31.413 31.4 31.383 31.355 31.328 31.318 31.305 31.358 31.328 31.4 31.388 31.355 31.363 31.368 31.405 31.383 31.43 31.428 31.47 31.508 31.483 31.555 31.543 31.525 31.535 31.503 31.528 31.488 31.47 31.483 31.488 31.508 31.533 31.498 31.495 31.473 31.485 31.508 31.498 31.545 31.533 31.495 31.47 31.488 31.508 31.468 31.45 31.478 31.45 31.41 31.408 31.373 31.315 31.273 31.233 31.213 31.178 31.125 31.165 31.143 31.13 31.115 31.148 31.083 31.108 31.145 31.115 31.105 31.158 31.213 31.253 31.283 31.363 31.373 31.403 31.445 31.535 31.578 31.593 31.595 31.66 31.698 31.703 31.715 31.795 31.818 31.835 31.868 31.91 31.898 31.855 31.808 31.815 31.753 31.69 31.678 31.618 31.543 31.533 31.48 31.485 31.423 31.41 31.393 31.36 31.306 31.278 31.273 31.263 31.245 31.263 31.263 31.22 31.228 31.21 31.158 31.093 31.08 31.073 31.01 30.958 30.953 30.918 30.903 30.893 30.9 30.858 30.88 30.885 30.79 30.775 30.783 30.795 30.788 30.775 30.77 30.79 30.783 30.765 30.773 30.748 30.803 30.788 30.76 30.79 30.775 30.79 30.788 30.785 30.755 30.783 30.748 30.755 30.755 30.733 30.708 30.683 30.658 30.678 30.658 30.623 30.58 30.575 30.575 30.568 30.53 30.548 30.505 30.505 30.485 30.483 30.498 30.458 30.47 30.453 30.46 30.448 30.435 30.423 30.405 30.395 30.428 30.39 30.365 30.34 30.3 30.293 30.295 30.315 30.348 30.328 30.318 30.31 30.293 30.278 30.275 30.305 30.26 30.27 30.26 30.248 30.22 30.263 30.228 30.228 30.233 30.243 30.19 30.13 30.105 30.105 30.08 30.125 30.165 30.29 30.145 30.103 30.083 30.053 30.045 30.023 30.033 30.055 30.045 30.048 30.07 30.04 29.985 29.938 29.88 29.833 29.795 29.715 29.62 29.54 29.473 29.4 29.313 29.24 29.198 29.133 29.133 29.135 29.195 29.23 29.253 29.303 29.373 29.443 29.508 29.56 29.568 29.598 29.593 29.585 29.588 29.55 29.51 29.488 29.458 29.41 29.39 29.358 29.343 29.333 29.318 29.32 29.38 29.383 29.415 29.448 29.493 29.52 29.608 29.648 29.695 29.755 29.758 29.81 29.823 29.82 29.83 29.838 29.84 29.818 29.803 29.755 29.713 29.68
35.663 35.585 35.573 35.558 35.498 35.455 35.403 35.418 35.375 35.348 35.368 35.37 35.348 35.315 35.278 35.24 35.23 35.188 35.185 35.15 35.075 35.055 35.045 35.033 35.07 35.138 35.12 35.163 35.118 35.105 35.125 35.103 35.07 35.05 35.04 35.02 34.99 34.97 34.945 34.893 34.848 34.783 34.778 34.7 34.678 34.633 34.55 34.46 34.398 34.345 34.32 34.28 34.263 34.235 34.195 34.198 34.183 34.168 34.12 34.09 34.1 34.07 34.043 34.09 34.07 34.038 34.07 34.06 34.075 34.118 34.118 34.02 33.928 34 33.965 33.843 33.815 33.773 33.835 33.865 33.828 33.833 33.868 33.83 33.8 33.783 33.775 33.75 33.71 33.685 33.608 33.555 33.498 33.428 33.285 33.143 33.09 33.025 32.925 32.828 32.78 32.76 32.673 32.715 32.798 32.79 32.825 32.845 32.795 32.805 32.843 32.948 32.885 32.178 31.778 31.713 31.648 31.973 32.473 32.865 33.23 33.388 33.278 33.11 32.755 32.43 32.22 32.083 31.973 31.88 31.843 31.793 31.715 31.62 31.578 31.473 31.473 31.498 31.498 31.463 31.463 31.545 31.543 31.188 31.053 31.175 31.178 31.17 31.143 31.183 31.23 31.288 31.298 31.328 31.353 31.358 31.375 31.38 31.353 31.36 31.393 31.413 31.39 31.383 31.37 31.375 31.373 31.378 31.4 31.393 31.41 31.445 31.443 31.515 31.53 31.53 31.543 31.52 31.498 31.473 31.455 31.458 31.46 31.485 31.465 31.428 31.458 31.448 31.473 31.45 31.455 31.478 31.455 31.443 31.455 31.468 31.458 31.43 31.413 31.39 31.383 31.335 31.34 31.325 31.283 31.245 31.218 31.195 31.165 31.14 31.15 31.125 31.123 31.153 31.13 31.115 31.098 31.093 31.12 31.09 31.095 31.178 31.208 31.25 31.365 31.398 31.445 31.5 31.56 31.633 31.643 31.668 31.708 31.698 31.698 31.73 31.798 31.83 31.885 31.873 31.908 31.933 31.908 31.833 31.815 31.783 31.708 31.648 31.625 31.61 31.573 31.51 31.46 31.405 31.403 31.413 31.373 31.303 31.27 31.27 31.293 31.248 31.22 31.223 31.223 31.203 31.205 31.155 31.18 31.135 31.105 31.038 31.003 31.03 30.988 30.96 30.94 30.93 30.9 30.873 30.87 30.815 30.795 30.765 30.783 30.806 30.78 30.773 30.798 30.788 30.803 30.765 30.783 30.775 30.76 30.725 30.725 30.755 30.75 30.725 30.748 30.73 30.765 30.718 30.728 30.748 30.7 30.66 30.67 30.643 30.65 30.663 30.66 30.615 30.573 30.58 30.538 30.54 30.528 30.48 30.453 30.43 30.455 30.465 30.368 30.415 30.415 30.378 30.385 30.4 30.378 30.355 30.35 30.37 30.353 30.313 30.345 30.355 30.325 30.313 30.315 30.338 30.315 30.3 30.295 30.255 30.213 30.238 30.235 30.24 30.243 30.25 30.268 30.233 30.21 30.205 30.185 30.148 30.215 30.19 30.145 30.098 30.103 30.055 30.095 30.088 30.19 30.193 30.053 30.028 30.033 30.035 30.005 29.988 29.998 30.028 30.055 30.015 30.015 29.958 29.895 29.853 29.833 29.743 29.685 29.578 29.513 29.433 29.358 29.268 29.203 29.13 29.085 29.078 29.048 29.11 29.148 29.17 29.238 29.343 29.41 29.445 29.49 29.495 29.558 29.558 29.545 29.55 29.565 29.523 29.488 29.47 29.425 29.413 29.41 29.365 29.34 29.323 29.355 29.385 29.4 29.413 29.458 29.48 29.518 29.568 29.638 29.675 29.735 29.743 29.775 29.803 29.808 29.803 29.828 29.825 29.798 29.75 29.728 29.703 29.673
35.673 35.593 35.528 35.52 35.485 35.43 35.405 35.398 35.35 35.32 35.335 35.335 35.29 35.275 35.268 35.22 35.215 35.168 35.15 35.135 35.075 35.07 35.078 35.05 35.068 35.095 35.095 35.133 35.125 35.095 35.143 35.138 35.145 35.12 35.065 35.063 35.008 34.965 34.96 34.88 34.858 34.808 34.773 34.768 34.748 34.638 34.59 34.52 34.425 34.375 34.338 34.345 34.325 34.31 34.273 34.268 34.278 34.225 34.145 34.145 34.15 34.17 34.138 34.145 34.183 34.163 34.17 34.168 34.103 34.148 34.12 34.055 34.018 33.975 33.918 33.933 33.9 33.853 33.898 33.945 33.928 33.925 33.915 33.89 33.86 33.843 33.798 33.735 33.748 33.68 33.635 33.625 33.55 33.458 33.338 33.24 33.163 33.035 32.823 32.76 32.743 32.633 32.725 32.765 32.778 32.833 32.91 32.883 32.723 32.71 32.778 32.593 32.128 31.708 31.87 32.053 32.343 32.878 33.408 33.74 33.778 33.58 33.215 32.958 32.685 32.44 32.258 32.103 31.97 31.868 31.755 31.683 31.58 31.533 31.508 31.478 31.473 31.518 31.533 31.495 31.465 31.47 31.673 31.48 30.995 31.09 31.17 31.215 31.23 31.225 31.188 31.198 31.293 31.325 31.355 31.383 31.38 31.345 31.365 31.378 31.42 31.403 31.388 31.41 31.395 31.413 31.413 31.375 31.455 31.418 31.41 31.445 31.445 31.478 31.488 31.503 31.523 31.483 31.44 31.413 31.45 31.425 31.433 31.423 31.373 31.365 31.39 31.38 31.38 31.398 31.413 31.39 31.39 31.41 31.405 31.418 31.395 31.39 31.36 31.358 31.358 31.34 31.29 31.228 31.253 31.238 31.205 31.13 31.133 31.128 31.138 31.103 31.105 31.115 31.063 31.038 31.06 31.075 31.075 31.083 31.11 31.155 31.22 31.29 31.355 31.39 31.468 31.508 31.53 31.593 31.628 31.67 31.708 31.74 31.763 31.785 31.785 31.855 31.913 31.898 31.915 31.915 31.893 31.828 31.83 31.778 31.728 31.655 31.645 31.598 31.578 31.508 31.455 31.435 31.425 31.428 31.363 31.333 31.283 31.288 31.288 31.273 31.27 31.245 31.235 31.238 31.178 31.195 31.188 31.158 31.078 31.088 31.043 31.038 30.99 31.038 30.965 30.943 30.918 30.9 30.883 30.845 30.83 30.798 30.768 30.82 30.835 30.783 30.78 30.768 30.755 30.738 30.763 30.74 30.748 30.718 30.705 30.75 30.743 30.695 30.718 30.74 30.71 30.708 30.73 30.755 30.718 30.655 30.643 30.615 30.613 30.615 30.583 30.62 30.563 30.535 30.538 30.508 30.493 30.445 30.463 30.415 30.398 30.385 30.348 30.328 30.373 30.335 30.345 30.388 30.36 30.32 30.298 30.335 30.338 30.305 30.298 30.303 30.293 30.303 30.285 30.285 30.3 30.285 30.263 30.21 30.21 30.258 30.25 30.248 30.275 30.253 30.24 30.203 30.163 30.163 30.165 30.143 30.18 30.205 30.193 30.148 30.115 30.06 30 30.075 30.153 30.24 30.13 30.038 30 29.998 30 29.958 29.973 29.995 30.028 30.005 29.973 29.95 29.89 29.845 29.81 29.71 29.635 29.57 29.475 29.393 29.315 29.21 29.118 29.08 29.035 29.008 29.013 29.043 29.09 29.125 29.195 29.25 29.32 29.388 29.415 29.458 29.52 29.498 29.505 29.518 29.543 29.513 29.478 29.48 29.448 29.418 29.4 29.378 29.35 29.35 29.355 29.398 29.41 29.435 29.458 29.473 29.545 29.593 29.633 29.69 29.72 29.773 29.763 29.803 29.815 29.81 29.815 29.838 29.76 29.715 29.703 29.698 29.683
35.675 35.605 35.558 35.47 35.463 35.41 35.375 35.335 35.313 35.28 35.293 35.265 35.25 35.26 35.23 35.175 35.19 35.155 35.13 35.143 35.138 35.085 35.05 35.018 35.028 35.115 35.098 35.133 35.163 35.175 35.193 35.208 35.208 35.183 35.048 34.998 34.96 34.995 34.96 34.913 34.88 34.85 34.805 34.758 34.723 34.66 34.608 34.553 34.52 34.458 34.408 34.4 34.405 34.363 34.313 34.318 34.3 34.298 34.25 34.238 34.218 34.243 34.273 34.335 34.273 34.238 34.24 34.183 34.153 34.123 34.088 34.068 34.048 33.938 33.94 33.968 34.005 33.943 33.89 33.958 34.033 34.003 34.028 33.925 33.865 33.94 33.89 33.763 33.758 33.728 33.735 33.695 33.623 33.508 33.41 33.268 33.278 33.115 33.045 32.93 32.843 32.813 32.758 32.775 32.718 32.718 32.438 32.238 32.043 32.015 31.995 31.903 31.843 32.078 32.775 32.988 33.218 33.443 33.608 33.63 33.533 33.218 32.92 32.725 32.505 32.328 32.195 32.065 31.893 31.838 31.738 31.625 31.553 31.54 31.49 31.48 31.5 31.498 31.533 31.508 31.493 31.475 31.618 31.65 31.183 31.053 31.238 31.223 31.253 31.178 31.138 31.195 31.238 31.258 31.355 31.358 31.363 31.355 31.325 31.403 31.455 31.44 31.448 31.463 31.425 31.453 31.443 31.433 31.465 31.455 31.45 31.425 31.41 31.428 31.42 31.42 31.438 31.408 31.443 31.428 31.39 31.375 31.33 31.338 31.348 31.348 31.368 31.345 31.353 31.363 31.343 31.3 31.343 31.343 31.365 31.38 31.36 31.4 31.345 31.333 31.295 31.253 31.278 31.193 31.193 31.178 31.178 31.115 31.133 31.1 31.093 31.083 31.06 31.088 31.043 31.015 31.035 31.1 31.093 31.085 31.083 31.145 31.21 31.275 31.338 31.393 31.465 31.495 31.52 31.58 31.66 31.71 31.723 31.783 31.815 31.813 31.823 31.838 31.855 31.858 31.915 31.87 31.83 31.853 31.81 31.783 31.743 31.665 31.623 31.603 31.56 31.5 31.455 31.42 31.425 31.375 31.363 31.33 31.298 31.293 31.313 31.263 31.238 31.245 31.263 31.253 31.213 31.18 31.22 31.18 31.133 31.12 31.075 31.073 31.035 31.028 30.973 30.928 30.918 30.89 30.89 30.843 30.803 30.803 30.8 30.823 30.82 30.783 30.79 30.765 30.753 30.745 30.765 30.713 30.705 30.713 30.693 30.693 30.715 30.705 30.663 30.698 30.695 30.68 30.705 30.678 30.638 30.608 30.658 30.643 30.613 30.605 30.595 30.59 30.535 30.53 30.54 30.5 30.495 30.465 30.453 30.463 30.388 30.37 30.355 30.345 30.34 30.293 30.278 30.35 30.338 30.353 30.333 30.325 30.313 30.32 30.283 30.265 30.248 30.265 30.278 30.26 30.263 30.29 30.258 30.245 30.235 30.25 30.218 30.24 30.268 30.263 30.21 30.215 30.21 30.115 30.173 30.128 30.145 30.173 30.185 30.163 30.123 30.088 30.005 30.07 30.095 30.26 30.178 30.043 29.995 29.988 29.988 29.945 29.923 29.948 29.975 29.978 29.93 29.92 29.875 29.798 29.75 29.683 29.64 29.528 29.405 29.335 29.218 29.133 29.068 29.035 28.993 28.988 28.983 28.975 29.025 29.078 29.145 29.22 29.253 29.338 29.373 29.43 29.488 29.5 29.465 29.51 29.525 29.52 29.5 29.463 29.45 29.458 29.41 29.385 29.353 29.33 29.37 29.398 29.43 29.415 29.453 29.518 29.535 29.568 29.61 29.675 29.708 29.748 29.753 29.79 29.803 29.763 29.77 29.785 29.738 29.733 29.693 29.698 29.67
35.648 35.618 35.56 35.495 35.468 35.398 35.358 35.323 35.288 35.255 35.255 35.263 35.228 35.233 35.225 35.18 35.178 35.173 35.123 35.115 35.1 35.048 35.038 35.038 35.053 35.128 35.138 35.195 35.203 35.213 35.215 35.245 35.228 35.205 35.13 35.068 34.995 35.033 35.028 34.973 34.95 34.873 34.81 34.778 34.713 34.685 34.668 34.61 34.585 34.525 34.475 34.46 34.425 34.415 34.403 34.37 34.38 34.405 34.338 34.385 34.34 34.303 34.418 34.408 34.33 34.263 34.228 34.198 34.213 34.145 34.083 34.068 34.05 33.95 33.998 34.105 34.13 34.015 33.998 34.005 34.055 34.083 34.065 34.025 33.968 33.985 33.985 33.79 33.768 33.793 33.83 33.778 33.67 33.568 33.395 33.375 33.265 33.23 33.303 33.115 32.913 32.873 32.728 32.46 32.308 32.118 31.865 31.853 31.893 31.958 31.913 31.965 32.523 32.9 33.245 33.388 33.498 33.418 33.345 33.32 33.14 32.91 32.753 32.615 32.48 32.35 32.255 32.145 31.99 31.87 31.768 31.67 31.583 31.55 31.495 31.465 31.485 31.475 31.525 31.548 31.553 31.5 31.563 31.665 31.375 31.053 31.24 31.18 31.195 31.188 31.158 31.198 31.218 31.28 31.308 31.335 31.408 31.385 31.365 31.405 31.47 31.478 31.505 31.513 31.518 31.503 31.51 31.493 31.463 31.408 31.425 31.4 31.375 31.355 31.373 31.415 31.38 31.393 31.433 31.38 31.365 31.333 31.325 31.325 31.3 31.31 31.33 31.28 31.275 31.338 31.335 31.278 31.32 31.333 31.32 31.293 31.298 31.373 31.315 31.27 31.235 31.19 31.17 31.133 31.115 31.12 31.135 31.13 31.1 31.093 31.055 31.04 31.06 31.073 31.088 31.063 31.023 31.058 31.108 31.09 31.068 31.123 31.193 31.243 31.275 31.353 31.413 31.475 31.52 31.593 31.643 31.73 31.755 31.805 31.83 31.845 31.84 31.853 31.843 31.883 31.875 31.865 31.82 31.82 31.785 31.803 31.71 31.67 31.62 31.563 31.52 31.5 31.455 31.415 31.398 31.385 31.373 31.353 31.285 31.288 31.278 31.293 31.26 31.24 31.273 31.255 31.228 31.22 31.24 31.235 31.19 31.173 31.12 31.083 31.035 31.028 30.988 30.97 30.923 30.915 30.9 30.855 30.825 30.79 30.783 30.798 30.803 30.808 30.803 30.768 30.77 30.765 30.76 30.72 30.68 30.683 30.708 30.705 30.66 30.67 30.668 30.678 30.648 30.623 30.655 30.63 30.615 30.623 30.65 30.603 30.58 30.595 30.598 30.598 30.548 30.518 30.5 30.475 30.463 30.415 30.418 30.42 30.36 30.365 30.343 30.328 30.38 30.32 30.29 30.3 30.318 30.315 30.278 30.31 30.315 30.298 30.293 30.273 30.273 30.263 30.268 30.285 30.235 30.23 30.26 30.188 30.27 30.29 30.258 30.25 30.243 30.228 30.203 30.193 30.173 30.11 30.138 30.115 30.165 30.138 30.175 30.193 30.103 30.043 30.02 30.07 30.065 30.21 30.263 30.068 30.02 29.973 29.948 29.91 29.89 29.915 29.955 29.975 29.945 29.895 29.818 29.778 29.723 29.67 29.573 29.473 29.37 29.263 29.205 29.103 29.025 29.023 28.98 28.933 28.92 28.915 28.99 29.003 29.063 29.153 29.23 29.303 29.345 29.378 29.42 29.478 29.46 29.493 29.505 29.528 29.495 29.473 29.448 29.445 29.42 29.388 29.385 29.355 29.378 29.398 29.425 29.408 29.418 29.478 29.51 29.563 29.618 29.65 29.7 29.703 29.763 29.79 29.78 29.745 29.738 29.748 29.718 29.698 29.678 29.688 29.69
35.66 35.615 35.56 35.498 35.46 35.403 35.333 35.295 35.283 35.245 35.218 35.238 35.193 35.178 35.2 35.2 35.195 35.138 35.118 35.105 35.09 35.075 35.08 35.093 35.125 35.203 35.173 35.178 35.178 35.19 35.218 35.218 35.223 35.233 35.173 35.125 35.083 35.045 35.043 34.99 34.91 34.88 34.83 34.81 34.745 34.705 34.673 34.67 34.628 34.56 34.525 34.508 34.473 34.5 34.49 34.46 34.525 34.535 34.53 34.498 34.433 34.355 34.403 34.355 34.31 34.31 34.208 34.148 34.175 34.125 34.133 34.108 34.103 33.988 34.005 34.11 34.14 34.103 34.06 34.023 34.013 34.073 34.025 34.045 34 34.045 34.008 33.915 33.868 33.918 33.895 33.825 33.77 33.673 33.59 33.488 33.37 33.313 33.203 33.105 32.96 32.74 32.453 31.918 31.895 32.173 32.413 32.535 32.548 32.495 32.505 32.633 32.913 33.113 33.253 33.323 33.283 33.145 33.055 33.008 32.903 32.858 32.758 32.693 32.593 32.51 32.383 32.228 32.088 31.935 31.805 31.693 31.583 31.55 31.535 31.49 31.443 31.438 31.503 31.573 31.543 31.523 31.598 31.653 31.555 31.153 31.063 31.143 31.148 31.165 31.168 31.193 31.198 31.218 31.32 31.328 31.37 31.435 31.41 31.458 31.47 31.505 31.498 31.523 31.56 31.575 31.53 31.53 31.495 31.408 31.403 31.395 31.393 31.335 31.36 31.41 31.363 31.348 31.368 31.355 31.31 31.26 31.283 31.265 31.243 31.285 31.278 31.248 31.275 31.28 31.263 31.258 31.285 31.29 31.285 31.205 31.248 31.288 31.243 31.213 31.185 31.153 31.108 31.108 31.115 31.16 31.108 31.098 31.068 31.08 31.06 31.035 31.033 31.01 31.035 31.063 31.043 31.043 31.058 31.058 31.06 31.075 31.165 31.215 31.265 31.338 31.393 31.463 31.523 31.585 31.6 31.69 31.728 31.773 31.795 31.828 31.87 31.893 31.883 31.883 31.858 31.875 31.823 31.798 31.79 31.745 31.655 31.645 31.6 31.535 31.505 31.483 31.428 31.413 31.428 31.385 31.315 31.353 31.278 31.265 31.278 31.245 31.23 31.228 31.248 31.26 31.223 31.2 31.218 31.23 31.26 31.215 31.155 31.088 31.045 31.04 31.003 30.978 30.913 30.9 30.9 30.87 30.825 30.803 30.78 30.775 30.78 30.798 30.81 30.77 30.745 30.748 30.758 30.713 30.675 30.68 30.65 30.645 30.663 30.665 30.663 30.66 30.658 30.613 30.645 30.648 30.635 30.61 30.655 30.625 30.588 30.588 30.595 30.593 30.56 30.538 30.5 30.483 30.44 30.468 30.43 30.378 30.35 30.335 30.338 30.285 30.315 30.323 30.283 30.29 30.318 30.33 30.29 30.283 30.298 30.26 30.26 30.25 30.268 30.243 30.255 30.283 30.233 30.295 30.268 30.253 30.255 30.238 30.235 30.245 30.223 30.218 30.165 30.145 30.108 30.13 30.103 30.093 30.108 30.123 30.15 30.163 30.105 30.058 30.038 30.035 30.065 30.148 30.208 30.11 30.015 29.958 29.92 29.883 29.86 29.88 29.915 29.94 29.925 29.893 29.805 29.74 29.693 29.65 29.515 29.448 29.35 29.255 29.193 29.09 29.023 28.97 28.943 28.923 28.925 28.885 28.928 28.975 29.025 29.105 29.17 29.233 29.28 29.323 29.38 29.425 29.46 29.483 29.485 29.51 29.485 29.468 29.458 29.443 29.425 29.395 29.39 29.348 29.363 29.385 29.4 29.39 29.408 29.503 29.53 29.55 29.608 29.65 29.658 29.703 29.73 29.765 29.743 29.715 29.655 29.643 29.66 29.655 29.64 29.673 29.663
35.655 35.59 35.533 35.483 35.435 35.393 35.333 35.28 35.27 35.228 35.22 35.238 35.205 35.2 35.188 35.163 35.125 35.11 35.085 35.083 35.098 35.123 35.135 35.145 35.175 35.195 35.188 35.18 35.165 35.188 35.203 35.225 35.24 35.23 35.213 35.155 35.14 35.095 35.035 34.988 34.933 34.918 34.895 34.878 34.823 34.748 34.738 34.693 34.653 34.605 34.583 34.585 34.598 34.578 34.585 34.663 34.67 34.588 34.623 34.508 34.425 34.353 34.358 34.338 34.255 34.175 34.233 34.115 34.128 34.108 34.08 34.053 34.153 34.058 34.035 34.078 34.093 34.115 34.073 34.04 33.995 34.038 34.048 34.155 34.098 34.055 34.003 34.018 34.043 34.068 34.003 33.888 33.835 33.773 33.728 33.555 33.4 33.303 33.21 33.085 32.9 32.5 32.01 32.033 32.313 32.735 32.913 32.838 32.823 32.778 32.845 32.913 32.963 33.068 33.013 32.96 32.94 32.945 32.915 32.923 32.97 32.97 32.898 32.818 32.77 32.635 32.485 32.313 32.133 31.99 31.848 31.705 31.63 31.555 31.515 31.483 31.41 31.4 31.443 31.535 31.578 31.58 31.555 31.615 31.658 31.4 30.908 31.045 31.125 31.1 31.093 31.173 31.188 31.148 31.263 31.273 31.33 31.393 31.458 31.485 31.53 31.573 31.57 31.568 31.61 31.608 31.558 31.513 31.465 31.438 31.403 31.415 31.403 31.37 31.348 31.363 31.345 31.318 31.268 31.283 31.265 31.253 31.238 31.22 31.2 31.24 31.23 31.243 31.22 31.198 31.225 31.24 31.213 31.24 31.25 31.215 31.218 31.22 31.203 31.138 31.173 31.175 31.135 31.11 31.078 31.08 31.08 31.068 31.013 31.03 31.035 31.043 31.015 30.983 31.01 31 30.985 31.013 31.01 31.023 31.033 31.053 31.103 31.143 31.173 31.285 31.33 31.413 31.493 31.57 31.648 31.693 31.745 31.753 31.783 31.818 31.833 31.833 31.843 31.82 31.82 31.845 31.813 31.778 31.768 31.718 31.653 31.61 31.575 31.523 31.535 31.458 31.395 31.418 31.385 31.35 31.318 31.32 31.28 31.278 31.26 31.255 31.23 31.228 31.243 31.283 31.24 31.263 31.225 31.245 31.233 31.213 31.168 31.118 31.085 31.053 31.03 30.958 30.945 30.938 30.905 30.878 30.855 30.815 30.806 30.813 30.783 30.795 30.8 30.77 30.748 30.733 30.728 30.675 30.693 30.67 30.645 30.638 30.665 30.635 30.623 30.618 30.625 30.638 30.645 30.665 30.638 30.64 30.613 30.598 30.59 30.585 30.523 30.545 30.56 30.535 30.49 30.425 30.393 30.373 30.38 30.378 30.34 30.313 30.293 30.315 30.318 30.263 30.24 30.245 30.253 30.25 30.19 30.203 30.28 30.27 30.248 30.24 30.238 30.22 30.225 30.26 30.275 30.268 30.275 30.283 30.23 30.18 30.185 30.245 30.22 30.188 30.153 30.165 30.15 30.133 30.115 30.088 30.11 30.13 30.105 30.153 30.133 30.065 30.055 29.975 30.058 30.078 30.083 30.155 30.005 29.968 29.998 29.928 29.86 29.873 29.868 29.903 29.903 29.873 29.803 29.743 29.628 29.56 29.47 29.425 29.325 29.215 29.163 29.058 29.018 28.973 28.93 28.9 28.9 28.888 28.898 28.95 28.993 29.048 29.128 29.18 29.26 29.303 29.353 29.398 29.415 29.438 29.473 29.488 29.483 29.51 29.465 29.43 29.415 29.395 29.383 29.325 29.365 29.398 29.408 29.413 29.403 29.47 29.505 29.523 29.583 29.613 29.635 29.683 29.715 29.733 29.7 29.668 29.633 29.63 29.628 29.618 29.625 29.633 29.645
35.653 35.61 35.555 35.485 35.413 35.375 35.328 35.293 35.265 35.24 35.185 35.203 35.165 35.17 35.155 35.11 35.133 35.148 35.14 35.14 35.168 35.178 35.153 35.118 35.16 35.19 35.213 35.208 35.21 35.215 35.233 35.288 35.295 35.258 35.258 35.213 35.178 35.14 35.085 35.035 34.993 35.005 34.96 34.9 34.853 34.828 34.778 34.745 34.71 34.7 34.685 34.7 34.698 34.693 34.718 34.758 34.713 34.538 34.548 34.485 34.415 34.378 34.325 34.238 34.138 34.105 34.22 34.145 34.1 34.113 34.065 34.055 34.133 34.048 34.06 34.125 34.13 34.225 34.185 34.02 33.988 34.113 34.195 34.18 34.135 34.065 34.043 34.053 34.065 34.09 34.053 33.958 33.923 33.76 33.698 33.565 33.31 33.133 33.1 32.755 32.458 32.1 31.935 32.358 32.77 32.948 32.868 32.818 32.815 32.828 32.8 32.805 32.825 32.778 32.76 32.808 32.835 32.893 32.953 33.015 33.013 33.02 32.988 32.983 32.87 32.703 32.55 32.378 32.233 32.105 31.948 31.763 31.64 31.555 31.515 31.498 31.413 31.393 31.445 31.5 31.52 31.558 31.535 31.545 31.728 31.585 31.095 31.015 31.145 31.095 31.125 31.168 31.18 31.135 31.15 31.27 31.343 31.455 31.493 31.498 31.57 31.618 31.645 31.67 31.645 31.653 31.64 31.57 31.495 31.45 31.405 31.353 31.32 31.325 31.308 31.315 31.325 31.31 31.218 31.235 31.23 31.218 31.21 31.193 31.18 31.188 31.183 31.18 31.16 31.193 31.165 31.19 31.183 31.2 31.203 31.208 31.163 31.143 31.135 31.123 31.133 31.085 31.088 31.065 31.048 31.023 31.003 31.013 30.98 30.993 31.02 31.028 30.993 30.953 30.975 31.013 30.955 30.908 30.99 30.995 30.983 31.003 31.048 31.108 31.168 31.265 31.368 31.465 31.538 31.538 31.623 31.685 31.69 31.758 31.765 31.758 31.785 31.83 31.798 31.793 31.8 31.788 31.798 31.788 31.755 31.695 31.64 31.568 31.53 31.515 31.493 31.41 31.36 31.385 31.345 31.338 31.29 31.283 31.283 31.3 31.283 31.298 31.283 31.245 31.26 31.29 31.283 31.285 31.245 31.265 31.255 31.205 31.175 31.165 31.148 31.1 31.058 31.078 31.02 30.983 30.94 30.893 30.883 30.835 30.82 30.785 30.775 30.8 30.778 30.74 30.748 30.73 30.685 30.668 30.66 30.64 30.645 30.63 30.613 30.628 30.623 30.62 30.628 30.65 30.645 30.668 30.638 30.623 30.608 30.578 30.6 30.548 30.513 30.52 30.528 30.493 30.44 30.408 30.39 30.365 30.315 30.325 30.313 30.29 30.258 30.28 30.24 30.235 30.22 30.228 30.205 30.183 30.205 30.22 30.253 30.273 30.26 30.248 30.233 30.243 30.25 30.285 30.26 30.238 30.208 30.208 30.235 30.185 30.193 30.25 30.243 30.215 30.198 30.15 30.153 30.125 30.148 30.093 30.08 30.158 30.105 30.15 30.103 30.045 30.018 30.033 30.025 30.02 30.03 30.178 30.05 29.973 29.945 29.935 29.875 29.875 29.87 29.895 29.89 29.86 29.798 29.69 29.623 29.508 29.433 29.405 29.343 29.223 29.173 29.043 29.013 28.955 28.895 28.88 28.858 28.858 28.87 28.93 28.963 28.998 29.085 29.135 29.213 29.258 29.31 29.348 29.398 29.415 29.44 29.45 29.463 29.465 29.463 29.43 29.423 29.413 29.378 29.375 29.363 29.375 29.428 29.418 29.428 29.45 29.503 29.535 29.55 29.585 29.63 29.713 29.73 29.7 29.68 29.658 29.568 29.568 29.568 29.538 29.575 29.603 29.608
35.68 35.64 35.563 35.495 35.448 35.39 35.333 35.278 35.24 35.203 35.178 35.128 35.133 35.135 35.165 35.18 35.17 35.165 35.175 35.188 35.168 35.19 35.16 35.118 35.12 35.198 35.25 35.298 35.293 35.283 35.343 35.29 35.298 35.288 35.273 35.23 35.19 35.163 35.133 35.08 35.03 35.043 35.008 34.945 34.888 34.863 34.843 34.838 34.85 34.818 34.865 34.755 34.683 34.718 34.76 34.725 34.62 34.54 34.49 34.395 34.34 34.308 34.29 34.21 34.123 34.083 34.19 34.138 34.07 34.053 34.063 34.065 34.083 34.06 34.085 34.16 34.145 34.205 34.245 34.113 34.06 34.065 34.195 34.268 34.298 34.233 34.13 34.098 34.068 34.015 33.988 33.925 33.795 33.503 33.245 33.048 32.445 32.433 32.36 32.12 32.053 32.083 32.168 32.513 32.905 32.935 32.835 32.79 32.74 32.663 32.603 32.663 32.65 32.633 32.668 32.74 32.808 32.89 32.953 32.983 33.028 33.04 33.01 32.953 32.878 32.768 32.638 32.443 32.328 32.175 32.01 31.86 31.728 31.608 31.57 31.52 31.443 31.395 31.455 31.513 31.508 31.53 31.54 31.545 31.655 31.645 31.18 31.048 31.163 31.118 31.128 31.148 31.17 31.15 31.19 31.288 31.305 31.393 31.49 31.53 31.568 31.585 31.66 31.673 31.695 31.62 31.62 31.58 31.548 31.47 31.41 31.345 31.335 31.323 31.263 31.258 31.265 31.225 31.208 31.17 31.223 31.185 31.18 31.138 31.11 31.155 31.16 31.143 31.13 31.125 31.168 31.17 31.145 31.145 31.125 31.153 31.115 31.095 31.09 31.1 31.083 31.013 31.068 31.05 31.045 31.025 31.02 30.988 31.003 31.008 30.98 30.988 30.98 30.928 30.913 30.935 30.89 30.87 30.91 30.93 30.935 30.98 31.03 31.075 31.128 31.215 31.37 31.428 31.455 31.525 31.573 31.66 31.655 31.745 31.755 31.745 31.773 31.825 31.798 31.803 31.78 31.7 31.715 31.69 31.64 31.655 31.625 31.538 31.508 31.465 31.438 31.373 31.36 31.355 31.348 31.323 31.303 31.28 31.258 31.273 31.278 31.238 31.275 31.258 31.298 31.288 31.25 31.28 31.295 31.26 31.295 31.25 31.19 31.215 31.185 31.133 31.1 31.075 31.045 30.945 30.92 30.89 30.858 30.815 30.803 30.785 30.773 30.788 30.735 30.728 30.738 30.71 30.685 30.683 30.678 30.628 30.638 30.635 30.63 30.645 30.638 30.625 30.648 30.668 30.64 30.643 30.605 30.618 30.553 30.568 30.553 30.513 30.523 30.508 30.508 30.49 30.435 30.375 30.355 30.365 30.293 30.303 30.28 30.28 30.253 30.23 30.223 30.178 30.18 30.21 30.205 30.21 30.248 30.298 30.255 30.263 30.243 30.238 30.255 30.243 30.243 30.233 30.245 30.218 30.218 30.223 30.23 30.19 30.235 30.253 30.218 30.18 30.188 30.133 30.148 30.118 30.14 30.11 30.07 30.098 30.05 30.085 30.085 29.993 29.993 30.03 29.973 29.988 30.05 30.128 30.123 29.953 29.92 29.9 29.87 29.888 29.878 29.888 29.88 29.84 29.745 29.68 29.605 29.51 29.46 29.41 29.33 29.243 29.168 29.085 29.023 28.978 28.915 28.885 28.868 28.883 28.865 28.915 28.935 28.958 29.048 29.098 29.165 29.215 29.285 29.325 29.363 29.405 29.36 29.403 29.415 29.43 29.423 29.423 29.425 29.41 29.405 29.383 29.375 29.343 29.348 29.39 29.41 29.43 29.453 29.468 29.515 29.525 29.625 29.678 29.698 29.68 29.66 29.605 29.538 29.505 29.51 29.493 29.515 29.563 29.6
35.68 35.65 35.57 35.49 35.438 35.375 35.315 35.255 35.195 35.17 35.16 35.125 35.14 35.148 35.18 35.19 35.218 35.188 35.2 35.18 35.193 35.193 35.183 35.155 35.155 35.238 35.293 35.32 35.303 35.348 35.39 35.363 35.343 35.343 35.343 35.313 35.285 35.215 35.195 35.16 35.088 35.07 35.028 35.025 35.023 35.013 35.035 35.023 35.04 34.928 34.92 34.788 34.7 34.76 34.723 34.638 34.578 34.558 34.438 34.36 34.265 34.235 34.238 34.185 34.103 34.083 34.088 34.138 34.11 34.063 34.125 34.135 34.165 34.14 34.178 34.195 34.225 34.235 34.275 34.18 34.143 34.105 34.223 34.35 34.313 34.21 34.195 34.16 34.163 34.098 34.028 33.88 33.59 32.988 32.513 32.3 32.2 32.183 32.39 32.568 32.64 32.793 32.783 32.865 32.85 32.793 32.715 32.658 32.625 32.54 32.485 32.52 32.573 32.625 32.66 32.708 32.755 32.863 32.948 32.96 32.97 32.995 33.005 32.958 32.923 32.81 32.663 32.515 32.373 32.24 32.08 31.94 31.805 31.728 31.603 31.548 31.503 31.465 31.458 31.483 31.505 31.51 31.533 31.518 31.538 31.59 31.13 31.013 31.115 31.133 31.118 31.16 31.168 31.175 31.213 31.245 31.28 31.35 31.458 31.58 31.583 31.568 31.635 31.67 31.67 31.638 31.618 31.56 31.51 31.483 31.393 31.358 31.273 31.275 31.245 31.198 31.188 31.215 31.19 31.15 31.17 31.18 31.12 31.068 31.085 31.105 31.1 31.14 31.133 31.118 31.108 31.143 31.105 31.125 31.128 31.098 31.113 31.073 31.058 31.035 31.038 31.025 31.02 31.025 31.03 30.958 30.97 30.993 30.955 30.958 30.938 30.953 30.928 30.905 30.903 30.9 30.88 30.885 30.92 30.888 30.905 30.955 30.993 31.003 31.075 31.178 31.298 31.37 31.403 31.493 31.563 31.63 31.67 31.733 31.738 31.755 31.75 31.745 31.753 31.765 31.695 31.673 31.678 31.683 31.623 31.595 31.548 31.498 31.468 31.423 31.44 31.413 31.343 31.328 31.305 31.258 31.273 31.255 31.243 31.233 31.255 31.24 31.245 31.273 31.275 31.275 31.288 31.3 31.33 31.308 31.308 31.285 31.24 31.22 31.205 31.14 31.095 31.043 31.043 30.983 30.938 30.905 30.875 30.81 30.795 30.788 30.745 30.755 30.743 30.725 30.718 30.69 30.7 30.728 30.69 30.653 30.66 30.64 30.638 30.673 30.648 30.635 30.62 30.628 30.59 30.605 30.583 30.59 30.575 30.543 30.523 30.53 30.503 30.455 30.455 30.415 30.39 30.355 30.323 30.298 30.285 30.285 30.253 30.258 30.24 30.225 30.26 30.225 30.18 30.215 30.193 30.19 30.24 30.228 30.205 30.218 30.25 30.243 30.21 30.233 30.248 30.253 30.218 30.215 30.265 30.243 30.188 30.185 30.213 30.17 30.165 30.163 30.163 30.168 30.128 30.088 30.093 30.1 30.093 30.093 30.088 30.03 30.063 30.008 29.98 30.02 29.985 30.013 30.005 30.048 30.165 29.97 29.885 29.878 29.863 29.87 29.883 29.848 29.825 29.78 29.728 29.648 29.573 29.518 29.47 29.403 29.355 29.263 29.18 29.11 29.038 28.975 28.94 28.905 28.87 28.85 28.843 28.858 28.923 28.943 28.99 29.068 29.135 29.175 29.25 29.273 29.308 29.33 29.345 29.358 29.38 29.418 29.39 29.388 29.4 29.398 29.355 29.335 29.348 29.365 29.375 29.42 29.393 29.4 29.438 29.448 29.493 29.548 29.64 29.69 29.688 29.668 29.625 29.558 29.52 29.483 29.465 29.47 29.515 29.568 29.6
35.645 35.628 35.545 35.453 35.34 35.293 35.25 35.195 35.17 35.173 35.2 35.185 35.18 35.175 35.17 35.18 35.175 35.158 35.175 35.203 35.2 35.2 35.265 35.25 35.255 35.273 35.318 35.34 35.353 35.363 35.39 35.388 35.41 35.413 35.395 35.375 35.318 35.318 35.285 35.208 35.15 35.145 35.12 35.145 35.143 35.173 35.185 35.125 35.015 34.878 34.893 34.823 34.675 34.625 34.713 34.688 34.575 34.51 34.45 34.385 34.308 34.235 34.238 34.223 34.175 34.133 34.08 34.14 34.13 34.135 34.208 34.175 34.203 34.193 34.28 34.32 34.335 34.255 34.245 34.313 34.165 34.143 34.183 34.333 34.275 34.203 34.208 34.193 34.135 33.958 33.713 33.43 32.888 32.528 32.32 32.49 32.68 32.963 33.12 33.15 33.075 32.98 32.858 32.785 32.758 32.68 32.578 32.528 32.468 32.478 32.468 32.455 32.458 32.525 32.603 32.66 32.72 32.78 32.818 32.903 32.923 32.978 32.985 32.918 32.89 32.82 32.695 32.523 32.395 32.305 32.16 32.033 31.895 31.773 31.65 31.598 31.56 31.485 31.458 31.495 31.53 31.523 31.548 31.525 31.485 31.363 31.033 30.913 31.018 31.123 31.145 31.17 31.19 31.21 31.248 31.243 31.328 31.378 31.445 31.548 31.623 31.65 31.668 31.673 31.665 31.633 31.58 31.535 31.458 31.425 31.388 31.348 31.288 31.245 31.225 31.168 31.15 31.183 31.173 31.135 31.14 31.133 31.098 31.08 31.085 31.068 31.1 31.06 31.1 31.09 31.065 31.073 31.085 31.083 31.043 31.05 31.07 31.028 31.005 30.975 31.005 30.998 30.993 30.935 30.95 30.92 30.915 30.95 30.933 30.935 30.953 30.91 30.893 30.863 30.898 30.87 30.86 30.863 30.845 30.803 30.808 30.855 30.913 30.98 31.025 31.128 31.225 31.293 31.408 31.488 31.535 31.61 31.633 31.68 31.683 31.74 31.738 31.703 31.733 31.693 31.63 31.59 31.6 31.635 31.62 31.548 31.48 31.48 31.423 31.42 31.39 31.355 31.315 31.265 31.25 31.198 31.228 31.223 31.2 31.235 31.25 31.24 31.303 31.31 31.303 31.323 31.303 31.33 31.363 31.318 31.3 31.278 31.248 31.248 31.21 31.148 31.118 31.06 31.02 30.995 30.948 30.89 30.835 30.83 30.803 30.78 30.785 30.765 30.773 30.775 30.735 30.74 30.745 30.698 30.688 30.67 30.663 30.638 30.643 30.645 30.628 30.638 30.59 30.6 30.605 30.608 30.595 30.588 30.56 30.503 30.483 30.458 30.448 30.393 30.413 30.39 30.388 30.348 30.338 30.295 30.288 30.28 30.258 30.255 30.248 30.225 30.195 30.19 30.175 30.2 30.203 30.19 30.21 30.213 30.21 30.24 30.25 30.26 30.248 30.245 30.253 30.24 30.193 30.213 30.205 30.198 30.19 30.193 30.155 30.178 30.203 30.203 30.17 30.15 30.108 30.058 30.085 30.095 30.108 30.088 30.035 30.028 30.053 30.093 30.045 29.983 29.94 29.953 29.94 30.018 30.083 30.013 29.9 29.865 29.895 29.873 29.825 29.798 29.798 29.773 29.74 29.673 29.6 29.553 29.493 29.388 29.34 29.283 29.203 29.115 29.065 29.02 28.98 28.923 28.87 28.858 28.858 28.848 28.888 28.908 28.985 29.023 29.093 29.138 29.213 29.23 29.258 29.285 29.298 29.318 29.363 29.368 29.378 29.36 29.358 29.335 29.35 29.325 29.335 29.338 29.355 29.4 29.4 29.38 29.383 29.428 29.463 29.543 29.618 29.673 29.648 29.643 29.573 29.525 29.508 29.448 29.47 29.483 29.535 29.57 29.578
35.62 35.615 35.55 35.408 35.32 35.275 35.265 35.248 35.248 35.2 35.2 35.17 35.16 35.138 35.113 35.148 35.208 35.19 35.225 35.245 35.275 35.273 35.288 35.305 35.288 35.29 35.295 35.37 35.393 35.408 35.46 35.48 35.468 35.455 35.435 35.403 35.37 35.33 35.308 35.268 35.27 35.313 35.3 35.255 35.243 35.248 35.14 35.1 34.975 34.928 34.878 34.828 34.713 34.668 34.685 34.593 34.575 34.505 34.478 34.368 34.29 34.253 34.243 34.213 34.218 34.188 34.148 34.193 34.193 34.228 34.235 34.238 34.238 34.27 34.385 34.368 34.333 34.325 34.348 34.413 34.273 34.185 34.118 34.225 34.203 34.103 34.083 33.978 33.598 33.335 32.978 32.623 32.378 32.41 32.77 33.178 33.353 33.468 33.395 33.168 33.058 32.938 32.833 32.798 32.675 32.53 32.458 32.46 32.423 32.443 32.438 32.408 32.443 32.478 32.535 32.605 32.65 32.695 32.785 32.825 32.835 32.915 32.9 32.875 32.843 32.805 32.695 32.585 32.445 32.335 32.23 32.105 31.973 31.85 31.715 31.635 31.593 31.53 31.458 31.465 31.5 31.508 31.545 31.555 31.475 31.375 31.193 30.943 30.783 31.06 31.155 31.175 31.298 31.31 31.275 31.305 31.335 31.375 31.403 31.56 31.608 31.653 31.645 31.63 31.653 31.59 31.575 31.495 31.43 31.378 31.36 31.328 31.305 31.235 31.22 31.21 31.158 31.13 31.15 31.12 31.123 31.088 31.085 31.055 31.025 31.058 31.055 31.048 31.085 31.063 31.043 31.023 31.038 31.06 31.018 30.99 30.993 30.998 30.963 30.92 30.955 30.96 30.928 30.91 30.898 30.923 30.913 30.883 30.883 30.913 30.888 30.845 30.83 30.825 30.825 30.84 30.803 30.8 30.805 30.775 30.775 30.83 30.865 30.93 30.963 31.1 31.173 31.26 31.378 31.433 31.515 31.595 31.623 31.63 31.643 31.643 31.663 31.67 31.675 31.623 31.623 31.56 31.575 31.59 31.568 31.51 31.478 31.463 31.41 31.38 31.318 31.283 31.255 31.24 31.205 31.19 31.235 31.215 31.218 31.255 31.253 31.263 31.3 31.318 31.28 31.27 31.263 31.323 31.34 31.32 31.268 31.295 31.255 31.233 31.2 31.16 31.09 31.058 31.023 31.008 30.965 30.928 30.895 30.91 30.815 30.83 30.79 30.748 30.75 30.758 30.753 30.733 30.713 30.69 30.7 30.68 30.675 30.665 30.67 30.675 30.653 30.638 30.585 30.578 30.595 30.558 30.52 30.515 30.495 30.463 30.433 30.428 30.4 30.41 30.398 30.393 30.36 30.333 30.335 30.305 30.293 30.28 30.265 30.283 30.223 30.213 30.2 30.21 30.225 30.2 30.195 30.2 30.22 30.208 30.223 30.193 30.203 30.253 30.223 30.25 30.285 30.213 30.205 30.195 30.198 30.213 30.198 30.188 30.163 30.153 30.2 30.198 30.123 30.108 30.07 30.108 30.075 30.045 30.058 30.003 29.995 30.018 30.06 30.115 30.065 29.97 29.998 29.943 29.895 29.965 30.063 29.988 29.875 29.838 29.878 29.835 29.775 29.768 29.76 29.76 29.695 29.688 29.613 29.553 29.513 29.458 29.37 29.325 29.248 29.18 29.098 29.055 28.985 28.945 28.888 28.868 28.848 28.838 28.89 28.915 28.928 28.993 29.043 29.103 29.138 29.16 29.205 29.225 29.24 29.278 29.285 29.285 29.335 29.313 29.34 29.308 29.315 29.3 29.34 29.338 29.325 29.325 29.368 29.333 29.363 29.408 29.443 29.525 29.608 29.643 29.64 29.623 29.57 29.538 29.493 29.448 29.433 29.448 29.503 29.56 29.578
35.565 35.528 35.48 35.385 35.34 35.31 35.3 35.283 35.233 35.188 35.168 35.138 35.135 35.085 35.133 35.205 35.263 35.265 35.253 35.285 35.31 35.3 35.303 35.325 35.335 35.355 35.358 35.41 35.433 35.47 35.455 35.47 35.493 35.485 35.455 35.453 35.418 35.41 35.408 35.425 35.378 35.388 35.36 35.255 35.2 35.19 35.1 35.073 34.985 34.93 34.873 34.818 34.733 34.718 34.718 34.645 34.633 34.585 34.478 34.33 34.248 34.238 34.268 34.253 34.18 34.173 34.215 34.225 34.248 34.273 34.293 34.328 34.283 34.385 34.438 34.4 34.405 34.418 34.368 34.353 34.385 34.26 34.08 33.993 34 33.893 33.535 33.098 32.753 32.553 32.51 32.615 32.64 33.01 33.378 33.688 33.598 33.405 33.223 33.058 32.95 32.833 32.745 32.628 32.548 32.528 32.458 32.46 32.4 32.375 32.373 32.408 32.435 32.41 32.458 32.525 32.603 32.653 32.7 32.733 32.78 32.805 32.845 32.875 32.865 32.8 32.733 32.645 32.548 32.435 32.3 32.15 32.035 31.908 31.805 31.728 31.665 31.613 31.5 31.495 31.518 31.525 31.548 31.578 31.505 31.523 31.558 31.268 30.845 31.08 31.203 31.225 31.263 31.285 31.305 31.345 31.353 31.393 31.418 31.538 31.608 31.645 31.65 31.628 31.618 31.57 31.508 31.453 31.4 31.403 31.365 31.338 31.283 31.258 31.23 31.205 31.198 31.145 31.113 31.12 31.07 31.073 31.045 31.04 31.028 31.025 31.05 31.048 31.033 31.058 31.043 30.965 30.995 31.003 30.98 30.945 30.893 30.945 30.903 30.89 30.898 30.913 30.915 30.893 30.905 30.88 30.823 30.798 30.773 30.768 30.788 30.778 30.765 30.758 30.72 30.718 30.748 30.73 30.703 30.77 30.798 30.813 30.868 30.898 30.935 31.055 31.11 31.218 31.353 31.375 31.47 31.545 31.568 31.628 31.638 31.623 31.668 31.66 31.625 31.57 31.54 31.533 31.503 31.5 31.5 31.435 31.445 31.37 31.35 31.31 31.265 31.24 31.23 31.198 31.195 31.188 31.223 31.18 31.185 31.24 31.225 31.243 31.245 31.268 31.265 31.3 31.275 31.328 31.32 31.273 31.245 31.288 31.223 31.195 31.18 31.163 31.143 31.098 31.068 31.045 30.99 30.958 30.93 30.898 30.855 30.843 30.81 30.778 30.75 30.75 30.74 30.708 30.69 30.713 30.688 30.718 30.688 30.668 30.673 30.633 30.588 30.573 30.51 30.515 30.523 30.503 30.478 30.463 30.473 30.428 30.435 30.423 30.43 30.425 30.413 30.37 30.363 30.335 30.328 30.303 30.283 30.29 30.265 30.258 30.223 30.225 30.235 30.238 30.245 30.218 30.185 30.195 30.215 30.185 30.213 30.19 30.218 30.245 30.253 30.27 30.215 30.233 30.205 30.215 30.183 30.198 30.183 30.183 30.188 30.15 30.135 30.113 30.085 30.083 30.068 30.068 30.02 30.015 30.01 29.94 30.003 29.995 30.018 30.07 30.07 30.063 29.993 29.9 29.94 29.958 30 29.97 29.938 29.875 29.878 29.81 29.77 29.73 29.745 29.723 29.673 29.668 29.618 29.578 29.565 29.495 29.413 29.363 29.288 29.205 29.138 29.09 29.053 29.003 28.948 28.9 28.848 28.85 28.858 28.923 28.938 28.958 29.008 29.045 29.083 29.1 29.12 29.135 29.175 29.205 29.213 29.258 29.263 29.27 29.275 29.283 29.303 29.298 29.27 29.285 29.305 29.325 29.315 29.303 29.303 29.368 29.45 29.52 29.583 29.603 29.613 29.59 29.543 29.52 29.488 29.45 29.41 29.44 29.498 29.5 29.55
35.548 35.478 35.495 35.433 35.38 35.32 35.275 35.203 35.155 35.163 35.17 35.153 35.165 35.14 35.18 35.213 35.28 35.285 35.313 35.318 35.31 35.323 35.375 35.388 35.38 35.408 35.448 35.448 35.453 35.495 35.505 35.513 35.51 35.498 35.543 35.54 35.585 35.545 35.535 35.485 35.343 35.378 35.31 35.208 35.14 35.115 35.115 35.07 35.03 34.98 34.895 34.833 34.783 34.783 34.845 34.755 34.575 34.515 34.448 34.335 34.3 34.26 34.27 34.313 34.268 34.28 34.235 34.305 34.355 34.373 34.318 34.355 34.398 34.445 34.408 34.395 34.43 34.413 34.35 34.32 34.373 34.238 34.06 33.905 33.755 33.253 32.743 32.498 32.398 32.645 32.965 33.185 33.275 33.598 33.758 33.535 33.318 33.165 33.105 32.93 32.798 32.728 32.69 32.65 32.593 32.54 32.48 32.415 32.345 32.37 32.348 32.365 32.39 32.39 32.425 32.473 32.493 32.545 32.613 32.668 32.708 32.763 32.8 32.828 32.82 32.795 32.748 32.653 32.565 32.44 32.303 32.21 32.078 31.94 31.875 31.79 31.713 31.658 31.543 31.498 31.513 31.498 31.535 31.568 31.525 31.465 31.613 31.585 31.29 31.048 31.325 31.27 31.263 31.333 31.355 31.378 31.405 31.433 31.46 31.485 31.57 31.628 31.633 31.595 31.603 31.535 31.488 31.408 31.4 31.403 31.355 31.345 31.29 31.26 31.215 31.175 31.168 31.135 31.078 31.105 31.088 31.08 31.03 31.03 30.968 30.973 30.993 30.998 31 30.963 30.95 30.953 30.943 30.923 30.918 30.918 30.863 30.865 30.895 30.88 30.873 30.86 30.84 30.845 30.823 30.845 30.778 30.775 30.735 30.755 30.763 30.728 30.695 30.748 30.713 30.69 30.703 30.69 30.648 30.678 30.73 30.783 30.788 30.86 30.953 31.053 31.115 31.18 31.303 31.36 31.443 31.48 31.543 31.6 31.64 31.595 31.62 31.608 31.59 31.555 31.51 31.47 31.455 31.45 31.423 31.418 31.393 31.32 31.31 31.268 31.248 31.235 31.208 31.203 31.123 31.128 31.155 31.163 31.175 31.24 31.243 31.23 31.22 31.25 31.268 31.32 31.268 31.293 31.288 31.25 31.245 31.255 31.228 31.205 31.178 31.195 31.148 31.123 31.093 31.045 31.008 31 30.95 30.925 30.9 30.823 30.808 30.778 30.743 30.755 30.743 30.71 30.753 30.778 30.703 30.673 30.64 30.648 30.595 30.58 30.545 30.525 30.52 30.505 30.493 30.495 30.505 30.435 30.47 30.425 30.423 30.413 30.373 30.373 30.37 30.35 30.338 30.328 30.34 30.328 30.323 30.333 30.308 30.29 30.263 30.25 30.228 30.218 30.243 30.213 30.225 30.213 30.21 30.18 30.195 30.208 30.183 30.228 30.22 30.253 30.245 30.265 30.215 30.215 30.208 30.183 30.163 30.153 30.155 30.14 30.105 30.065 30.073 30.068 30.07 30.058 30.045 30.03 30.023 29.95 29.98 30.003 30.005 30.01 30.083 30.103 30.043 29.935 29.925 29.908 29.92 30.018 29.96 29.865 29.798 29.795 29.793 29.735 29.723 29.708 29.68 29.675 29.633 29.618 29.568 29.53 29.48 29.405 29.323 29.265 29.193 29.13 29.095 29.015 28.968 28.93 28.895 28.88 28.865 28.89 28.885 28.923 28.973 28.995 29.018 29.05 29.068 29.073 29.105 29.128 29.163 29.17 29.198 29.218 29.255 29.238 29.255 29.27 29.268 29.3 29.273 29.273 29.31 29.315 29.31 29.338 29.438 29.493 29.54 29.57 29.588 29.54 29.51 29.488 29.485 29.443 29.42 29.43 29.5 29.5 29.558
35.585 35.51 35.475 35.395 35.35 35.255 35.188 35.125 35.123 35.125 35.155 35.165 35.195 35.238 35.225 35.263 35.285 35.323 35.355 35.355 35.375 35.378 35.425 35.433 35.433 35.453 35.463 35.445 35.483 35.508 35.563 35.613 35.62 35.625 35.638 35.598 35.678 35.593 35.563 35.525 35.43 35.355 35.283 35.193 35.145 35.098 35.088 35.088 35.033 35.008 34.955 34.888 34.818 34.74 34.728 34.65 34.583 34.545 34.485 34.358 34.33 34.308 34.278 34.308 34.305 34.365 34.388 34.448 34.428 34.43 34.405 34.448 34.423 34.395 34.368 34.38 34.363 34.353 34.34 34.288 34.143 33.865 33.94 33.915 33.788 33.28 32.83 32.845 32.725 33.043 33.448 33.688 33.69 33.605 33.508 33.32 33.173 33.013 32.893 32.84 32.793 32.725 32.693 32.63 32.535 32.5 32.468 32.435 32.398 32.378 32.353 32.383 32.393 32.41 32.41 32.438 32.418 32.475 32.578 32.655 32.705 32.728 32.743 32.758 32.778 32.788 32.765 32.65 32.56 32.46 32.36 32.265 32.125 32.035 31.943 31.833 31.705 31.675 31.58 31.525 31.49 31.485 31.51 31.54 31.535 31.48 31.5 31.583 31.48 30.958 31.18 31.36 31.28 31.313 31.325 31.395 31.42 31.453 31.503 31.548 31.59 31.638 31.643 31.595 31.605 31.555 31.535 31.413 31.418 31.418 31.35 31.305 31.23 31.203 31.193 31.145 31.13 31.143 31.115 31.088 31.055 31.005 31.025 30.983 30.928 30.923 30.96 30.945 30.943 30.898 30.863 30.918 30.893 30.905 30.868 30.838 30.795 30.803 30.825 30.773 30.81 30.83 30.815 30.805 30.778 30.788 30.728 30.72 30.718 30.723 30.675 30.668 30.655 30.613 30.62 30.65 30.625 30.64 30.655 30.655 30.728 30.775 30.818 30.848 30.938 31.08 31.153 31.163 31.268 31.355 31.408 31.415 31.488 31.53 31.563 31.515 31.538 31.553 31.54 31.48 31.448 31.463 31.415 31.4 31.343 31.363 31.353 31.285 31.27 31.268 31.21 31.193 31.178 31.163 31.125 31.118 31.148 31.14 31.168 31.203 31.205 31.213 31.22 31.21 31.258 31.235 31.26 31.288 31.263 31.263 31.25 31.263 31.235 31.255 31.21 31.18 31.163 31.143 31.12 31.073 31.015 31.028 30.963 30.928 30.92 30.875 30.83 30.823 30.798 30.775 30.798 30.745 30.708 30.668 30.67 30.698 30.633 30.59 30.588 30.578 30.588 30.535 30.513 30.488 30.49 30.5 30.468 30.45 30.448 30.44 30.41 30.398 30.38 30.395 30.388 30.375 30.365 30.328 30.34 30.355 30.328 30.298 30.268 30.3 30.295 30.26 30.243 30.225 30.23 30.213 30.22 30.195 30.173 30.183 30.203 30.225 30.21 30.178 30.208 30.23 30.23 30.243 30.208 30.2 30.193 30.18 30.148 30.133 30.105 30.095 30.058 30.07 30.083 30.09 30.068 30.07 30.033 29.998 30.025 30.015 29.978 30.005 30.035 30.023 30.073 30.073 30.003 29.94 29.928 29.888 29.908 29.943 29.898 29.89 29.79 29.808 29.81 29.728 29.668 29.708 29.685 29.668 29.623 29.6 29.573 29.553 29.495 29.44 29.373 29.325 29.245 29.163 29.125 29.045 29.013 28.943 28.925 28.9 28.89 28.875 28.89 28.92 28.938 28.948 28.963 28.995 29.025 29 29.055 29.085 29.09 29.125 29.15 29.188 29.185 29.2 29.228 29.228 29.24 29.255 29.24 29.258 29.273 29.278 29.293 29.33 29.395 29.458 29.498 29.55 29.52 29.528 29.488 29.46 29.463 29.45 29.445 29.448 29.493 29.52 29.55
35.535 35.483 35.415 35.308 35.258 35.195 35.18 35.148 35.145 35.168 35.178 35.188 35.173 35.225 35.283 35.303 35.303 35.35 35.393 35.413 35.408 35.44 35.455 35.488 35.45 35.483 35.49 35.49 35.55 35.615 35.63 35.705 35.703 35.663 35.703 35.645 35.64 35.565 35.505 35.46 35.405 35.355 35.293 35.183 35.123 35.17 35.148 35.065 35.088 35.06 34.988 34.963 34.89 34.833 34.748 34.61 34.583 34.588 34.535 34.373 34.333 34.315 34.338 34.398 34.415 34.425 34.46 34.435 34.448 34.43 34.39 34.45 34.46 34.408 34.423 34.42 34.345 34.173 34.078 33.913 33.268 32.883 33.638 33.933 33.925 33.713 33.698 33.63 33.17 33.233 33.658 33.733 33.598 33.455 33.353 33.165 32.99 32.933 32.893 32.83 32.733 32.678 32.618 32.55 32.51 32.51 32.503 32.493 32.465 32.455 32.458 32.478 32.428 32.403 32.39 32.433 32.445 32.493 32.585 32.605 32.62 32.663 32.708 32.745 32.755 32.723 32.708 32.62 32.588 32.498 32.4 32.288 32.183 32.05 31.953 31.868 31.738 31.665 31.62 31.54 31.498 31.5 31.503 31.503 31.51 31.475 31.475 31.598 31.563 31.19 31.148 31.365 31.363 31.328 31.333 31.39 31.448 31.458 31.458 31.54 31.605 31.648 31.673 31.61 31.58 31.568 31.508 31.445 31.448 31.41 31.38 31.298 31.285 31.235 31.178 31.133 31.16 31.145 31.103 31.035 30.98 30.97 30.953 30.943 30.925 30.923 30.928 30.9 30.868 30.855 30.825 30.825 30.83 30.8 30.763 30.755 30.76 30.778 30.728 30.74 30.765 30.765 30.77 30.8 30.763 30.76 30.71 30.683 30.663 30.653 30.573 30.56 30.553 30.54 30.528 30.57 30.605 30.598 30.605 30.658 30.71 30.778 30.8 30.835 30.925 31.013 31.1 31.178 31.215 31.28 31.405 31.428 31.468 31.508 31.508 31.485 31.558 31.56 31.523 31.428 31.403 31.388 31.395 31.373 31.308 31.31 31.33 31.253 31.233 31.25 31.203 31.153 31.173 31.14 31.108 31.135 31.13 31.12 31.143 31.145 31.163 31.22 31.235 31.193 31.278 31.238 31.28 31.285 31.258 31.245 31.215 31.248 31.255 31.255 31.29 31.283 31.2 31.153 31.153 31.12 31.115 31.06 30.995 30.963 30.92 30.865 30.818 30.79 30.77 30.743 30.758 30.718 30.693 30.683 30.678 30.683 30.65 30.618 30.593 30.538 30.555 30.55 30.533 30.468 30.465 30.453 30.463 30.463 30.458 30.483 30.475 30.408 30.443 30.438 30.398 30.378 30.35 30.328 30.303 30.325 30.315 30.315 30.293 30.268 30.285 30.3 30.32 30.308 30.243 30.2 30.208 30.183 30.208 30.22 30.188 30.205 30.22 30.175 30.188 30.213 30.205 30.21 30.188 30.213 30.165 30.135 30.103 30.093 30.115 30.048 30.063 30.088 30.078 30.035 30.063 30.058 30.035 30 29.995 30.055 30.025 29.965 29.993 29.988 30.015 30.043 30 29.968 29.95 29.93 29.92 29.915 29.965 29.94 29.783 29.763 29.773 29.748 29.688 29.648 29.67 29.668 29.625 29.56 29.545 29.575 29.483 29.453 29.44 29.363 29.295 29.195 29.15 29.103 29.053 28.963 28.953 28.895 28.893 28.895 28.923 28.918 28.923 28.925 28.928 28.925 28.97 28.94 28.993 29.018 29.053 29.068 29.08 29.145 29.155 29.145 29.185 29.173 29.158 29.225 29.22 29.223 29.233 29.23 29.245 29.308 29.355 29.4 29.478 29.503 29.488 29.51 29.508 29.453 29.455 29.445 29.45 29.433 29.468 29.513 29.543
35.478 35.405 35.343 35.3 35.238 35.23 35.185 35.198 35.175 35.208 35.185 35.175 35.223 35.248 35.313 35.365 35.395 35.41 35.435 35.418 35.465 35.513 35.498 35.508 35.468 35.54 35.585 35.59 35.683 35.768 35.773 35.775 35.705 35.675 35.665 35.608 35.59 35.56 35.528 35.435 35.398 35.333 35.25 35.228 35.223 35.225 35.22 35.15 35.073 35.023 34.993 34.96 34.92 34.828 34.733 34.655 34.608 34.635 34.6 34.48 34.423 34.413 34.453 34.47 34.485 34.528 34.533 34.478 34.465 34.478 34.423 34.443 34.488 34.5 34.498 34.48 34.118 33.748 33.573 33.065 32.738 32.94 33.54 34 33.96 33.965 34.118 34.02 33.708 33.455 33.668 33.573 33.48 33.323 33.14 33.09 32.99 32.935 32.858 32.765 32.653 32.588 32.525 32.54 32.525 32.54 32.555 32.543 32.538 32.543 32.56 32.52 32.473 32.448 32.465 32.468 32.453 32.495 32.54 32.57 32.598 32.633 32.658 32.67 32.68 32.678 32.66 32.63 32.57 32.475 32.39 32.313 32.215 32.108 31.983 31.905 31.798 31.683 31.648 31.535 31.51 31.503 31.53 31.523 31.51 31.53 31.45 31.463 31.553 31.243 31.023 31.21 31.353 31.335 31.375 31.395 31.505 31.538 31.513 31.585 31.633 31.62 31.635 31.635 31.578 31.573 31.5 31.448 31.458 31.375 31.38 31.285 31.263 31.223 31.163 31.123 31.128 31.125 31.058 31.02 30.968 30.965 30.945 30.933 30.915 30.898 30.873 30.868 30.853 30.825 30.795 30.778 30.778 30.795 30.755 30.715 30.703 30.733 30.713 30.723 30.743 30.745 30.715 30.705 30.678 30.663 30.65 30.608 30.583 30.513 30.513 30.5 30.493 30.478 30.478 30.535 30.568 30.545 30.558 30.595 30.645 30.68 30.748 30.785 30.83 30.96 31.08 31.14 31.22 31.25 31.368 31.405 31.385 31.455 31.483 31.485 31.498 31.493 31.468 31.418 31.415 31.375 31.345 31.295 31.278 31.306 31.288 31.233 31.253 31.228 31.205 31.15 31.11 31.098 31.14 31.15 31.103 31.135 31.143 31.125 31.14 31.19 31.21 31.193 31.223 31.233 31.223 31.26 31.258 31.23 31.253 31.255 31.273 31.265 31.275 31.298 31.248 31.175 31.15 31.153 31.073 30.978 30.968 30.923 30.86 30.87 30.843 30.775 30.785 30.718 30.71 30.73 30.733 30.705 30.68 30.66 30.635 30.585 30.568 30.553 30.503 30.533 30.525 30.5 30.498 30.51 30.48 30.44 30.465 30.448 30.42 30.408 30.385 30.363 30.365 30.34 30.35 30.348 30.328 30.325 30.335 30.313 30.308 30.298 30.28 30.308 30.295 30.27 30.233 30.26 30.23 30.213 30.22 30.22 30.185 30.183 30.18 30.195 30.2 30.21 30.208 30.208 30.165 30.14 30.148 30.103 30.118 30.103 30.058 30.08 30.085 30.063 30.055 30.023 30.025 30.038 30.04 30.068 30.04 30.053 30.033 29.963 29.988 29.988 30.015 30.038 29.978 29.96 29.925 29.94 29.94 29.933 29.975 29.973 29.848 29.773 29.748 29.748 29.685 29.653 29.668 29.665 29.635 29.603 29.608 29.555 29.51 29.478 29.478 29.41 29.335 29.28 29.208 29.143 29.078 29.028 28.99 28.943 28.895 28.885 28.918 28.913 28.913 28.89 28.923 28.903 28.89 28.898 28.92 28.913 28.993 28.985 29.015 29.073 29.095 29.095 29.065 29.07 29.095 29.15 29.175 29.185 29.175 29.188 29.243 29.285 29.318 29.393 29.443 29.425 29.473 29.483 29.503 29.47 29.473 29.473 29.443 29.425 29.47 29.503 29.51
35.45 35.385 35.34 35.318 35.24 35.198 35.16 35.183 35.163 35.17 35.173 35.215 35.248 35.283 35.348 35.388 35.41 35.44 35.453 35.438 35.49 35.525 35.543 35.588 35.633 35.713 35.745 35.755 35.798 35.835 35.75 35.735 35.68 35.683 35.665 35.63 35.62 35.605 35.52 35.415 35.415 35.378 35.315 35.25 35.258 35.213 35.21 35.168 35.09 35.055 35 34.978 34.935 34.85 34.848 34.735 34.755 34.745 34.69 34.595 34.583 34.44 34.453 34.49 34.51 34.51 34.538 34.52 34.51 34.533 34.49 34.553 34.59 34.59 34.54 34.438 33.935 33.405 33.038 32.898 33.163 33.535 33.893 34.003 33.98 33.973 34.04 33.978 33.813 33.713 33.623 33.47 33.333 33.253 33.188 33.09 32.955 32.85 32.793 32.71 32.615 32.568 32.548 32.515 32.528 32.56 32.573 32.595 32.62 32.635 32.62 32.63 32.58 32.533 32.53 32.518 32.493 32.475 32.513 32.548 32.57 32.558 32.565 32.578 32.585 32.608 32.618 32.583 32.555 32.498 32.418 32.345 32.255 32.108 31.965 31.893 31.83 31.715 31.68 31.613 31.528 31.518 31.483 31.493 31.498 31.49 31.458 31.41 31.333 31.045 30.733 30.985 31.393 31.38 31.373 31.395 31.455 31.498 31.495 31.59 31.63 31.63 31.608 31.608 31.615 31.623 31.563 31.483 31.435 31.388 31.36 31.318 31.29 31.248 31.185 31.1 31.115 31.085 31.053 31.01 30.99 30.945 30.91 30.898 30.858 30.84 30.823 30.768 30.753 30.768 30.74 30.738 30.74 30.763 30.728 30.708 30.688 30.693 30.68 30.66 30.663 30.675 30.65 30.635 30.573 30.575 30.565 30.495 30.483 30.465 30.455 30.408 30.41 30.44 30.448 30.475 30.478 30.52 30.545 30.58 30.598 30.648 30.738 30.813 30.838 30.94 31.008 31.09 31.175 31.203 31.283 31.368 31.385 31.423 31.443 31.478 31.453 31.43 31.425 31.413 31.348 31.303 31.303 31.313 31.26 31.263 31.248 31.228 31.218 31.193 31.198 31.153 31.103 31.133 31.135 31.113 31.075 31.113 31.12 31.123 31.113 31.143 31.193 31.21 31.248 31.23 31.25 31.248 31.255 31.255 31.27 31.275 31.31 31.278 31.258 31.253 31.233 31.163 31.128 31.093 31.06 31.048 31.018 30.94 30.875 30.888 30.845 30.775 30.783 30.728 30.72 30.76 30.73 30.675 30.658 30.635 30.605 30.568 30.553 30.555 30.525 30.57 30.56 30.515 30.47 30.47 30.43 30.425 30.425 30.395 30.39 30.39 30.358 30.355 30.358 30.313 30.318 30.265 30.308 30.348 30.358 30.298 30.34 30.298 30.268 30.275 30.278 30.275 30.25 30.233 30.22 30.225 30.238 30.215 30.205 30.203 30.168 30.16 30.185 30.19 30.195 30.178 30.155 30.108 30.125 30.093 30.05 30.073 30.048 30.075 30.088 30.05 30.005 30.048 30.078 30.04 30.04 30.03 30.015 29.97 29.998 29.933 30.003 30.018 30.025 29.993 30.013 29.985 29.925 29.918 29.89 29.95 29.968 30.013 29.898 29.79 29.735 29.713 29.675 29.64 29.643 29.64 29.635 29.625 29.578 29.555 29.52 29.475 29.455 29.388 29.348 29.295 29.235 29.19 29.11 29.043 28.99 28.968 28.923 28.875 28.91 28.873 28.87 28.868 28.895 28.868 28.84 28.815 28.84 28.86 28.885 28.918 28.948 28.963 29.03 29.063 29.065 29.053 29.065 29.118 29.14 29.11 29.128 29.123 29.188 29.258 29.283 29.34 29.383 29.408 29.418 29.438 29.485 29.483 29.473 29.48 29.46 29.455 29.493 29.525 29.495
35.458 35.433 35.345 35.308 35.235 35.195 35.145 35.148 35.163 35.215 35.225 35.285 35.283 35.31 35.368 35.408 35.438 35.43 35.453 35.473 35.545 35.605 35.615 35.69 35.75 35.823 35.823 35.815 35.735 35.693 35.658 35.653 35.68 35.683 35.655 35.563 35.55 35.553 35.49 35.418 35.413 35.41 35.32 35.223 35.23 35.213 35.158 35.14 35.15 35.105 35.033 35.015 35 34.928 34.923 34.89 34.935 34.848 34.745 34.65 34.57 34.505 34.523 34.515 34.49 34.493 34.495 34.503 34.518 34.525 34.615 34.648 34.623 34.575 34.265 33.84 33.265 33.043 33.118 33.54 33.905 34.098 34.095 33.988 34 34.025 33.92 33.85 33.763 33.635 33.535 33.478 33.45 33.32 33.198 33.093 32.99 32.858 32.773 32.68 32.59 32.555 32.538 32.563 32.565 32.585 32.598 32.68 32.708 32.715 32.705 32.698 32.665 32.595 32.553 32.508 32.488 32.468 32.473 32.48 32.493 32.493 32.503 32.53 32.528 32.54 32.54 32.515 32.53 32.508 32.395 32.273 32.185 32.085 31.975 31.885 31.843 31.788 31.698 31.63 31.558 31.563 31.508 31.5 31.493 31.483 31.453 31.403 31.25 30.998 30.72 30.815 31.32 31.373 31.373 31.423 31.475 31.545 31.625 31.6 31.673 31.625 31.613 31.633 31.635 31.613 31.593 31.535 31.49 31.478 31.445 31.398 31.37 31.323 31.248 31.188 31.14 31.1 31.078 31.013 30.96 30.933 30.92 30.905 30.823 30.8 30.775 30.73 30.735 30.73 30.733 30.718 30.708 30.683 30.653 30.615 30.653 30.625 30.605 30.63 30.583 30.598 30.578 30.575 30.533 30.533 30.56 30.508 30.448 30.433 30.41 30.355 30.323 30.328 30.378 30.393 30.428 30.403 30.44 30.54 30.563 30.608 30.665 30.753 30.828 30.868 30.98 31.075 31.14 31.16 31.225 31.305 31.373 31.39 31.383 31.4 31.408 31.375 31.393 31.37 31.335 31.275 31.28 31.27 31.23 31.195 31.235 31.205 31.218 31.17 31.163 31.175 31.113 31.103 31.123 31.085 31.135 31.105 31.088 31.103 31.11 31.113 31.155 31.19 31.233 31.205 31.225 31.225 31.27 31.328 31.263 31.263 31.298 31.245 31.22 31.218 31.228 31.193 31.148 31.13 31.128 31.098 31.038 30.968 30.933 30.915 30.87 30.795 30.793 30.753 30.735 30.738 30.678 30.653 30.635 30.61 30.603 30.565 30.558 30.545 30.52 30.515 30.485 30.473 30.438 30.438 30.418 30.415 30.418 30.415 30.4 30.428 30.37 30.388 30.4 30.313 30.318 30.32 30.33 30.285 30.325 30.295 30.353 30.323 30.255 30.28 30.27 30.283 30.303 30.258 30.25 30.263 30.218 30.21 30.23 30.19 30.165 30.15 30.15 30.168 30.16 30.133 30.103 30.12 30.118 30.113 30.08 30.09 30.058 30.058 30.048 30.045 30.005 30.02 30.038 29.98 30.005 30.023 30.028 30.003 29.993 29.988 29.975 29.978 29.985 29.958 29.975 29.95 29.915 29.893 29.87 29.9 29.94 29.998 29.948 29.795 29.695 29.678 29.66 29.64 29.613 29.608 29.613 29.628 29.603 29.563 29.528 29.483 29.435 29.405 29.373 29.295 29.263 29.208 29.143 29.078 29.025 29.01 28.93 28.903 28.865 28.863 28.823 28.863 28.86 28.808 28.805 28.76 28.778 28.77 28.808 28.848 28.873 28.873 28.938 28.968 28.99 29.02 29.048 29.07 29.078 29.043 29.078 29.078 29.14 29.185 29.203 29.275 29.345 29.338 29.375 29.443 29.45 29.435 29.44 29.438 29.415 29.463 29.48 29.495 29.453
35.45 35.398 35.338 35.303 35.198 35.163 35.158 35.198 35.223 35.25 35.273 35.295 35.343 35.36 35.445 35.435 35.418 35.483 35.503 35.548 35.668 35.725 35.698 35.723 35.78 35.77 35.703 35.745 35.673 35.628 35.613 35.628 35.635 35.625 35.573 35.545 35.543 35.523 35.5 35.445 35.473 35.408 35.363 35.26 35.213 35.263 35.223 35.238 35.2 35.128 35.113 35.1 35.105 35.118 35.065 35.015 34.925 34.803 34.708 34.66 34.598 34.573 34.548 34.495 34.463 34.498 34.485 34.493 34.53 34.555 34.59 34.615 34.395 34.085 33.548 33.17 33.06 33.635 33.793 34.103 34.238 34.27 34.138 34.128 34.098 33.945 33.875 33.768 33.69 33.698 33.698 33.63 33.493 33.393 33.268 33.14 32.98 32.85 32.753 32.678 32.615 32.538 32.548 32.613 32.62 32.64 32.688 32.75 32.818 32.823 32.833 32.823 32.778 32.673 32.6 32.565 32.535 32.515 32.478 32.438 32.45 32.435 32.445 32.443 32.445 32.46 32.423 32.415 32.45 32.438 32.325 32.213 32.155 32.06 31.98 31.875 31.795 31.755 31.705 31.658 31.583 31.55 31.465 31.47 31.453 31.423 31.405 31.378 31.35 31.108 30.813 30.778 31.215 31.365 31.368 31.415 31.478 31.593 31.67 31.593 31.69 31.698 31.635 31.668 31.665 31.668 31.618 31.593 31.578 31.503 31.49 31.435 31.408 31.358 31.308 31.273 31.218 31.17 31.11 31.048 30.993 30.96 30.923 30.883 30.803 30.748 30.735 30.695 30.688 30.658 30.673 30.66 30.595 30.61 30.59 30.588 30.553 30.583 30.568 30.55 30.538 30.56 30.56 30.54 30.528 30.47 30.44 30.425 30.41 30.343 30.315 30.295 30.298 30.298 30.308 30.313 30.373 30.373 30.428 30.505 30.548 30.568 30.628 30.718 30.808 30.87 30.91 31.023 31.063 31.145 31.203 31.268 31.333 31.343 31.343 31.375 31.385 31.363 31.305 31.313 31.308 31.273 31.265 31.248 31.22 31.19 31.188 31.213 31.203 31.163 31.143 31.103 31.063 31.09 31.098 31.058 31.08 31.078 31.04 31.088 31.08 31.103 31.13 31.155 31.2 31.17 31.188 31.25 31.273 31.238 31.25 31.25 31.29 31.278 31.25 31.243 31.218 31.223 31.19 31.178 31.128 31.06 31.038 31.003 30.943 30.903 30.848 30.823 30.778 30.773 30.75 30.745 30.723 30.665 30.6 30.595 30.578 30.59 30.558 30.53 30.51 30.465 30.47 30.478 30.453 30.453 30.425 30.433 30.403 30.408 30.42 30.438 30.443 30.428 30.413 30.375 30.358 30.355 30.353 30.345 30.335 30.373 30.328 30.28 30.323 30.34 30.325 30.3 30.298 30.26 30.253 30.253 30.198 30.183 30.19 30.185 30.143 30.125 30.163 30.123 30.108 30.118 30.113 30.105 30.1 30.088 30.085 30.083 30.053 30.033 30.045 29.99 30.005 29.983 29.945 29.985 29.995 30.023 30.02 30.023 29.963 29.978 29.978 29.985 29.968 30.005 29.993 29.93 29.9 29.91 29.925 29.878 29.883 29.98 29.953 29.833 29.73 29.695 29.665 29.668 29.593 29.583 29.623 29.62 29.59 29.59 29.543 29.51 29.44 29.43 29.365 29.318 29.283 29.233 29.195 29.145 29.065 29.018 28.958 28.928 28.888 28.843 28.835 28.82 28.775 28.763 28.743 28.71 28.743 28.735 28.775 28.758 28.81 28.833 28.873 28.905 28.938 28.97 28.985 29.015 29.028 29.028 29.023 29.053 29.095 29.143 29.138 29.215 29.27 29.303 29.34 29.4 29.45 29.438 29.438 29.43 29.425 29.463 29.46 29.463 29.448
