ncols 426
nrows 32
xllcorner    428108
yllcorner    489756
cellsize     2
NODATA_value -9999
45.866 45.916 45.984 45.946 45.919 45.939 45.989 45.984 46.041 46.061 46.079 46.126 46.136 46.144 46.186 46.214 46.231 46.256 46.281 46.264 46.304 46.324 46.351 46.379 46.389 46.451 46.479 46.501 46.516 46.544 46.559 46.564 46.609 46.626 46.616 46.619 46.601 46.571 46.534 46.476 46.451 46.424 46.424 46.379 46.331 46.359 46.301 46.356 46.354 46.276 46.229 46.184 46.181 46.164 46.131 46.084 46.041 46.016 45.984 45.976 45.921 45.961 45.924 45.914 45.864 45.786 45.706 45.569 45.421 45.219 45.014 44.804 44.546 44.249 43.966 43.674 43.306 42.976 42.654 42.264 41.904 41.554 41.231 40.901 40.614 40.391 40.136 39.971 39.789 39.691 39.566 39.494 39.434 39.389 39.361 39.346 39.359 39.336 39.361 39.369 39.391 39.416 39.436 39.499 39.519 39.571 39.586 39.629 39.639 39.636 39.651 39.631 39.626 39.594 39.586 39.574 39.589 39.621 39.634 39.676 39.721 39.776 39.809 39.851 39.896 39.899 39.904 39.941 39.936 39.904 39.889 39.809 39.809 39.804 39.891 39.941 39.926 39.871 39.781 39.701 39.694 39.706 39.699 39.701 39.624 39.119 38.804 38.484 38.199 38.124 38.146 38.156 38.174 38.206 38.136 38.059 38.094 38.269 38.881 39.184 39.061 38.844 38.626 38.499 38.464 38.419 38.291 38.214 38.179 38.119 38.006 37.929 37.884 37.876 37.859 37.841 37.829 37.769 37.766 37.796 37.759 37.724 37.639 37.594 37.564 37.404 37.259 37.164 37.116 37.254 37.174 37.166 37.154 37.094 37.064 37.106 37.074 37.106 37.106 36.986 36.941 36.951 36.919 36.904 36.901 36.884 36.921 36.884 36.824 36.814 36.669 36.611 36.571 36.561 36.684 36.699 36.699 36.666 36.586 36.559 36.579 36.546 36.571 36.709 36.831 36.641 36.414 36.359 36.341 36.406 36.539 36.636 36.766 36.766 36.701 36.639 36.606 36.634 36.626 36.704 36.611 36.624 36.674 36.701 36.676 36.649 36.663 36.691 36.713 36.716 36.758 36.773 36.758 36.798 36.838 36.841 36.866 36.803 36.788 36.806 36.831 36.871 36.868 36.803 36.761 36.658 36.598 36.556 36.468 36.438 36.338 36.193 36.121 36.118 36.136 36.158 36.108 36.063 35.981 35.903 35.886 35.921 35.901 35.916 36.001 36.041 36.023 35.968 35.976 36.003 35.998 36.031 36.041 36.066 36.053 36.066 36.038 36.036 36.031 36.108 36.151 36.151 36.148 36.133 36.128 36.103 36.163 36.258 36.221 36.156 36.126 36.108 36.138 36.133 36.111 36.128 36.128 36.123 36.191 36.191 36.128 36.136 36.106 36.068 35.898 35.903 35.908 35.883 35.808 35.758 35.736 35.751 35.771 35.743 35.728 35.711 35.681 35.678 35.713 35.676 35.678 35.676 35.658 35.631 35.611 35.588 35.576 35.543 35.553 35.511 35.543 35.548 35.533 35.516 35.536 35.511 35.516 35.481 35.471 35.426 35.488 35.558 35.696 35.828 35.966 36.093 36.161 36.193 36.196 36.123 36.143 36.148 35.971 35.806 35.693 35.683 35.638 35.358 35.326 35.313 35.286 35.263 35.253 35.246 35.288 35.311 35.353 35.353 35.208 35.191 35.276 35.261 35.208 35.148 35.058 35.016 35.003 34.981 34.958 34.976 35.006 35.011 35.013 34.993 34.888 34.796 34.676 34.543 34.476 34.396 34.391 34.381 34.341 34.296 34.253 34.208 34.148 34.121 34.106 34.083 34.078 34.153 34.218 34.191 34.191 34.221
45.901 45.831 45.931 45.914 45.856 45.876 45.919 45.914 45.941 45.976 46.006 46.046 46.096 46.099 46.119 46.151 46.171 46.186 46.201 46.226 46.239 46.256 46.266 46.271 46.314 46.341 46.389 46.414 46.429 46.441 46.476 46.454 46.504 46.519 46.516 46.514 46.526 46.499 46.456 46.401 46.386 46.346 46.321 46.264 46.259 46.266 46.261 46.261 46.239 46.204 46.166 46.134 46.101 46.071 46.054 45.989 45.956 45.904 45.889 45.849 45.844 45.829 45.826 45.804 45.766 45.689 45.609 45.506 45.369 45.209 45.011 44.779 44.564 44.309 44.054 43.751 43.411 43.101 42.716 42.364 41.954 41.596 41.269 40.946 40.689 40.396 40.186 39.989 39.804 39.689 39.554 39.506 39.429 39.349 39.314 39.284 39.284 39.286 39.299 39.331 39.341 39.364 39.409 39.451 39.501 39.541 39.539 39.581 39.604 39.611 39.624 39.606 39.589 39.579 39.554 39.526 39.506 39.539 39.554 39.574 39.601 39.646 39.709 39.759 39.791 39.809 39.836 39.844 39.856 39.834 39.796 39.776 39.794 39.776 39.859 39.861 39.859 39.916 39.899 39.864 39.879 39.854 39.821 39.759 39.776 39.131 38.531 38.161 38.141 38.146 38.181 38.159 38.159 38.154 38.086 38.041 38.261 38.846 39.004 39.071 38.869 38.529 38.499 38.449 38.379 38.296 38.206 38.141 38.119 38.021 37.866 37.844 37.851 37.844 37.824 37.829 37.811 37.729 37.726 37.771 37.756 37.684 37.616 37.619 37.629 37.286 37.026 36.964 37.041 37.166 37.214 37.171 37.144 37.076 37.056 37.106 37.054 37.049 37.006 36.936 36.894 36.889 36.889 36.896 36.889 36.889 36.954 36.901 36.851 36.841 36.746 36.581 36.539 36.559 36.624 36.604 36.609 36.671 36.564 36.541 36.559 36.541 36.561 36.659 36.669 36.484 36.366 36.296 36.319 36.356 36.504 36.709 36.761 36.744 36.709 36.636 36.571 36.614 36.641 36.751 36.724 36.696 36.701 36.669 36.559 36.729 36.698 36.678 36.676 36.636 36.726 36.753 36.788 36.833 36.878 36.848 36.873 36.863 36.813 36.821 36.808 36.823 36.836 36.843 36.801 36.733 36.621 36.571 36.401 36.303 36.221 36.138 36.101 36.096 36.083 36.076 36.066 36.056 36.013 35.918 35.878 35.896 35.876 35.883 35.908 36.001 36.018 36.036 36.026 36.011 36.021 36.041 36.116 36.096 36.098 36.083 36.063 36.026 36.063 36.111 36.158 36.186 36.158 36.171 36.148 36.131 36.138 36.201 36.161 36.126 36.168 36.166 36.176 36.136 36.103 36.156 36.191 36.193 36.178 36.123 36.121 36.166 36.153 36.113 35.998 35.963 35.966 35.946 35.858 35.803 35.791 35.746 35.766 35.753 35.771 35.758 35.708 35.671 35.703 35.666 35.696 35.673 35.653 35.646 35.626 35.606 35.561 35.556 35.556 35.526 35.521 35.561 35.551 35.513 35.511 35.511 35.518 35.473 35.443 35.476 35.568 35.601 35.658 35.813 35.896 35.971 36.116 36.188 36.181 36.108 36.046 36.086 36.086 35.933 35.811 35.741 35.543 35.348 35.308 35.311 35.301 35.291 35.296 35.291 35.308 35.308 35.366 35.426 35.236 35.146 35.203 35.213 35.173 35.133 35.066 35.033 35.023 34.988 34.958 34.956 34.996 34.976 34.966 34.998 34.968 34.873 34.771 34.666 34.568 34.511 34.456 34.428 34.408 34.341 34.241 34.198 34.173 34.048 34.038 34.001 34.023 34.068 34.118 34.143 34.143 34.191
45.999 45.821 45.874 45.934 45.866 45.799 45.844 45.866 45.866 45.894 45.929 45.941 45.974 46.016 46.056 46.081 46.121 46.129 46.141 46.174 46.144 46.201 46.196 46.174 46.209 46.246 46.261 46.311 46.314 46.354 46.379 46.341 46.401 46.419 46.424 46.431 46.426 46.386 46.379 46.351 46.309 46.291 46.249 46.244 46.234 46.184 46.229 46.186 46.186 46.126 46.099 46.071 46.006 45.979 45.959 45.911 45.876 45.836 45.796 45.764 45.741 45.726 45.716 45.674 45.636 45.601 45.504 45.401 45.304 45.186 45.006 44.774 44.589 44.316 44.059 43.761 43.439 43.096 42.754 42.391 41.994 41.691 41.309 40.991 40.724 40.421 40.196 39.991 39.841 39.726 39.609 39.491 39.424 39.344 39.296 39.241 39.199 39.236 39.241 39.254 39.291 39.319 39.379 39.414 39.471 39.511 39.499 39.504 39.534 39.569 39.591 39.594 39.571 39.544 39.511 39.524 39.471 39.484 39.461 39.491 39.484 39.549 39.559 39.624 39.676 39.681 39.736 39.711 39.736 39.756 39.756 39.781 39.834 39.829 39.799 39.796 39.821 39.894 39.881 39.864 39.879 39.919 39.839 39.744 39.446 38.611 38.166 38.144 38.156 38.206 38.189 38.149 38.139 38.106 38.081 38.429 38.984 39.009 38.709 38.754 38.761 38.616 38.506 38.394 38.346 38.286 38.264 38.151 38.036 37.899 37.854 37.846 37.814 37.796 37.774 37.749 37.744 37.729 37.721 37.714 37.726 37.691 37.671 37.661 37.651 37.326 36.904 36.909 37.006 37.144 37.221 37.124 37.089 37.046 37.044 37.111 37.154 37.066 36.966 36.911 36.929 36.909 36.864 36.864 36.864 36.871 36.921 36.931 36.894 36.876 36.819 36.681 36.599 36.599 36.639 36.601 36.686 36.691 36.636 36.566 36.541 36.531 36.529 36.509 36.454 36.416 36.391 36.316 36.304 36.336 36.486 36.716 36.716 36.704 36.684 36.641 36.559 36.649 36.726 36.674 36.736 36.709 36.701 36.724 36.704 36.784 36.763 36.748 36.718 36.633 36.633 36.723 36.771 36.893 36.918 36.883 36.856 36.901 36.823 36.808 36.788 36.776 36.778 36.683 36.761 36.741 36.548 36.426 36.311 36.251 36.198 36.141 36.103 36.063 36.043 36.058 36.071 36.096 36.076 35.956 35.888 35.836 35.881 35.881 35.898 35.921 35.986 36.036 36.058 36.041 36.058 36.103 36.143 36.123 36.116 36.073 36.041 36.066 36.116 36.138 36.153 36.218 36.193 36.233 36.226 36.216 36.196 36.183 36.136 36.133 36.201 36.218 36.206 36.168 36.166 36.211 36.208 36.181 36.146 36.138 36.133 36.168 36.171 36.156 36.096 36.063 36.026 35.978 35.906 35.858 35.796 35.693 35.768 35.796 35.786 35.768 35.738 35.678 35.683 35.673 35.676 35.673 35.676 35.643 35.671 35.658 35.621 35.606 35.576 35.568 35.546 35.556 35.548 35.546 35.511 35.511 35.548 35.536 35.561 35.593 35.636 35.638 35.653 35.726 35.783 35.878 36.038 36.161 36.181 36.138 36.096 36.096 36.103 36.031 35.848 35.746 35.593 35.433 35.328 35.313 35.331 35.326 35.328 35.301 35.351 35.298 35.331 35.343 35.291 35.161 35.118 35.143 35.131 35.101 35.066 35.023 35.008 35.006 34.988 34.981 34.986 34.978 34.956 34.961 34.913 34.903 34.826 34.796 34.701 34.636 34.558 34.481 34.426 34.386 34.246 34.148 34.093 33.993 33.981 33.993 34.006 34.023 34.021 34.036 34.061 34.118
46.181 45.889 45.801 45.894 45.869 45.789 45.791 45.806 45.856 45.861 45.891 45.899 45.914 45.954 45.971 46.011 46.051 46.056 46.079 46.131 46.129 46.111 46.119 46.141 46.126 46.146 46.176 46.184 46.201 46.239 46.269 46.289 46.286 46.331 46.324 46.339 46.349 46.334 46.296 46.281 46.266 46.231 46.184 46.166 46.129 46.116 46.129 46.134 46.096 46.079 46.044 46.026 45.941 45.924 45.899 45.821 45.809 45.761 45.709 45.659 45.661 45.616 45.609 45.564 45.509 45.496 45.429 45.331 45.246 45.139 45.001 44.824 44.596 44.371 44.086 43.794 43.476 43.129 42.771 42.431 42.096 41.749 41.366 41.049 40.761 40.471 40.246 40.029 39.851 39.684 39.604 39.501 39.414 39.301 39.274 39.244 39.204 39.209 39.211 39.234 39.244 39.261 39.336 39.389 39.434 39.459 39.504 39.506 39.556 39.569 39.539 39.544 39.549 39.551 39.501 39.509 39.494 39.451 39.389 39.411 39.439 39.469 39.469 39.521 39.554 39.544 39.601 39.611 39.624 39.684 39.699 39.761 39.819 39.771 39.789 39.706 39.679 39.739 39.814 39.821 39.676 39.501 39.359 39.256 38.686 38.211 38.126 38.211 38.221 38.246 38.194 38.149 38.114 38.111 38.449 39.236 39.346 39.094 38.726 38.636 38.684 38.671 38.489 38.386 38.354 38.294 38.294 38.236 38.014 37.884 37.879 37.851 37.794 37.761 37.736 37.731 37.746 37.764 37.744 37.716 37.701 37.689 37.686 37.666 37.544 37.396 37.126 36.989 37.176 37.246 37.169 37.061 37.049 37.029 37.021 37.106 37.134 37.059 36.926 36.874 36.909 36.871 36.849 36.849 36.869 36.911 36.869 36.864 36.874 36.866 36.824 36.796 36.721 36.639 36.641 36.689 36.656 36.644 36.591 36.609 36.566 36.586 36.556 36.546 36.479 36.431 36.441 36.394 36.369 36.306 36.406 36.534 36.551 36.591 36.636 36.574 36.564 36.671 36.716 36.654 36.674 36.649 36.664 36.749 36.784 36.799 36.753 36.771 36.758 36.653 36.643 36.721 36.778 36.823 36.908 36.881 36.851 36.773 36.728 36.751 36.716 36.593 36.363 36.346 36.521 36.528 36.381 36.348 36.276 36.246 36.173 36.138 36.093 36.071 36.031 36.051 36.071 36.068 36.048 36.011 35.916 35.846 35.868 35.901 35.916 35.931 35.951 36.011 36.073 36.103 36.091 36.116 36.178 36.156 36.138 36.121 36.133 36.111 36.136 36.141 36.156 36.201 36.196 36.208 36.181 36.191 36.218 36.223 36.228 36.138 36.171 36.231 36.223 36.196 36.201 36.201 36.181 36.173 36.176 36.166 36.166 36.171 36.171 36.168 36.128 36.116 36.071 36.061 36.028 35.946 35.906 35.818 35.843 35.796 35.776 35.736 35.706 35.713 35.683 35.681 35.678 35.691 35.698 35.678 35.691 35.661 35.648 35.631 35.581 35.591 35.581 35.558 35.543 35.548 35.553 35.518 35.571 35.621 35.631 35.608 35.593 35.596 35.731 35.813 35.776 35.826 35.966 36.086 36.153 36.188 36.111 36.073 36.086 36.148 36.008 35.808 35.681 35.501 35.363 35.301 35.303 35.331 35.306 35.281 35.283 35.256 35.238 35.208 35.218 35.148 35.101 35.063 35.053 35.063 35.038 35.051 35.053 35.028 35.008 35.021 34.986 34.976 34.956 34.946 34.886 34.866 34.866 34.843 34.783 34.726 34.636 34.551 34.463 34.406 34.278 34.151 34.066 33.958 33.973 33.921 33.948 33.943 33.943 33.976 34.001 34.221
46.274 46.054 45.761 45.809 45.851 45.789 45.736 45.769 45.791 45.831 45.804 45.816 45.826 45.879 45.919 45.946 45.979 45.989 46.039 46.069 46.051 46.054 46.051 46.051 46.044 46.086 46.129 46.126 46.124 46.169 46.184 46.219 46.221 46.241 46.216 46.274 46.249 46.254 46.221 46.201 46.184 46.154 46.131 46.131 46.079 46.044 46.039 46.021 46.039 46.016 45.994 45.946 45.936 45.866 45.809 45.751 45.716 45.649 45.639 45.606 45.579 45.531 45.516 45.474 45.424 45.374 45.349 45.274 45.186 45.096 44.979 44.824 44.621 44.381 44.096 43.866 43.534 43.231 42.859 42.539 42.181 41.821 41.436 41.106 40.799 40.511 40.274 40.059 39.904 39.751 39.646 39.526 39.399 39.314 39.271 39.239 39.211 39.194 39.196 39.196 39.211 39.224 39.266 39.329 39.399 39.416 39.476 39.499 39.481 39.539 39.521 39.519 39.526 39.489 39.476 39.454 39.424 39.399 39.356 39.366 39.384 39.354 39.371 39.419 39.461 39.466 39.509 39.526 39.571 39.621 39.641 39.659 39.754 39.781 39.736 39.696 39.651 39.654 39.684 39.526 39.414 39.106 38.859 38.471 38.174 38.196 38.224 38.199 38.216 38.216 38.199 38.134 38.149 38.451 39.151 39.331 39.331 39.289 39.051 38.794 38.641 38.539 38.496 38.404 38.339 38.281 38.289 38.184 38.069 37.921 37.919 37.859 37.806 37.761 37.781 37.806 37.811 37.789 37.746 37.716 37.716 37.696 37.646 37.391 37.296 37.309 37.074 37.076 37.224 37.159 37.069 36.994 37.029 37.054 36.981 37.044 37.081 37.001 36.949 36.954 36.879 36.844 36.836 36.864 36.901 36.879 36.879 36.856 36.861 36.844 36.791 36.801 36.776 36.761 36.746 36.636 36.584 36.599 36.569 36.524 36.519 36.564 36.591 36.629 36.584 36.524 36.491 36.436 36.399 36.329 36.311 36.439 36.586 36.531 36.589 36.616 36.659 36.711 36.701 36.691 36.654 36.641 36.704 36.749 36.734 36.724 36.718 36.771 36.698 36.656 36.626 36.616 36.691 36.673 36.761 36.778 36.691 36.621 36.658 36.616 36.403 36.236 36.188 36.198 36.286 36.401 36.378 36.338 36.236 36.206 36.153 36.108 36.076 36.073 36.086 36.066 36.078 36.068 36.058 36.006 35.951 35.888 35.901 35.913 35.976 35.971 35.983 36.021 36.046 36.101 36.121 36.143 36.193 36.186 36.181 36.176 36.156 36.191 36.206 36.223 36.183 36.173 36.171 36.173 36.126 36.121 36.131 36.233 36.248 36.168 36.133 36.223 36.196 36.253 36.233 36.206 36.211 36.156 36.178 36.173 36.166 36.161 36.141 36.161 36.166 36.191 36.148 36.161 36.148 36.056 35.981 35.991 35.896 35.818 35.768 35.751 35.726 35.716 35.673 35.678 35.681 35.693 35.708 35.718 35.708 35.676 35.681 35.666 35.626 35.583 35.581 35.581 35.538 35.536 35.603 35.611 35.603 35.633 35.628 35.628 35.648 35.656 35.741 35.816 35.838 35.858 35.871 35.961 36.176 36.208 36.126 36.098 36.041 36.116 36.111 35.896 35.748 35.616 35.458 35.298 35.278 35.308 35.293 35.198 35.186 35.173 35.231 35.208 35.178 35.171 35.093 35.008 35.028 35.033 35.036 35.038 35.061 35.068 35.023 35.033 35.001 34.963 34.936 34.896 34.883 34.846 34.871 34.858 34.833 34.823 34.751 34.638 34.566 34.433 34.326 34.188 34.101 34.008 33.943 33.936 33.916 33.901 33.868 33.928 34.136 34.246
46.319 46.181 45.866 45.799 45.881 45.809 45.719 45.734 45.744 45.739 45.754 45.771 45.786 45.834 45.879 45.881 45.911 45.919 45.989 45.986 45.961 45.999 46.016 45.986 45.964 46.001 46.046 46.041 46.046 46.064 46.119 46.129 46.166 46.159 46.176 46.179 46.174 46.194 46.146 46.134 46.134 46.114 46.094 46.071 46.054 45.991 45.984 45.989 45.969 45.934 45.899 45.894 45.871 45.811 45.734 45.734 45.669 45.631 45.579 45.534 45.501 45.431 45.449 45.379 45.354 45.309 45.261 45.219 45.116 45.031 44.931 44.779 44.649 44.386 44.141 43.944 43.646 43.296 42.989 42.604 42.291 41.914 41.541 41.186 40.891 40.599 40.324 40.121 39.939 39.779 39.654 39.491 39.366 39.311 39.249 39.221 39.176 39.186 39.159 39.156 39.209 39.201 39.194 39.266 39.321 39.394 39.426 39.451 39.451 39.491 39.521 39.474 39.479 39.449 39.424 39.424 39.401 39.399 39.361 39.329 39.301 39.306 39.299 39.331 39.364 39.381 39.386 39.434 39.461 39.486 39.564 39.589 39.674 39.714 39.659 39.614 39.676 39.669 39.546 39.306 39.109 38.746 38.474 38.194 38.224 38.264 38.249 38.231 38.196 38.174 38.176 38.209 38.449 38.679 39.124 39.111 39.049 39.209 39.061 38.774 38.649 38.589 38.511 38.441 38.416 38.279 38.241 38.169 38.089 38.159 38.019 37.836 37.796 37.831 37.861 37.871 37.821 37.804 37.756 37.756 37.711 37.676 37.584 37.456 37.374 37.266 37.089 37.124 37.174 37.096 36.991 36.969 37.011 37.016 36.976 36.986 36.966 36.996 37.014 37.041 36.951 36.844 36.864 36.891 36.879 36.901 36.891 36.834 36.854 36.864 36.794 36.804 36.809 36.834 36.821 36.726 36.689 36.651 36.596 36.584 36.571 36.574 36.569 36.711 36.674 36.584 36.551 36.549 36.494 36.389 36.349 36.341 36.466 36.624 36.651 36.681 36.716 36.681 36.639 36.626 36.651 36.629 36.666 36.706 36.656 36.641 36.688 36.746 36.676 36.698 36.656 36.561 36.561 36.596 36.771 36.681 36.636 36.471 36.376 36.333 36.216 36.193 36.161 36.173 36.283 36.348 36.286 36.266 36.181 36.101 36.111 36.123 36.098 36.066 36.063 36.041 36.053 36.056 36.043 36.041 35.991 35.946 35.961 35.988 36.026 36.028 36.028 36.051 36.046 36.083 36.118 36.168 36.173 36.168 36.213 36.206 36.181 36.213 36.206 36.221 36.218 36.191 36.143 36.133 36.108 36.116 36.168 36.223 36.283 36.266 36.198 36.281 36.256 36.251 36.301 36.366 36.303 36.238 36.206 36.188 36.163 36.161 36.191 36.283 36.238 36.186 36.208 36.221 36.198 35.993 36.086 36.136 35.973 35.896 35.831 35.771 35.753 35.726 35.728 35.716 35.718 35.723 35.741 35.733 35.741 35.723 35.708 35.698 35.693 35.636 35.598 35.583 35.576 35.606 35.638 35.671 35.668 35.663 35.686 35.711 35.726 35.728 35.703 35.763 35.811 35.806 35.761 35.863 36.058 36.191 36.133 36.138 36.098 36.028 36.148 36.076 35.853 35.718 35.526 35.376 35.361 35.311 35.213 35.191 35.166 35.166 35.171 35.186 35.193 35.138 35.043 34.996 34.991 35.043 35.048 35.056 35.038 35.046 35.048 35.033 34.986 34.933 34.936 34.898 34.893 34.846 34.838 34.861 34.856 34.848 34.826 34.733 34.623 34.526 34.433 34.268 34.181 34.066 33.963 33.923 33.901 33.811 33.733 33.861 34.116 34.073
46.359 46.201 45.961 45.739 45.801 45.876 45.716 45.676 45.719 45.709 45.746 45.729 45.766 45.779 45.799 45.859 45.856 45.864 45.906 45.929 45.944 45.946 45.964 45.949 45.956 45.964 45.976 45.984 45.991 46.001 46.061 46.066 46.094 46.096 46.106 46.119 46.094 46.109 46.104 46.081 46.096 46.064 46.041 46.049 46.011 45.964 45.929 45.936 45.914 45.914 45.869 45.831 45.799 45.746 45.724 45.659 45.616 45.579 45.531 45.504 45.446 45.401 45.374 45.336 45.281 45.259 45.186 45.151 45.071 44.996 44.906 44.776 44.634 44.439 44.206 43.964 43.701 43.416 43.089 42.711 42.336 42.016 41.694 41.321 40.989 40.696 40.429 40.209 39.974 39.811 39.676 39.486 39.381 39.339 39.299 39.231 39.169 39.174 39.156 39.154 39.176 39.156 39.194 39.224 39.251 39.314 39.351 39.394 39.429 39.459 39.446 39.431 39.451 39.429 39.404 39.364 39.366 39.346 39.301 39.261 39.271 39.264 39.266 39.259 39.266 39.281 39.324 39.376 39.364 39.419 39.491 39.524 39.564 39.609 39.609 39.666 39.589 39.456 39.309 39.149 38.754 38.396 38.254 38.246 38.234 38.234 38.259 38.281 38.236 38.216 38.184 38.616 38.824 38.979 39.114 39.059 38.969 38.889 38.839 38.654 38.569 38.496 38.451 38.396 38.449 38.356 38.236 38.159 38.134 38.139 38.079 37.999 37.824 37.829 37.869 37.871 37.791 37.741 37.741 37.801 37.779 37.659 37.506 37.424 37.396 37.279 37.201 37.184 37.191 37.191 37.156 37.069 36.971 37.001 36.994 36.966 36.949 37.011 37.051 37.081 37.024 36.929 36.886 36.904 36.929 36.911 36.866 36.876 36.866 36.824 36.841 36.836 36.814 36.806 36.816 36.819 36.794 36.744 36.699 36.646 36.621 36.589 36.589 36.659 36.694 36.594 36.534 36.544 36.531 36.444 36.331 36.299 36.356 36.541 36.646 36.659 36.634 36.654 36.561 36.551 36.596 36.626 36.651 36.639 36.619 36.654 36.686 36.731 36.766 36.773 36.731 36.586 36.548 36.641 36.668 36.626 36.493 36.348 36.211 36.208 36.178 36.243 36.233 36.278 36.403 36.353 36.208 36.083 36.131 36.121 36.071 36.058 36.081 36.081 36.038 36.013 35.973 35.978 36.003 36.003 35.996 35.978 36.021 36.008 36.028 36.061 36.028 36.048 36.033 36.046 36.096 36.146 36.148 36.193 36.233 36.198 36.183 36.186 36.196 36.216 36.191 36.161 36.146 36.158 36.166 36.136 36.183 36.261 36.296 36.213 36.146 36.226 36.288 36.328 36.391 36.436 36.401 36.388 36.376 36.321 36.243 36.226 36.296 36.293 36.191 36.161 36.203 36.221 36.243 36.226 36.141 36.193 36.118 35.983 35.828 35.791 35.778 35.758 35.781 35.773 35.753 35.753 35.736 35.753 35.768 35.736 35.718 35.703 35.698 35.648 35.691 35.693 35.701 35.701 35.696 35.678 35.703 35.713 35.748 35.723 35.711 35.746 35.761 35.713 35.783 35.798 35.753 35.748 35.966 36.283 36.233 36.173 36.116 36.021 36.063 36.113 35.966 35.761 35.616 35.501 35.433 35.301 35.183 35.193 35.183 35.188 35.191 35.188 35.158 35.083 35.041 34.971 34.953 35.046 35.096 35.076 35.078 35.028 35.053 35.018 34.988 34.921 34.906 34.906 34.903 34.883 34.868 34.881 34.893 34.868 34.851 34.813 34.713 34.593 34.488 34.358 34.233 34.158 34.021 33.913 33.868 33.713 33.661 33.768 33.876 33.838
46.316 46.276 46.124 45.859 45.824 45.889 45.766 45.646 45.694 45.689 45.691 45.716 45.726 45.711 45.756 45.779 45.811 45.786 45.806 45.846 45.849 45.886 45.904 45.906 45.909 45.921 45.881 45.906 45.946 45.961 45.986 45.989 46.011 46.044 46.061 46.021 46.039 46.061 46.024 46.026 46.034 46.056 46.021 46.004 45.971 45.901 45.861 45.881 45.851 45.824 45.781 45.756 45.721 45.696 45.666 45.634 45.559 45.546 45.516 45.439 45.386 45.336 45.291 45.249 45.219 45.171 45.119 45.046 45.006 44.954 44.881 44.769 44.639 44.466 44.251 43.996 43.774 43.499 43.166 42.824 42.491 42.156 41.799 41.461 41.114 40.816 40.549 40.294 40.049 39.866 39.684 39.546 39.436 39.354 39.311 39.264 39.206 39.171 39.144 39.134 39.164 39.171 39.176 39.186 39.194 39.246 39.299 39.341 39.364 39.411 39.386 39.384 39.396 39.384 39.396 39.351 39.334 39.286 39.264 39.251 39.224 39.224 39.201 39.186 39.206 39.229 39.291 39.296 39.316 39.361 39.431 39.451 39.444 39.479 39.586 39.826 39.591 39.194 39.039 38.879 38.499 38.369 38.291 38.294 38.274 38.244 38.271 38.264 38.269 38.319 38.741 39.191 39.104 39.136 39.119 39.031 38.954 38.796 38.676 38.596 38.514 38.441 38.391 38.344 38.411 38.299 38.134 38.086 38.094 38.084 38.054 38.039 37.871 37.864 37.864 37.856 37.806 37.761 37.801 37.791 37.754 37.561 37.399 37.371 37.341 37.251 37.244 37.299 37.306 37.229 37.181 37.059 36.941 36.989 37.004 36.946 36.954 36.974 36.999 37.016 37.029 36.999 36.944 36.954 36.934 36.894 36.916 36.936 36.911 36.844 36.869 36.891 36.854 36.831 36.839 36.924 36.901 36.834 36.764 36.659 36.614 36.594 36.599 36.594 36.644 36.604 36.541 36.499 36.496 36.439 36.329 36.294 36.269 36.361 36.521 36.519 36.484 36.491 36.484 36.524 36.569 36.574 36.574 36.664 36.644 36.661 36.678 36.721 36.743 36.748 36.666 36.571 36.498 36.541 36.568 36.468 36.323 36.273 36.168 36.173 36.153 36.286 36.316 36.413 36.503 36.418 36.306 36.213 36.196 36.121 35.968 36.016 35.993 36.023 35.996 35.978 35.956 35.943 35.956 35.973 36.013 35.993 36.023 35.973 36.033 36.061 36.046 36.046 35.996 36.016 36.081 36.151 36.168 36.236 36.243 36.198 36.186 36.196 36.203 36.211 36.186 36.183 36.176 36.208 36.181 36.183 36.181 36.231 36.221 36.143 36.123 36.176 36.223 36.361 36.428 36.423 36.368 36.383 36.416 36.418 36.421 36.373 36.323 36.223 36.178 36.153 36.138 36.146 36.241 36.276 36.078 36.043 36.048 36.011 35.921 35.816 35.798 35.791 35.801 35.788 35.808 35.778 35.771 35.768 35.788 35.761 35.748 35.726 35.696 35.706 35.773 35.751 35.718 35.673 35.713 35.718 35.778 35.781 35.788 35.758 35.718 35.713 35.718 35.703 35.783 35.831 35.713 35.621 35.696 36.083 36.116 36.176 36.133 36.038 35.981 36.018 36.041 35.898 35.751 35.561 35.416 35.271 35.226 35.188 35.218 35.218 35.201 35.156 35.136 35.083 35.028 34.963 34.996 35.018 35.066 35.083 35.091 35.058 35.011 35.018 35.001 34.961 34.908 34.886 34.898 34.893 34.868 34.856 34.851 34.853 34.866 34.841 34.783 34.661 34.568 34.428 34.271 34.198 34.056 33.943 33.821 33.681 33.696 33.793 33.808 33.818
46.409 46.331 46.269 46.099 45.866 45.841 45.736 45.636 45.629 45.651 45.624 45.686 45.676 45.674 45.684 45.731 45.746 45.744 45.756 45.801 45.816 45.826 45.849 45.856 45.846 45.871 45.891 45.879 45.884 45.889 45.919 45.926 45.926 45.959 45.971 45.956 45.974 45.981 46.004 45.994 46.014 45.994 45.979 45.974 45.941 45.899 45.876 45.846 45.804 45.779 45.731 45.726 45.676 45.626 45.584 45.584 45.526 45.511 45.446 45.394 45.356 45.306 45.249 45.204 45.156 45.111 45.061 45.019 44.989 44.921 44.854 44.734 44.609 44.481 44.301 44.076 43.831 43.541 43.269 42.921 42.634 42.301 41.964 41.596 41.274 40.934 40.664 40.384 40.139 39.941 39.749 39.616 39.509 39.404 39.311 39.246 39.204 39.161 39.139 39.144 39.129 39.134 39.109 39.176 39.176 39.214 39.231 39.266 39.299 39.314 39.319 39.336 39.336 39.329 39.344 39.291 39.301 39.271 39.224 39.236 39.206 39.171 39.159 39.151 39.176 39.179 39.194 39.231 39.274 39.314 39.361 39.389 39.379 39.451 39.606 39.769 39.436 39.006 38.739 38.494 38.336 38.299 38.326 38.344 38.309 38.284 38.276 38.249 38.354 38.886 39.324 39.161 39.069 39.089 39.076 39.066 38.874 38.719 38.644 38.571 38.531 38.449 38.449 38.381 38.401 38.226 38.071 37.996 38.054 38.081 38.021 38.016 37.956 37.881 37.826 37.801 37.834 37.854 37.851 37.736 37.641 37.549 37.394 37.409 37.301 37.261 37.279 37.301 37.269 37.179 37.069 36.944 36.929 36.979 36.959 36.936 36.909 36.926 36.929 36.964 36.999 36.979 36.959 36.961 36.931 36.944 36.964 36.984 36.961 36.859 36.884 36.926 36.894 36.816 36.824 36.934 36.811 36.619 36.756 36.671 36.594 36.571 36.594 36.576 36.579 36.554 36.486 36.481 36.454 36.441 36.391 36.306 36.236 36.254 36.319 36.399 36.429 36.426 36.494 36.586 36.639 36.589 36.526 36.656 36.679 36.671 36.686 36.708 36.713 36.678 36.628 36.636 36.526 36.408 36.411 36.318 36.226 36.216 36.178 36.143 36.188 36.276 36.336 36.326 36.416 36.456 36.388 36.306 36.196 35.928 36.003 36.008 36.011 36.006 36.006 35.951 35.923 35.901 35.896 35.943 35.941 35.943 36.003 35.978 35.973 35.971 35.993 35.993 35.998 36.038 36.096 36.141 36.151 36.236 36.233 36.223 36.241 36.256 36.273 36.251 36.251 36.243 36.228 36.251 36.263 36.246 36.243 36.216 36.128 36.163 36.211 36.221 36.203 36.336 36.391 36.383 36.308 36.326 36.331 36.386 36.416 36.348 36.283 36.191 36.173 36.163 36.166 36.161 36.203 36.156 36.088 36.058 36.038 35.971 35.961 35.898 35.846 35.811 35.818 35.811 35.821 35.811 35.791 35.781 35.801 35.811 35.806 35.798 35.726 35.703 35.708 35.766 35.738 35.818 35.858 35.871 35.843 35.821 35.798 35.808 35.766 35.741 35.736 35.711 35.743 35.856 35.756 35.688 35.683 35.863 36.011 36.101 36.118 35.986 36.041 35.941 36.013 35.941 35.731 35.616 35.496 35.351 35.196 35.203 35.238 35.211 35.188 35.166 35.136 35.111 35.071 35.021 35.021 35.001 35.001 35.011 35.061 35.038 35.003 34.996 34.966 34.961 34.918 34.898 34.868 34.868 34.886 34.838 34.838 34.816 34.821 34.818 34.801 34.711 34.591 34.456 34.313 34.198 34.103 34.006 33.886 33.788 33.803 33.813 33.796 33.801
46.404 46.394 46.291 46.176 46.021 45.831 45.766 45.711 45.599 45.579 45.611 45.614 45.599 45.651 45.659 45.674 45.701 45.699 45.721 45.724 45.766 45.784 45.804 45.819 45.806 45.816 45.834 45.829 45.814 45.814 45.854 45.869 45.886 45.906 45.926 45.919 45.914 45.919 45.921 45.919 45.949 45.954 45.956 45.926 45.899 45.904 45.834 45.759 45.739 45.724 45.664 45.656 45.629 45.569 45.584 45.536 45.524 45.464 45.399 45.339 45.319 45.279 45.179 45.129 45.066 45.074 45.029 44.959 44.921 44.841 44.811 44.711 44.611 44.466 44.326 44.131 43.871 43.609 43.324 43.049 42.711 42.406 42.076 41.739 41.409 41.071 40.789 40.529 40.294 40.026 39.781 39.666 39.564 39.434 39.351 39.269 39.201 39.129 39.136 39.116 39.106 39.106 39.089 39.121 39.146 39.149 39.174 39.194 39.231 39.254 39.256 39.306 39.291 39.261 39.276 39.271 39.256 39.196 39.186 39.189 39.186 39.161 39.139 39.164 39.134 39.134 39.181 39.224 39.256 39.256 39.291 39.349 39.411 39.431 39.301 39.356 39.149 38.789 38.461 38.319 38.321 38.339 38.399 38.341 38.304 38.254 38.291 38.366 38.924 39.276 39.246 39.149 39.099 39.059 39.021 38.996 38.846 38.736 38.676 38.539 38.489 38.446 38.501 38.396 38.231 38.154 38.136 38.016 38.004 38.074 38.019 37.931 37.929 37.894 37.829 37.854 37.874 37.904 37.914 37.734 37.559 37.439 37.344 37.294 37.274 37.289 37.321 37.304 37.241 37.171 37.024 36.941 36.974 36.966 37.001 36.981 36.866 36.909 36.941 36.949 36.936 36.979 36.984 36.949 36.929 36.946 36.966 36.981 36.924 36.884 36.894 36.904 36.839 36.829 36.839 36.851 36.899 36.704 36.794 36.639 36.536 36.566 36.566 36.579 36.594 36.581 36.519 36.466 36.434 36.434 36.431 36.329 36.281 36.214 36.256 36.309 36.386 36.419 36.456 36.631 36.644 36.624 36.556 36.609 36.681 36.689 36.706 36.681 36.678 36.633 36.643 36.621 36.513 36.401 36.333 36.281 36.191 36.168 36.158 36.243 36.268 36.253 36.261 36.308 36.396 36.401 36.381 36.401 36.313 36.148 36.061 36.011 35.991 35.983 35.941 35.903 35.893 35.868 35.873 35.873 35.868 35.903 36.011 35.986 35.938 35.948 35.981 35.973 36.011 36.053 36.086 36.123 36.203 36.263 36.276 36.336 36.368 36.366 36.423 36.403 36.353 36.313 36.276 36.303 36.296 36.303 36.311 36.241 36.163 36.146 36.233 36.231 36.261 36.336 36.313 36.336 36.333 36.316 36.351 36.378 36.426 36.371 36.288 36.163 36.156 36.158 36.176 36.151 36.161 36.311 36.356 36.316 36.181 35.988 36.016 35.966 35.896 35.863 35.836 35.828 35.856 35.858 35.823 35.761 35.791 35.823 35.831 35.853 35.836 35.851 35.821 35.798 35.793 35.846 35.873 35.896 35.848 35.828 35.831 35.841 35.826 35.776 35.796 35.761 35.733 35.793 35.778 35.708 35.668 35.748 36.026 36.183 36.238 36.123 36.036 35.988 35.948 35.911 35.801 35.678 35.608 35.463 35.298 35.226 35.243 35.226 35.208 35.183 35.083 35.091 35.071 35.058 35.018 34.976 34.961 34.976 35.003 35.021 35.018 34.976 34.963 34.948 34.938 34.908 34.891 34.878 34.901 34.871 34.851 34.808 34.761 34.801 34.768 34.723 34.618 34.481 34.336 34.231 34.163 34.111 33.998 33.921 33.908 33.878 33.841 33.843
46.406 46.401 46.369 46.264 46.094 45.804 45.721 45.734 45.619 45.569 45.581 45.569 45.574 45.601 45.626 45.599 45.634 45.654 45.661 45.671 45.724 45.726 45.756 45.779 45.769 45.789 45.789 45.791 45.794 45.801 45.799 45.799 45.854 45.834 45.861 45.876 45.876 45.896 45.846 45.889 45.874 45.884 45.876 45.886 45.874 45.896 45.811 45.736 45.719 45.691 45.629 45.574 45.571 45.516 45.519 45.514 45.476 45.431 45.399 45.311 45.271 45.231 45.141 45.094 45.069 45.051 44.986 44.894 44.866 44.791 44.759 44.659 44.594 44.491 44.354 44.146 43.921 43.681 43.439 43.179 42.859 42.524 42.214 41.906 41.594 41.269 40.929 40.661 40.409 40.179 39.929 39.774 39.626 39.489 39.369 39.289 39.216 39.086 39.086 39.089 39.076 39.089 39.101 39.086 39.096 39.101 39.104 39.116 39.179 39.216 39.211 39.226 39.226 39.234 39.224 39.234 39.211 39.186 39.171 39.156 39.141 39.161 39.129 39.126 39.084 39.124 39.136 39.176 39.179 39.209 39.251 39.379 39.391 39.201 39.054 38.989 38.794 38.469 38.334 38.319 38.354 38.374 38.364 38.336 38.274 38.264 38.459 38.716 39.221 39.336 39.226 39.166 39.084 39.054 39.066 38.966 38.896 38.751 38.636 38.509 38.436 38.399 38.429 38.281 38.081 38.124 38.124 38.099 37.984 38.021 38.014 37.851 37.889 37.956 37.866 37.839 37.866 37.949 37.861 37.606 37.446 37.349 37.299 37.279 37.334 37.339 37.309 37.241 37.216 37.051 36.981 36.961 37.014 37.021 37.056 37.024 36.966 36.916 36.956 36.916 36.919 36.999 36.979 36.956 36.896 36.854 36.911 36.919 36.929 36.851 36.816 36.811 36.799 36.824 36.839 36.871 36.974 36.929 36.744 36.581 36.534 36.566 36.574 36.606 36.591 36.579 36.521 36.481 36.434 36.431 36.409 36.386 36.304 36.236 36.199 36.214 36.369 36.464 36.426 36.531 36.631 36.624 36.589 36.609 36.674 36.681 36.651 36.638 36.613 36.566 36.518 36.543 36.501 36.378 36.293 36.256 36.153 36.183 36.283 36.328 36.266 36.208 36.193 36.316 36.343 36.361 36.333 36.376 36.323 36.183 36.076 35.998 36.003 35.943 35.916 35.903 35.903 35.866 35.833 35.878 35.881 35.938 35.991 35.971 35.978 35.981 36.006 36.003 36.026 36.066 36.141 36.166 36.236 36.253 36.338 36.428 36.406 36.431 36.486 36.416 36.383 36.373 36.373 36.366 36.406 36.383 36.376 36.326 36.278 36.186 36.206 36.248 36.306 36.331 36.283 36.388 36.433 36.433 36.408 36.456 36.476 36.423 36.266 36.153 36.156 36.158 36.176 36.188 36.298 36.421 36.423 36.428 36.336 36.246 36.201 36.096 35.951 35.938 35.898 35.886 35.908 35.893 35.871 35.841 35.803 35.813 35.846 35.888 35.896 35.898 35.891 35.883 35.883 35.876 35.893 35.901 35.803 35.798 35.808 35.826 35.816 35.798 35.811 35.836 35.848 35.813 35.823 35.803 35.763 35.816 35.828 36.098 36.313 36.191 36.078 36.026 35.988 35.943 35.981 35.866 35.671 35.523 35.388 35.208 35.198 35.233 35.198 35.116 35.086 35.058 35.036 35.018 34.988 34.983 34.961 34.933 34.921 34.941 34.943 34.943 34.943 34.946 34.941 34.918 34.883 34.901 34.881 34.871 34.826 34.771 34.726 34.688 34.718 34.708 34.618 34.526 34.386 34.271 34.206 34.153 34.111 34.041 34.006 33.956 33.998 33.983
46.456 46.374 46.386 46.319 46.199 45.859 45.661 45.721 45.646 45.524 45.556 45.589 45.594 45.569 45.564 45.581 45.566 45.596 45.631 45.616 45.664 45.684 45.676 45.724 45.729 45.751 45.764 45.761 45.759 45.756 45.761 45.761 45.794 45.806 45.821 45.769 45.811 45.844 45.839 45.864 45.836 45.829 45.821 45.849 45.831 45.829 45.804 45.756 45.709 45.651 45.624 45.566 45.539 45.516 45.499 45.461 45.444 45.411 45.369 45.294 45.249 45.169 45.111 45.111 45.044 44.999 44.944 44.859 44.836 44.784 44.699 44.649 44.566 44.479 44.369 44.209 44.034 43.776 43.554 43.299 42.999 42.691 42.361 42.054 41.741 41.436 41.109 40.794 40.554 40.344 40.116 39.886 39.696 39.534 39.424 39.331 39.126 38.941 38.886 38.891 39.016 39.024 39.064 39.056 39.041 39.059 39.069 39.071 39.109 39.134 39.166 39.174 39.184 39.204 39.179 39.164 39.151 39.149 39.146 39.121 39.109 39.121 39.124 39.106 39.101 39.094 39.139 39.144 39.164 39.199 39.264 39.394 39.289 39.044 38.784 38.639 38.449 38.324 38.366 38.429 38.381 38.344 38.331 38.301 38.204 38.336 38.851 39.189 39.319 39.356 39.296 39.179 39.094 39.064 38.956 38.861 38.889 38.759 38.606 38.539 38.479 38.376 38.321 38.179 38.064 38.081 38.084 38.099 38.054 37.969 37.994 37.916 37.989 38.019 37.896 37.821 37.769 37.804 37.659 37.504 37.451 37.354 37.289 37.271 37.356 37.331 37.274 37.181 37.089 36.994 36.986 36.986 37.024 37.016 37.024 37.044 37.026 36.916 36.934 36.884 36.841 36.901 36.964 36.971 36.864 36.754 36.844 36.836 36.934 36.889 36.811 36.834 36.876 36.871 36.851 36.931 37.011 36.854 36.816 36.656 36.549 36.564 36.561 36.611 36.604 36.566 36.489 36.476 36.434 36.409 36.399 36.386 36.354 36.279 36.209 36.164 36.199 36.436 36.489 36.514 36.656 36.656 36.614 36.609 36.599 36.581 36.596 36.561 36.526 36.516 36.433 36.461 36.451 36.376 36.333 36.216 36.141 36.173 36.288 36.313 36.268 36.203 36.231 36.243 36.291 36.308 36.308 36.283 36.228 36.133 36.018 35.993 36.001 35.963 35.913 35.878 35.866 35.838 35.858 35.913 35.911 35.933 36.006 36.023 36.048 36.026 36.023 36.036 36.046 36.108 36.188 36.168 36.231 36.283 36.373 36.481 36.478 36.433 36.451 36.413 36.408 36.396 36.388 36.383 36.428 36.413 36.401 36.393 36.373 36.291 36.258 36.293 36.333 36.381 36.386 36.421 36.448 36.456 36.471 36.528 36.543 36.491 36.323 36.191 36.153 36.153 36.216 36.346 36.408 36.448 36.468 36.496 36.361 36.253 36.228 36.071 35.988 35.983 35.926 35.928 35.946 35.911 35.886 35.878 35.851 35.861 35.911 35.918 35.938 35.978 35.966 35.951 35.911 35.916 35.928 35.818 35.738 35.796 35.821 35.823 35.803 35.798 35.818 35.828 35.868 35.831 35.816 35.833 35.781 35.801 35.793 35.926 36.171 36.283 36.188 36.093 36.003 35.943 36.033 36.016 35.781 35.581 35.468 35.258 35.108 35.113 35.106 35.048 35.033 35.013 35.026 35.031 35.006 35.018 34.963 34.926 34.861 34.848 34.936 34.968 34.911 34.936 34.918 34.931 34.913 34.888 34.871 34.833 34.818 34.786 34.728 34.666 34.648 34.663 34.623 34.543 34.451 34.353 34.261 34.183 34.128 34.146 34.081 34.046 34.061 34.068
46.474 46.399 46.376 46.306 46.254 45.984 45.681 45.649 45.641 45.574 45.514 45.534 45.519 45.501 45.506 45.541 45.536 45.546 45.586 45.584 45.629 45.616 45.636 45.686 45.676 45.706 45.724 45.704 45.721 45.721 45.714 45.719 45.719 45.734 45.764 45.761 45.769 45.766 45.796 45.796 45.784 45.801 45.819 45.804 45.781 45.776 45.774 45.716 45.666 45.614 45.596 45.561 45.531 45.501 45.476 45.436 45.411 45.401 45.336 45.286 45.209 45.151 45.121 45.074 45.016 44.946 44.926 44.846 44.784 44.719 44.674 44.631 44.569 44.489 44.374 44.224 44.059 43.839 43.651 43.396 43.144 42.861 42.556 42.231 41.891 41.611 41.326 40.996 40.719 40.461 40.264 39.996 39.761 39.616 39.481 39.329 39.094 38.756 38.691 38.694 38.899 38.961 39.021 39.034 39.024 39.041 39.031 39.024 39.061 39.071 39.091 39.099 39.104 39.134 39.079 39.081 39.081 39.074 39.076 39.086 39.074 39.069 39.054 39.101 39.084 39.066 39.074 39.111 39.126 39.179 39.119 39.129 39.094 38.929 38.549 38.309 38.334 38.376 38.356 38.449 38.364 38.331 38.311 38.301 38.449 38.791 39.356 39.526 39.434 39.346 39.266 39.151 39.031 39.001 38.884 38.861 38.824 38.749 38.644 38.581 38.444 38.334 38.336 38.304 38.171 38.054 37.989 38.024 37.991 38.031 38.086 38.046 38.044 37.986 37.896 37.841 37.799 37.724 37.569 37.491 37.414 37.334 37.341 37.376 37.344 37.309 37.241 37.154 37.019 36.991 37.014 37.044 37.051 37.034 36.999 36.986 36.991 36.964 36.866 36.866 36.846 36.846 36.936 36.959 36.901 36.834 36.839 36.826 36.921 36.851 36.829 36.859 36.836 36.866 36.876 36.894 36.741 36.769 36.816 36.751 36.644 36.559 36.536 36.571 36.584 36.541 36.501 36.444 36.391 36.406 36.376 36.351 36.331 36.304 36.224 36.159 36.149 36.281 36.484 36.529 36.624 36.644 36.634 36.534 36.489 36.469 36.508 36.508 36.463 36.466 36.423 36.461 36.446 36.451 36.436 36.273 36.143 36.233 36.351 36.383 36.308 36.253 36.241 36.233 36.231 36.226 36.188 36.148 36.098 36.076 36.018 35.956 35.976 35.933 35.953 35.901 35.863 35.851 35.891 35.933 35.946 35.948 36.013 36.048 36.071 36.063 36.081 36.076 36.073 36.111 36.206 36.223 36.248 36.311 36.398 36.493 36.503 36.456 36.448 36.451 36.431 36.418 36.413 36.431 36.481 36.428 36.393 36.378 36.383 36.391 36.368 36.348 36.321 36.411 36.431 36.473 36.483 36.531 36.563 36.601 36.556 36.451 36.316 36.263 36.198 36.251 36.383 36.448 36.466 36.488 36.473 36.511 36.391 36.266 36.226 36.316 36.121 36.058 35.988 35.956 36.011 36.001 35.966 35.953 35.978 35.956 35.928 35.926 35.968 36.016 35.983 35.971 35.923 35.928 35.931 35.831 35.766 35.831 35.833 35.823 35.803 35.791 35.818 35.868 35.848 35.818 35.801 35.863 35.841 35.761 35.808 35.828 36.061 36.156 36.216 36.123 36.041 35.956 35.956 36.026 35.956 35.666 35.508 35.351 35.213 35.173 35.056 35.061 35.048 35.028 35.013 35.013 35.006 34.993 34.973 34.933 34.881 34.888 34.966 34.993 34.976 34.931 34.918 34.913 34.921 34.903 34.871 34.806 34.801 34.761 34.738 34.646 34.558 34.568 34.566 34.571 34.516 34.443 34.361 34.271 34.173 34.158 34.118 34.106 34.051 34.018
46.381 46.404 46.379 46.329 46.276 46.214 45.816 45.661 45.679 45.614 45.504 45.499 45.516 45.506 45.486 45.486 45.496 45.491 45.539 45.564 45.576 45.581 45.584 45.616 45.674 45.661 45.679 45.679 45.684 45.679 45.671 45.686 45.674 45.696 45.701 45.709 45.734 45.744 45.754 45.756 45.746 45.749 45.784 45.754 45.719 45.679 45.684 45.661 45.629 45.611 45.589 45.541 45.494 45.456 45.426 45.391 45.361 45.351 45.314 45.294 45.216 45.169 45.114 45.041 45.016 44.961 44.904 44.806 44.774 44.721 44.661 44.616 44.556 44.456 44.394 44.246 44.101 43.909 43.729 43.501 43.251 42.996 42.716 42.394 42.109 41.829 41.526 41.224 40.904 40.616 40.389 40.116 39.896 39.681 39.531 39.344 39.051 38.691 38.541 38.586 38.716 38.836 38.944 38.989 38.999 39.006 39.004 39.009 39.014 39.046 39.051 39.024 39.031 39.046 39.059 39.081 39.051 39.031 39.069 39.071 39.049 39.019 39.044 39.051 39.051 39.064 39.046 39.031 39.076 39.139 38.991 38.864 38.791 38.514 38.376 38.356 38.431 38.426 38.439 38.366 38.341 38.326 38.366 38.521 38.949 39.264 39.591 39.561 39.399 39.359 39.229 39.169 39.079 38.959 38.879 38.839 38.774 38.719 38.726 38.621 38.479 38.344 38.306 38.354 38.286 38.171 38.026 37.956 38.024 38.096 38.126 38.066 37.946 37.936 37.976 37.909 37.739 37.669 37.519 37.471 37.411 37.351 37.414 37.374 37.319 37.271 37.189 37.081 36.999 37.009 37.056 37.039 37.049 37.061 37.006 37.004 36.994 36.996 36.844 36.824 36.879 36.849 36.841 36.831 36.906 36.889 36.874 36.904 36.876 36.859 36.879 36.899 36.869 36.866 36.894 36.814 36.684 36.669 36.656 36.814 36.856 36.644 36.511 36.529 36.529 36.514 36.509 36.449 36.406 36.359 36.366 36.329 36.291 36.281 36.226 36.149 36.129 36.131 36.249 36.356 36.469 36.499 36.484 36.401 36.414 36.394 36.371 36.413 36.413 36.448 36.413 36.426 36.413 36.343 36.366 36.303 36.191 36.158 36.273 36.313 36.296 36.256 36.233 36.223 36.193 36.176 36.113 36.076 36.068 36.048 36.003 35.951 35.928 35.928 35.916 35.851 35.846 35.891 35.931 35.936 35.961 35.923 35.958 36.043 36.026 36.061 36.121 36.131 36.118 36.166 36.236 36.218 36.263 36.361 36.441 36.491 36.503 36.506 36.461 36.448 36.436 36.436 36.431 36.423 36.428 36.433 36.421 36.418 36.453 36.456 36.478 36.403 36.288 36.351 36.393 36.491 36.578 36.648 36.646 36.648 36.516 36.366 36.311 36.316 36.318 36.373 36.466 36.496 36.488 36.476 36.443 36.446 36.426 36.321 36.378 36.371 36.201 36.136 36.073 36.048 36.078 36.058 36.016 35.988 35.968 35.958 35.951 35.918 35.931 35.958 35.946 35.886 35.896 35.936 35.923 35.918 35.863 35.856 35.858 35.821 35.793 35.818 35.833 35.863 35.846 35.833 35.781 35.851 35.848 35.811 35.798 35.838 35.946 36.198 36.363 36.171 36.133 36.028 35.936 35.981 36.036 35.898 35.578 35.426 35.296 35.258 35.093 35.088 35.068 35.048 35.026 35.011 35.023 35.021 35.001 34.986 34.916 34.946 35.003 34.966 34.986 34.988 34.928 34.918 34.878 34.911 34.846 34.811 34.811 34.761 34.708 34.656 34.613 34.536 34.528 34.518 34.536 34.513 34.436 34.361 34.291 34.198 34.128 34.108 34.061 34.013
46.436 46.449 46.441 46.394 46.281 46.264 46.104 45.691 45.626 45.686 45.516 45.464 45.464 45.471 45.449 45.424 45.421 45.451 45.459 45.494 45.514 45.519 45.551 45.586 45.634 45.624 45.629 45.634 45.616 45.644 45.666 45.646 45.636 45.659 45.694 45.696 45.691 45.721 45.699 45.719 45.721 45.724 45.724 45.724 45.686 45.661 45.654 45.629 45.614 45.596 45.551 45.544 45.501 45.469 45.409 45.389 45.324 45.309 45.271 45.261 45.244 45.176 45.109 45.036 45.026 44.936 44.876 44.806 44.746 44.681 44.629 44.549 44.524 44.426 44.369 44.256 44.154 43.969 43.789 43.616 43.401 43.129 42.866 42.564 42.316 42.074 41.821 41.514 41.151 40.829 40.596 40.314 40.059 39.774 39.594 39.444 39.071 38.656 38.431 38.474 38.584 38.701 38.874 38.944 38.994 38.959 38.941 38.954 38.954 38.959 38.969 38.959 38.991 38.974 39.004 39.001 38.989 38.979 39.019 39.016 39.001 38.996 39.009 39.036 39.026 39.066 39.034 39.026 39.051 38.991 38.841 38.656 38.436 38.354 38.406 38.439 38.444 38.434 38.424 38.369 38.341 38.319 38.474 39.136 39.496 39.551 39.551 39.339 39.291 39.321 39.296 39.086 39.036 38.934 38.906 38.816 38.736 38.714 38.651 38.596 38.446 38.309 38.326 38.306 38.256 38.214 38.144 38.044 38.096 38.144 38.071 37.966 37.954 37.946 37.974 37.841 37.674 37.594 37.504 37.444 37.369 37.376 37.431 37.364 37.319 37.274 37.181 37.014 36.969 36.984 37.009 37.031 37.041 37.049 36.991 37.024 37.019 36.929 36.856 36.829 36.759 36.851 36.854 36.839 36.876 36.906 36.894 36.886 36.886 36.901 36.914 36.926 36.911 36.879 36.904 36.856 36.724 36.654 36.586 36.666 36.686 36.619 36.534 36.464 36.466 36.521 36.511 36.431 36.366 36.356 36.346 36.316 36.274 36.261 36.266 36.206 36.131 36.111 36.109 36.251 36.329 36.356 36.369 36.344 36.336 36.324 36.293 36.348 36.368 36.376 36.438 36.411 36.301 36.293 36.286 36.246 36.236 36.191 36.153 36.193 36.266 36.261 36.256 36.216 36.131 36.113 36.078 36.066 36.066 36.033 35.996 35.961 35.911 35.908 35.888 35.858 35.846 35.888 35.898 35.906 35.933 35.881 35.926 36.031 36.036 36.063 36.096 36.131 36.123 36.138 36.248 36.228 36.276 36.381 36.446 36.473 36.543 36.568 36.516 36.458 36.411 36.441 36.458 36.503 36.486 36.451 36.466 36.483 36.491 36.468 36.458 36.413 36.383 36.413 36.431 36.518 36.576 36.656 36.648 36.646 36.493 36.366 36.323 36.358 36.363 36.413 36.468 36.486 36.488 36.493 36.458 36.426 36.433 36.361 36.411 36.418 36.278 36.201 36.111 36.143 36.148 36.076 36.023 35.981 35.968 35.948 35.931 35.913 35.913 35.933 35.881 35.866 35.876 35.918 35.923 35.903 35.816 35.816 35.831 35.823 35.808 35.813 35.793 35.866 35.863 35.848 35.803 35.823 35.848 35.828 35.798 35.843 35.966 36.241 36.473 36.323 36.156 36.078 35.976 35.936 36.018 35.993 35.741 35.518 35.381 35.226 35.058 35.071 35.051 35.031 35.023 35.016 35.051 35.043 34.996 34.996 35.006 34.988 34.911 34.911 34.951 35.041 34.998 34.923 34.903 34.891 34.856 34.818 34.786 34.748 34.716 34.673 34.628 34.561 34.488 34.498 34.498 34.511 34.496 34.408 34.343 34.276 34.188 34.131 34.071 34.071
46.419 46.466 46.461 46.409 46.301 46.279 46.231 45.844 45.616 45.649 45.594 45.426 45.401 45.431 45.409 45.396 45.384 45.456 45.456 45.456 45.466 45.471 45.506 45.519 45.566 45.554 45.581 45.601 45.614 45.614 45.611 45.619 45.599 45.611 45.644 45.679 45.654 45.666 45.651 45.694 45.676 45.671 45.686 45.644 45.646 45.626 45.611 45.574 45.579 45.574 45.516 45.501 45.454 45.439 45.369 45.364 45.339 45.299 45.249 45.256 45.206 45.176 45.114 45.039 45.026 44.926 44.866 44.764 44.699 44.674 44.621 44.554 44.476 44.434 44.371 44.299 44.186 44.034 43.876 43.739 43.521 43.259 43.019 42.741 42.396 42.166 42.014 41.711 41.374 41.024 40.811 40.511 40.204 39.961 39.739 39.529 39.169 38.709 38.454 38.369 38.466 38.631 38.811 38.924 38.941 38.931 38.879 38.934 38.934 38.916 38.931 38.896 38.921 38.934 38.921 38.901 38.951 38.986 38.946 38.956 39.014 39.004 38.989 38.991 39.041 39.029 39.019 39.004 38.929 38.831 38.644 38.436 38.384 38.451 38.474 38.504 38.466 38.399 38.396 38.356 38.351 38.499 38.786 39.296 39.569 39.551 39.481 39.304 39.314 39.336 39.244 39.076 39.039 38.916 38.871 38.819 38.769 38.699 38.596 38.521 38.366 38.409 38.414 38.289 38.249 38.206 38.251 38.171 38.094 38.059 38.014 37.969 37.976 37.979 37.846 37.721 37.554 37.524 37.516 37.429 37.414 37.459 37.384 37.369 37.304 37.224 37.181 37.061 36.971 36.924 36.946 36.969 36.991 37.019 37.011 37.031 36.981 36.914 36.906 36.874 36.759 36.796 36.836 36.766 36.884 36.916 36.876 36.879 36.899 36.911 36.929 36.914 36.906 36.929 36.894 36.864 36.774 36.719 36.684 36.671 36.616 36.564 36.504 36.489 36.474 36.519 36.501 36.471 36.391 36.389 36.359 36.306 36.306 36.286 36.256 36.224 36.161 36.101 36.089 36.169 36.211 36.259 36.301 36.274 36.246 36.271 36.293 36.311 36.343 36.373 36.403 36.388 36.271 36.228 36.251 36.238 36.266 36.266 36.128 36.223 36.308 36.278 36.238 36.223 36.116 36.093 36.061 36.043 36.031 36.021 36.011 35.978 35.933 35.923 35.908 35.881 35.841 35.868 35.866 35.861 35.888 35.873 35.918 36.018 36.071 36.101 36.133 36.131 36.106 36.171 36.211 36.238 36.298 36.383 36.441 36.471 36.576 36.608 36.558 36.511 36.448 36.446 36.546 36.533 36.488 36.438 36.441 36.488 36.491 36.486 36.466 36.493 36.486 36.476 36.491 36.528 36.556 36.606 36.678 36.576 36.498 36.368 36.333 36.381 36.408 36.436 36.481 36.496 36.476 36.483 36.473 36.446 36.431 36.421 36.408 36.421 36.391 36.276 36.226 36.181 36.158 36.143 36.061 36.011 35.996 35.953 35.933 35.923 35.923 35.933 35.918 35.868 35.873 35.893 35.896 35.866 35.816 35.813 35.816 35.806 35.818 35.823 35.853 35.863 35.883 35.828 35.811 35.833 35.841 35.833 35.803 35.838 35.888 36.136 36.466 36.481 36.218 36.118 36.106 35.988 35.921 36.018 35.901 35.648 35.448 35.283 35.091 35.098 35.061 35.041 35.031 35.028 35.048 35.088 35.073 35.038 35.013 34.978 34.908 34.923 34.901 35.016 35.016 34.966 34.928 34.873 34.833 34.848 34.803 34.766 34.738 34.678 34.653 34.591 34.508 34.471 34.488 34.531 34.531 34.483 34.408 34.353 34.256 34.163 34.126 34.113
46.316 46.489 46.474 46.421 46.354 46.269 46.199 45.959 45.541 45.566 45.641 45.501 45.371 45.389 45.384 45.376 45.356 45.396 45.409 45.426 45.446 45.446 45.471 45.504 45.506 45.504 45.549 45.534 45.554 45.564 45.556 45.566 45.596 45.584 45.604 45.609 45.621 45.621 45.626 45.621 45.649 45.646 45.636 45.606 45.609 45.604 45.599 45.559 45.534 45.529 45.489 45.456 45.441 45.411 45.374 45.359 45.339 45.281 45.239 45.261 45.221 45.154 45.116 45.064 44.969 44.936 44.874 44.804 44.689 44.666 44.624 44.564 44.491 44.416 44.364 44.289 44.201 44.096 43.974 43.814 43.614 43.396 43.174 42.896 42.641 42.349 42.099 41.864 41.556 41.221 40.974 40.696 40.384 40.119 39.914 39.671 39.439 38.829 38.416 38.324 38.421 38.599 38.754 38.849 38.864 38.851 38.834 38.871 38.899 38.879 38.879 38.869 38.894 38.889 38.846 38.891 38.881 38.916 38.926 38.939 38.934 38.949 38.949 38.999 39.009 39.066 39.021 38.854 38.759 38.699 38.474 38.391 38.436 38.489 38.494 38.471 38.364 38.369 38.371 38.416 38.519 38.839 39.134 39.449 39.524 39.516 39.474 39.441 39.359 39.264 39.164 39.074 38.996 38.949 38.861 38.776 38.731 38.686 38.551 38.394 38.359 38.396 38.381 38.336 38.241 38.206 38.216 38.196 38.101 37.991 38.016 38.016 38.004 37.989 37.741 37.641 37.539 37.514 37.431 37.414 37.476 37.426 37.379 37.266 37.174 37.144 37.139 37.029 36.979 36.884 36.904 36.941 36.979 37.016 37.006 37.001 36.981 36.931 36.896 36.889 36.844 36.786 36.819 36.781 36.776 36.811 36.811 36.831 36.861 36.926 36.914 36.884 36.911 36.939 36.916 36.886 36.839 36.796 36.764 36.704 36.644 36.589 36.531 36.469 36.439 36.476 36.471 36.491 36.444 36.406 36.369 36.309 36.311 36.314 36.254 36.251 36.186 36.134 36.109 36.124 36.211 36.261 36.234 36.246 36.246 36.269 36.268 36.318 36.388 36.408 36.381 36.246 36.191 36.193 36.226 36.256 36.261 36.238 36.163 36.208 36.288 36.236 36.196 36.161 36.133 36.111 36.071 36.026 36.001 35.998 35.986 35.938 35.961 35.928 35.883 35.856 35.846 35.871 35.883 35.878 35.901 35.906 35.933 36.006 36.073 36.136 36.181 36.203 36.218 36.236 36.273 36.281 36.341 36.413 36.458 36.478 36.568 36.623 36.563 36.526 36.488 36.498 36.606 36.566 36.518 36.461 36.433 36.448 36.468 36.498 36.488 36.551 36.546 36.471 36.493 36.536 36.526 36.608 36.636 36.586 36.548 36.473 36.436 36.418 36.426 36.458 36.468 36.466 36.476 36.493 36.481 36.456 36.421 36.401 36.423 36.453 36.468 36.346 36.276 36.176 36.121 36.098 36.051 36.026 35.983 35.956 35.936 35.921 35.901 35.963 35.961 35.911 35.876 35.883 35.848 35.903 35.851 35.838 35.833 35.828 35.831 35.823 35.873 35.873 35.898 35.853 35.811 35.823 35.828 35.838 35.833 35.856 35.826 35.943 36.253 36.468 36.406 36.188 36.128 36.036 35.941 35.931 35.986 35.743 35.488 35.366 35.183 35.093 35.081 35.058 35.041 35.041 35.076 35.133 35.121 35.061 34.988 34.946 34.886 34.918 34.901 34.876 35.016 35.013 34.938 34.873 34.871 34.856 34.821 34.798 34.728 34.701 34.661 34.603 34.536 34.503 34.476 34.493 34.521 34.518 34.488 34.403 34.321 34.228 34.183 34.146
46.121 46.361 46.416 46.429 46.341 46.304 46.256 46.101 45.689 45.519 45.584 45.559 45.359 45.341 45.329 45.311 45.326 45.339 45.371 45.371 45.386 45.396 45.401 45.431 45.456 45.459 45.474 45.461 45.504 45.521 45.531 45.524 45.531 45.559 45.546 45.566 45.591 45.584 45.556 45.599 45.574 45.584 45.581 45.581 45.559 45.561 45.564 45.554 45.501 45.509 45.489 45.459 45.451 45.414 45.376 45.361 45.329 45.309 45.259 45.234 45.231 45.164 45.136 45.099 44.999 44.934 44.854 44.749 44.711 44.661 44.621 44.564 44.486 44.399 44.346 44.296 44.221 44.114 44.004 43.869 43.696 43.464 43.284 43.069 42.801 42.544 42.254 42.004 41.771 41.441 41.201 40.811 40.461 40.214 40.009 39.781 39.599 38.936 38.499 38.396 38.456 38.521 38.611 38.656 38.729 38.771 38.801 38.854 38.864 38.854 38.836 38.841 38.841 38.819 38.814 38.856 38.856 38.869 38.881 38.899 38.891 38.909 38.979 39.004 39.016 39.059 38.909 38.651 38.511 38.469 38.461 38.541 38.536 38.536 38.486 38.416 38.391 38.456 38.554 38.586 38.824 39.141 39.456 39.496 39.374 39.366 39.381 39.404 39.346 39.229 39.131 39.044 38.976 38.941 38.846 38.729 38.624 38.589 38.509 38.366 38.306 38.311 38.329 38.299 38.261 38.199 38.271 38.231 38.099 38.024 38.026 38.009 37.929 37.804 37.661 37.586 37.476 37.451 37.446 37.509 37.464 37.396 37.319 37.174 37.164 37.149 37.116 37.026 37.006 36.934 36.909 36.949 36.986 37.016 37.014 36.976 36.961 36.954 36.929 36.916 36.871 36.819 36.749 36.781 36.731 36.716 36.814 36.846 36.851 36.866 36.881 36.904 36.929 36.909 36.884 36.851 36.794 36.769 36.799 36.736 36.664 36.609 36.581 36.496 36.411 36.424 36.479 36.501 36.439 36.399 36.346 36.349 36.294 36.251 36.249 36.259 36.234 36.174 36.124 36.106 36.184 36.246 36.256 36.239 36.284 36.356 36.403 36.396 36.483 36.428 36.301 36.191 36.186 36.128 36.176 36.211 36.223 36.211 36.208 36.266 36.208 36.168 36.201 36.171 36.098 36.091 36.066 35.991 35.966 35.953 35.951 35.931 35.953 35.933 35.916 35.863 35.848 35.883 35.923 35.938 35.951 35.923 35.961 36.028 36.083 36.131 36.201 36.236 36.271 36.273 36.298 36.318 36.386 36.468 36.546 36.606 36.686 36.716 36.636 36.581 36.536 36.486 36.568 36.571 36.536 36.478 36.443 36.441 36.463 36.468 36.483 36.508 36.523 36.531 36.476 36.511 36.521 36.541 36.616 36.653 36.643 36.593 36.521 36.511 36.498 36.486 36.503 36.483 36.498 36.511 36.478 36.446 36.433 36.436 36.441 36.476 36.516 36.441 36.313 36.103 36.113 36.138 36.076 36.041 36.023 35.948 35.901 35.931 35.951 35.971 35.968 35.958 35.918 35.898 35.891 35.953 35.911 35.908 35.873 35.888 35.836 35.838 35.868 35.861 35.898 35.901 35.878 35.838 35.851 35.846 35.798 35.823 35.803 35.883 36.106 36.511 36.588 36.301 36.136 36.061 36.016 35.896 35.931 35.913 35.673 35.493 35.318 35.183 35.086 35.071 35.068 35.118 35.141 35.101 35.058 35.056 34.971 34.908 34.911 34.916 34.928 34.908 34.963 34.993 34.981 34.928 34.863 34.836 34.811 34.773 34.741 34.716 34.673 34.636 34.591 34.546 34.533 34.498 34.481 34.498 34.496 34.433 34.391 34.318 34.271 34.208
46.109 46.266 46.459 46.461 46.399 46.309 46.284 46.229 45.916 45.526 45.529 45.534 45.356 45.286 45.286 45.276 45.271 45.274 45.341 45.356 45.369 45.359 45.369 45.356 45.389 45.414 45.426 45.424 45.454 45.476 45.491 45.479 45.491 45.509 45.534 45.524 45.534 45.509 45.504 45.554 45.521 45.506 45.524 45.541 45.541 45.524 45.529 45.501 45.471 45.471 45.456 45.454 45.454 45.426 45.371 45.359 45.326 45.314 45.276 45.231 45.226 45.199 45.104 45.079 45.014 44.929 44.864 44.791 44.724 44.676 44.601 44.524 44.469 44.419 44.336 44.291 44.231 44.116 44.039 43.939 43.794 43.606 43.401 43.199 42.974 42.719 42.451 42.199 41.939 41.564 41.291 40.969 40.649 40.384 40.101 39.899 39.691 38.999 38.531 38.399 38.486 38.541 38.509 38.551 38.574 38.666 38.684 38.776 38.799 38.794 38.771 38.811 38.796 38.769 38.814 38.839 38.826 38.854 38.856 38.861 38.879 38.894 38.911 39.036 39.149 39.109 38.814 38.491 38.411 38.451 38.604 38.534 38.526 38.529 38.441 38.426 38.409 38.416 38.691 38.899 39.136 39.404 39.499 39.479 39.401 39.354 39.381 39.361 39.284 39.224 39.136 38.999 38.929 38.921 38.901 38.799 38.541 38.481 38.391 38.301 38.281 38.269 38.259 38.246 38.199 38.196 38.261 38.226 38.124 38.069 38.006 37.971 37.911 37.754 37.626 37.544 37.534 37.481 37.514 37.539 37.439 37.369 37.194 37.094 37.086 37.044 37.004 36.954 36.979 37.006 36.961 36.976 36.999 37.009 36.966 36.931 36.991 36.956 36.926 36.981 36.946 36.896 36.771 36.726 36.679 36.681 36.759 36.831 36.834 36.851 36.874 36.919 36.899 36.844 36.819 36.786 36.734 36.709 36.739 36.674 36.581 36.594 36.609 36.496 36.444 36.414 36.444 36.456 36.456 36.436 36.334 36.304 36.294 36.281 36.299 36.281 36.256 36.219 36.164 36.156 36.151 36.219 36.224 36.214 36.244 36.409 36.536 36.483 36.438 36.318 36.206 36.208 36.156 36.156 36.146 36.173 36.221 36.206 36.251 36.291 36.226 36.151 36.186 36.153 36.076 36.058 36.043 35.988 35.981 35.988 36.001 35.986 35.968 35.926 35.921 35.906 35.881 35.888 35.921 35.948 35.993 35.976 35.986 36.043 36.081 36.131 36.158 36.208 36.263 36.258 36.283 36.306 36.378 36.476 36.568 36.686 36.758 36.771 36.723 36.628 36.593 36.536 36.466 36.463 36.478 36.493 36.526 36.508 36.483 36.451 36.438 36.463 36.481 36.551 36.576 36.506 36.526 36.543 36.618 36.681 36.723 36.673 36.566 36.541 36.523 36.553 36.543 36.488 36.503 36.528 36.528 36.456 36.411 36.433 36.463 36.503 36.543 36.493 36.413 36.236 36.176 36.171 36.093 36.053 36.018 35.973 35.901 35.926 35.931 35.933 35.936 35.956 35.948 35.948 35.978 35.991 35.976 35.933 35.928 35.908 35.848 35.856 35.876 35.823 35.828 35.863 35.861 35.813 35.836 35.791 35.776 35.786 35.808 35.853 35.966 36.213 36.508 36.421 36.278 36.103 36.048 35.956 35.916 35.946 35.866 35.616 35.453 35.298 35.116 35.156 35.151 35.158 35.126 35.031 35.098 35.193 35.091 34.923 34.906 34.921 34.983 35.046 34.991 34.986 34.966 34.933 34.888 34.838 34.786 34.773 34.761 34.738 34.708 34.661 34.616 34.596 34.581 34.541 34.488 34.481 34.486 34.463 34.468 34.431 34.373 34.298
46.171 46.159 46.389 46.461 46.401 46.324 46.289 46.249 46.086 45.661 45.451 45.514 45.404 45.274 45.276 45.274 45.259 45.254 45.276 45.281 45.294 45.319 45.329 45.314 45.354 45.354 45.386 45.391 45.426 45.461 45.466 45.459 45.466 45.459 45.476 45.471 45.476 45.481 45.469 45.484 45.479 45.471 45.489 45.481 45.489 45.479 45.481 45.469 45.456 45.449 45.441 45.434 45.454 45.434 45.394 45.366 45.349 45.314 45.286 45.256 45.239 45.164 45.124 45.106 45.031 44.949 44.859 44.816 44.744 44.674 44.601 44.556 44.481 44.439 44.371 44.296 44.261 44.139 44.059 43.946 43.849 43.699 43.526 43.316 43.101 42.891 42.646 42.384 42.096 41.744 41.459 41.196 40.884 40.584 40.281 40.036 39.791 38.996 38.634 38.376 38.444 38.544 38.526 38.531 38.581 38.661 38.744 38.794 38.774 38.774 38.756 38.771 38.789 38.786 38.781 38.806 38.831 38.821 38.824 38.821 38.814 38.844 38.864 38.816 38.869 38.671 38.496 38.429 38.419 38.479 38.536 38.531 38.501 38.449 38.366 38.419 38.431 38.596 38.931 39.224 39.399 39.491 39.451 39.406 39.399 39.369 39.376 39.329 39.294 39.231 39.219 39.094 38.899 38.869 38.796 38.746 38.599 38.456 38.334 38.259 38.249 38.261 38.244 38.199 38.209 38.226 38.151 38.136 38.066 38.056 38.024 37.911 37.781 37.646 37.611 37.536 37.519 37.476 37.541 37.481 37.406 37.326 37.146 37.074 37.031 37.064 37.056 37.071 37.009 37.016 37.056 36.951 37.006 37.039 37.086 37.054 36.999 36.959 36.969 37.029 37.016 36.949 36.844 36.719 36.671 36.704 36.681 36.739 36.801 36.864 36.869 36.879 36.834 36.779 36.749 36.719 36.669 36.746 36.711 36.616 36.619 36.639 36.556 36.549 36.531 36.444 36.406 36.401 36.431 36.394 36.336 36.306 36.276 36.289 36.381 36.354 36.249 36.246 36.236 36.211 36.219 36.229 36.209 36.219 36.231 36.291 36.421 36.351 36.206 36.171 36.153 36.183 36.203 36.198 36.171 36.121 36.141 36.188 36.211 36.228 36.188 36.098 36.091 36.063 36.043 36.038 36.033 36.036 36.041 36.033 36.033 35.993 35.971 35.986 35.943 35.936 35.908 35.918 35.928 35.948 36.001 36.023 36.003 36.008 36.068 36.101 36.121 36.138 36.208 36.226 36.263 36.351 36.343 36.471 36.598 36.736 36.788 36.723 36.716 36.643 36.611 36.533 36.488 36.451 36.481 36.596 36.591 36.503 36.471 36.463 36.438 36.478 36.508 36.513 36.561 36.543 36.518 36.576 36.633 36.588 36.651 36.691 36.598 36.558 36.576 36.576 36.563 36.493 36.518 36.548 36.548 36.478 36.431 36.453 36.476 36.516 36.546 36.528 36.511 36.356 36.268 36.168 36.081 36.058 36.041 35.978 35.926 35.978 35.971 35.981 35.916 35.933 35.971 36.016 36.036 36.048 36.016 35.973 35.953 35.911 35.848 35.853 35.853 35.801 35.776 35.796 35.811 35.768 35.788 35.771 35.753 35.786 35.798 35.846 35.911 36.078 36.226 36.358 36.311 36.198 36.108 36.048 35.963 35.868 35.951 35.803 35.546 35.433 35.301 35.251 35.151 35.148 35.091 35.133 35.166 35.196 35.163 35.033 34.916 34.948 35.008 34.988 34.938 34.911 34.918 34.931 34.906 34.873 34.803 34.771 34.743 34.751 34.701 34.703 34.648 34.593 34.581 34.558 34.543 34.461 34.433 34.493 34.548 34.513 34.466 34.423
46.189 46.124 46.271 46.434 46.391 46.311 46.276 46.231 46.226 45.914 45.491 45.461 45.449 45.331 45.259 45.241 45.216 45.214 45.231 45.254 45.249 45.249 45.301 45.286 45.301 45.329 45.341 45.356 45.366 45.414 45.409 45.426 45.399 45.426 45.424 45.426 45.436 45.449 45.439 45.454 45.424 45.449 45.441 45.439 45.459 45.444 45.444 45.436 45.421 45.406 45.381 45.394 45.449 45.446 45.434 45.419 45.384 45.344 45.306 45.271 45.229 45.151 45.119 45.096 45.016 44.951 44.891 44.821 44.744 44.679 44.619 44.576 44.521 44.451 44.389 44.319 44.259 44.184 44.101 43.984 43.874 43.756 43.621 43.399 43.216 43.026 42.786 42.506 42.234 41.949 41.656 41.374 41.059 40.764 40.486 40.231 39.841 39.206 38.691 38.416 38.471 38.521 38.559 38.574 38.551 38.684 38.819 38.809 38.766 38.731 38.736 38.784 38.769 38.731 38.736 38.766 38.804 38.794 38.809 38.864 38.834 38.796 38.774 38.719 38.511 38.419 38.451 38.484 38.521 38.541 38.511 38.499 38.449 38.471 38.426 38.416 38.839 39.186 39.286 39.489 39.484 39.444 39.379 39.366 39.351 39.344 39.349 39.289 39.211 39.156 39.134 39.101 38.959 38.901 38.756 38.719 38.579 38.446 38.351 38.279 38.241 38.236 38.241 38.226 38.214 38.196 38.144 38.099 38.036 38.046 38.016 37.884 37.711 37.624 37.544 37.526 37.521 37.589 37.546 37.444 37.311 37.224 37.186 37.104 37.024 37.039 37.114 37.139 37.071 37.051 37.141 37.104 37.009 37.086 37.141 37.109 37.069 37.004 36.974 36.969 37.039 36.994 36.866 36.759 36.711 36.711 36.689 36.631 36.701 36.794 36.834 36.839 36.806 36.719 36.701 36.679 36.754 36.806 36.756 36.669 36.656 36.631 36.611 36.599 36.551 36.531 36.409 36.371 36.386 36.379 36.369 36.331 36.321 36.329 36.444 36.421 36.266 36.246 36.216 36.214 36.271 36.274 36.191 36.189 36.234 36.289 36.223 36.136 36.071 36.118 36.158 36.176 36.198 36.181 36.161 36.153 36.113 36.148 36.176 36.126 36.048 36.121 36.103 36.068 36.061 35.978 36.013 36.056 36.056 36.061 36.043 36.013 36.016 36.031 35.971 35.941 35.933 35.926 35.921 35.966 36.008 36.008 36.011 35.968 36.026 36.086 36.133 36.178 36.206 36.246 36.288 36.376 36.436 36.533 36.638 36.756 36.796 36.761 36.688 36.633 36.586 36.566 36.523 36.501 36.513 36.508 36.478 36.458 36.468 36.463 36.468 36.476 36.486 36.476 36.523 36.526 36.553 36.621 36.586 36.633 36.651 36.671 36.711 36.696 36.693 36.653 36.528 36.501 36.536 36.548 36.491 36.461 36.478 36.486 36.486 36.528 36.576 36.576 36.513 36.393 36.321 36.211 36.093 36.068 36.053 35.991 36.003 35.971 35.963 36.001 35.978 35.991 36.023 36.061 36.071 36.071 36.066 36.023 36.021 35.966 35.896 35.891 35.833 35.788 35.763 35.756 35.778 35.768 35.783 35.748 35.773 35.806 35.798 35.798 35.898 36.028 36.143 36.271 36.341 36.366 36.173 36.096 35.991 35.941 35.863 35.886 35.701 35.583 35.498 35.308 35.173 35.078 35.096 35.171 35.198 35.211 35.183 35.081 34.996 35.068 34.993 34.948 34.931 34.943 34.891 34.983 34.943 34.898 34.838 34.801 34.746 34.726 34.686 34.696 34.683 34.643 34.601 34.566 34.558 34.506 34.451 34.463 34.521 34.511 34.498 34.468
46.221 46.149 46.129 46.361 46.411 46.294 46.314 46.236 46.261 46.116 45.619 45.416 45.436 45.376 45.254 45.229 45.251 45.216 45.234 45.234 45.251 45.236 45.241 45.234 45.226 45.261 45.301 45.296 45.314 45.331 45.346 45.379 45.386 45.389 45.399 45.404 45.409 45.416 45.396 45.424 45.371 45.364 45.391 45.391 45.401 45.411 45.426 45.426 45.371 45.346 45.374 45.394 45.391 45.434 45.449 45.461 45.431 45.374 45.326 45.306 45.244 45.194 45.124 45.101 45.044 44.994 44.896 44.846 44.771 44.731 44.654 44.591 44.544 44.451 44.409 44.309 44.246 44.154 44.064 43.999 43.906 43.801 43.654 43.514 43.351 43.149 42.871 42.631 42.406 42.174 41.916 41.571 41.234 40.971 40.684 40.404 39.969 39.391 38.899 38.556 38.476 38.484 38.529 38.566 38.521 38.614 38.744 38.729 38.739 38.731 38.731 38.739 38.704 38.711 38.751 38.744 38.741 38.756 38.791 38.954 39.036 38.841 38.679 38.659 38.449 38.464 38.509 38.561 38.574 38.581 38.526 38.494 38.464 38.496 38.439 38.886 39.606 39.671 39.599 39.516 39.444 39.391 39.336 39.341 39.326 39.314 39.306 39.251 39.239 39.211 39.116 39.044 38.966 38.931 38.841 38.644 38.516 38.444 38.361 38.291 38.231 38.234 38.239 38.219 38.199 38.219 38.116 38.096 38.039 37.991 37.959 37.729 37.669 37.644 37.559 37.539 37.589 37.584 37.541 37.416 37.239 37.226 37.161 37.109 37.096 37.099 37.141 37.141 37.131 37.084 37.111 37.146 37.039 37.036 37.059 37.039 37.019 37.004 36.966 36.984 37.049 36.966 36.839 36.744 36.704 36.669 36.656 36.654 36.596 36.641 36.731 36.759 36.731 36.661 36.691 36.764 36.769 36.746 36.759 36.689 36.641 36.634 36.651 36.599 36.519 36.506 36.424 36.349 36.344 36.389 36.394 36.339 36.309 36.299 36.396 36.366 36.244 36.206 36.176 36.214 36.369 36.299 36.201 36.161 36.194 36.161 36.026 36.033 36.043 36.058 36.153 36.141 36.206 36.223 36.183 36.163 36.096 36.086 36.118 36.098 35.968 36.023 36.091 36.013 36.013 36.023 36.008 36.043 36.066 36.086 36.068 36.066 36.061 36.071 36.051 35.933 35.941 35.921 35.926 35.931 35.986 35.983 35.983 35.943 35.978 36.036 36.128 36.213 36.276 36.301 36.318 36.383 36.478 36.568 36.641 36.741 36.823 36.783 36.688 36.613 36.568 36.551 36.501 36.511 36.491 36.466 36.476 36.453 36.468 36.503 36.523 36.473 36.511 36.533 36.538 36.526 36.561 36.688 36.631 36.671 36.611 36.618 36.711 36.803 36.771 36.706 36.583 36.533 36.478 36.498 36.518 36.468 36.471 36.501 36.513 36.526 36.511 36.461 36.423 36.353 36.371 36.348 36.158 36.063 36.061 36.038 35.988 35.991 36.006 36.003 36.043 36.036 36.061 36.068 36.081 36.086 36.116 36.096 36.093 36.068 35.976 35.966 35.903 35.826 35.791 35.768 35.763 35.723 35.731 35.741 35.743 35.756 35.758 35.736 35.858 35.958 36.078 36.228 36.326 36.358 36.313 36.181 36.073 36.003 35.891 35.833 35.756 35.686 35.603 35.396 35.231 35.138 35.146 35.206 35.226 35.193 35.153 35.126 35.031 35.003 34.971 34.963 34.986 34.963 34.891 34.891 34.891 34.918 34.866 34.831 34.791 34.748 34.711 34.693 34.696 34.653 34.606 34.541 34.568 34.571 34.506 34.443 34.441 34.493 34.536 34.536
46.239 46.134 46.124 46.251 46.441 46.404 46.366 46.291 46.234 46.069 45.741 45.444 45.354 45.409 45.271 45.199 45.201 45.191 45.181 45.194 45.159 45.164 45.179 45.189 45.194 45.201 45.219 45.254 45.274 45.304 45.281 45.301 45.346 45.341 45.336 45.351 45.349 45.349 45.371 45.364 45.369 45.319 45.346 45.354 45.371 45.374 45.374 45.396 45.364 45.349 45.359 45.399 45.391 45.394 45.451 45.426 45.444 45.374 45.336 45.316 45.256 45.209 45.144 45.089 45.036 45.004 44.929 44.884 44.794 44.744 44.686 44.576 44.536 44.459 44.396 44.341 44.236 44.151 44.079 44.009 43.901 43.804 43.694 43.546 43.391 43.206 43.039 42.831 42.526 42.384 42.094 41.724 41.436 41.154 40.861 40.594 40.034 39.296 38.759 38.524 38.489 38.476 38.539 38.554 38.509 38.499 38.551 38.639 38.746 38.756 38.759 38.756 38.706 38.711 38.729 38.704 38.726 38.776 38.894 39.089 39.019 38.831 38.636 38.504 38.459 38.506 38.536 38.579 38.589 38.564 38.471 38.434 38.451 38.486 38.664 39.421 39.766 39.646 39.531 39.479 39.404 39.381 39.344 39.326 39.276 39.271 39.224 39.196 39.211 39.234 39.134 39.021 38.921 38.884 38.826 38.704 38.581 38.484 38.399 38.299 38.241 38.221 38.239 38.244 38.224 38.199 38.146 38.114 38.026 37.941 37.821 37.699 37.669 37.646 37.606 37.531 37.601 37.584 37.469 37.321 37.279 37.186 37.119 37.109 37.124 37.186 37.229 37.194 37.201 37.151 37.114 37.161 37.109 36.986 37.001 36.996 37.019 37.044 37.006 37.039 36.981 36.941 36.849 36.749 36.711 36.669 36.616 36.669 36.619 36.616 36.631 36.649 36.659 36.684 36.731 36.739 36.714 36.696 36.684 36.696 36.674 36.706 36.659 36.561 36.489 36.476 36.499 36.446 36.354 36.331 36.346 36.361 36.334 36.286 36.276 36.259 36.226 36.196 36.234 36.224 36.289 36.199 36.121 36.076 36.084 36.014 35.983 36.011 36.048 36.076 36.093 36.101 36.188 36.166 36.188 36.151 36.081 36.051 36.028 36.046 35.983 36.033 36.108 36.043 36.016 36.038 36.031 36.046 36.038 36.066 36.096 36.076 36.093 36.108 36.066 35.968 35.946 35.913 35.948 35.936 35.936 35.966 35.961 35.978 36.008 36.058 36.143 36.251 36.308 36.306 36.366 36.438 36.551 36.596 36.653 36.718 36.778 36.806 36.696 36.636 36.578 36.536 36.496 36.521 36.508 36.513 36.501 36.453 36.466 36.573 36.576 36.491 36.521 36.551 36.531 36.531 36.576 36.691 36.768 36.736 36.678 36.698 36.666 36.713 36.763 36.738 36.708 36.603 36.478 36.513 36.521 36.498 36.471 36.501 36.521 36.516 36.471 36.478 36.433 36.418 36.458 36.381 36.203 36.116 36.003 36.011 36.026 36.043 36.048 36.003 36.048 36.018 36.063 36.116 36.113 36.056 36.053 36.066 36.086 36.078 36.053 36.001 35.938 35.858 35.791 35.743 35.698 35.681 35.691 35.713 35.746 35.763 35.771 35.763 35.773 35.893 36.041 36.198 36.266 36.303 36.333 36.206 36.051 36.036 35.966 35.868 35.818 35.766 35.686 35.476 35.316 35.156 35.161 35.233 35.208 35.163 35.126 35.083 35.031 34.993 34.966 34.996 34.996 34.968 34.921 34.886 34.886 34.886 34.863 34.883 34.886 34.798 34.746 34.676 34.671 34.661 34.603 34.556 34.543 34.551 34.526 34.496 34.463 34.478 34.543 34.561
46.224 46.176 46.124 46.106 46.371 46.386 46.386 46.319 46.219 46.146 46.064 45.601 45.346 45.401 45.386 45.194 45.149 45.181 45.169 45.171 45.156 45.156 45.139 45.121 45.146 45.161 45.161 45.206 45.211 45.254 45.244 45.274 45.309 45.311 45.319 45.339 45.346 45.324 45.314 45.291 45.326 45.314 45.329 45.311 45.321 45.336 45.351 45.344 45.356 45.326 45.334 45.396 45.399 45.434 45.434 45.441 45.436 45.426 45.354 45.341 45.289 45.249 45.191 45.114 45.051 45.026 44.949 44.871 44.801 44.766 44.686 44.594 44.544 44.459 44.381 44.331 44.236 44.166 44.081 44.006 43.881 43.776 43.686 43.594 43.416 43.291 43.104 42.926 42.691 42.549 42.269 41.896 41.614 41.324 41.046 40.731 40.006 39.204 38.639 38.411 38.389 38.441 38.556 38.591 38.514 38.416 38.446 38.611 38.751 38.771 38.741 38.731 38.726 38.704 38.694 38.719 38.724 38.784 38.996 39.074 39.031 38.811 38.551 38.446 38.479 38.544 38.609 38.599 38.534 38.449 38.419 38.459 38.499 38.659 39.011 39.574 39.644 39.524 39.504 39.461 39.359 39.351 39.326 39.254 39.236 39.236 39.231 39.229 39.186 39.019 38.916 38.896 38.826 38.819 38.769 38.754 38.666 38.591 38.414 38.351 38.299 38.244 38.226 38.259 38.259 38.176 38.119 38.044 37.994 37.939 37.736 37.691 37.689 37.656 37.584 37.586 37.604 37.541 37.421 37.269 37.219 37.169 37.141 37.146 37.141 37.231 37.229 37.226 37.221 37.181 37.134 37.136 37.096 37.021 37.029 37.074 37.109 37.104 37.101 37.029 36.989 36.966 36.854 36.876 36.839 36.759 36.631 36.624 36.609 36.589 36.589 36.604 36.641 36.669 36.681 36.701 36.674 36.654 36.639 36.631 36.654 36.619 36.566 36.489 36.469 36.471 36.529 36.506 36.386 36.299 36.311 36.341 36.316 36.281 36.259 36.251 36.264 36.274 36.271 36.191 36.141 36.099 36.049 36.049 36.026 35.979 36.011 36.023 36.011 36.068 36.043 36.066 36.153 36.141 36.143 36.151 36.083 36.031 36.013 35.983 36.096 36.076 36.043 36.018 35.986 35.998 36.021 36.018 36.018 36.076 36.093 36.081 36.126 36.123 36.068 35.976 35.963 35.933 35.941 35.953 35.938 35.931 35.931 35.971 36.048 36.108 36.176 36.248 36.298 36.308 36.381 36.451 36.548 36.646 36.686 36.723 36.711 36.743 36.693 36.688 36.653 36.578 36.536 36.528 36.543 36.523 36.501 36.458 36.476 36.511 36.498 36.511 36.528 36.578 36.538 36.518 36.581 36.716 36.796 36.791 36.768 36.691 36.668 36.626 36.713 36.753 36.761 36.678 36.526 36.518 36.508 36.493 36.491 36.526 36.503 36.478 36.481 36.468 36.441 36.463 36.468 36.433 36.301 36.156 36.036 35.988 36.028 36.053 36.033 36.021 36.043 36.068 36.086 36.146 36.121 35.976 35.956 35.981 36.093 36.131 36.081 36.028 35.941 35.871 35.761 35.701 35.641 35.646 35.703 35.728 35.743 35.738 35.751 35.786 35.813 35.898 36.013 36.176 36.278 36.301 36.323 36.198 36.108 36.061 36.011 35.936 35.828 35.791 35.838 35.656 35.416 35.166 35.091 35.123 35.161 35.161 35.086 35.066 35.078 35.051 34.976 34.988 34.978 34.971 34.923 34.903 34.873 34.883 34.871 34.898 34.996 34.858 34.761 34.693 34.643 34.636 34.651 34.603 34.553 34.536 34.546 34.566 34.536 34.498 34.508 34.546
46.291 46.261 46.176 46.106 46.204 46.379 46.431 46.344 46.239 46.194 46.179 45.909 45.349 45.286 45.339 45.226 45.119 45.151 45.124 45.139 45.146 45.126 45.139 45.089 45.151 45.134 45.139 45.154 45.186 45.204 45.201 45.216 45.251 45.284 45.276 45.301 45.274 45.281 45.249 45.254 45.261 45.286 45.304 45.319 45.286 45.299 45.341 45.346 45.364 45.319 45.326 45.364 45.389 45.411 45.431 45.466 45.479 45.436 45.376 45.371 45.311 45.259 45.196 45.121 45.059 45.019 44.954 44.881 44.846 44.766 44.674 44.604 44.564 44.501 44.396 44.319 44.226 44.149 44.101 44.006 43.876 43.786 43.721 43.576 43.481 43.324 43.194 43.029 42.851 42.656 42.371 42.036 41.749 41.474 41.214 40.861 40.131 39.104 38.604 38.421 38.401 38.449 38.504 38.484 38.431 38.369 38.394 38.524 38.676 38.711 38.731 38.764 38.726 38.736 38.719 38.729 38.721 38.784 38.846 38.944 39.016 38.684 38.451 38.454 38.546 38.621 38.629 38.584 38.486 38.424 38.429 38.471 38.724 39.119 39.451 39.619 39.561 39.529 39.479 39.436 39.376 39.359 39.319 39.261 39.226 39.209 39.211 39.211 39.184 39.064 38.869 38.836 38.766 38.689 38.636 38.666 38.686 38.636 38.496 38.329 38.286 38.216 38.189 38.194 38.221 38.164 38.044 37.919 37.884 37.796 37.736 37.724 37.691 37.664 37.654 37.656 37.589 37.484 37.391 37.256 37.209 37.191 37.156 37.139 37.186 37.216 37.214 37.211 37.201 37.181 37.234 37.191 37.136 37.089 37.066 37.159 37.191 37.169 37.101 37.034 36.966 36.949 36.981 36.951 36.896 36.821 36.671 36.536 36.559 36.566 36.511 36.531 36.596 36.641 36.654 36.661 36.666 36.656 36.641 36.661 36.634 36.596 36.524 36.489 36.459 36.436 36.476 36.504 36.401 36.346 36.284 36.264 36.281 36.301 36.329 36.351 36.294 36.299 36.244 36.146 36.084 36.036 36.006 36.009 36.021 35.984 36.003 36.031 36.036 36.048 36.031 36.056 36.096 36.081 36.098 36.098 36.081 36.076 36.051 35.968 36.011 36.013 35.976 35.968 35.963 35.971 35.971 36.001 36.008 36.063 36.063 36.096 36.106 36.081 36.046 35.993 35.986 35.983 35.978 35.946 35.936 35.911 35.901 35.988 36.068 36.093 36.168 36.243 36.293 36.308 36.346 36.428 36.521 36.616 36.698 36.701 36.676 36.676 36.653 36.646 36.613 36.593 36.526 36.526 36.551 36.533 36.503 36.466 36.466 36.473 36.541 36.556 36.571 36.583 36.551 36.538 36.618 36.731 36.813 36.813 36.821 36.701 36.668 36.711 36.776 36.803 36.786 36.716 36.561 36.441 36.448 36.461 36.528 36.531 36.441 36.463 36.458 36.453 36.423 36.478 36.473 36.453 36.441 36.228 36.078 36.023 36.033 36.046 36.061 36.073 36.008 36.048 36.121 36.153 36.088 35.953 35.928 35.968 36.081 36.141 36.093 36.006 35.941 35.876 35.791 35.721 35.698 35.688 35.721 35.736 35.738 35.723 35.733 35.796 35.828 35.936 35.968 36.128 36.201 36.251 36.248 36.248 36.163 36.091 36.036 35.973 35.946 35.851 35.946 35.816 35.581 35.311 35.131 35.086 35.086 35.128 35.091 35.073 35.063 35.066 34.961 34.988 34.981 34.973 34.926 34.881 34.861 34.883 34.886 34.898 34.906 34.896 34.823 34.726 34.641 34.613 34.653 34.611 34.563 34.543 34.566 34.608 34.591 34.588 34.591 34.551
46.286 46.284 46.196 46.096 46.099 46.331 46.391 46.354 46.281 46.241 46.211 46.056 45.569 45.214 45.236 45.219 45.136 45.109 45.101 45.109 45.104 45.096 45.079 45.081 45.096 45.111 45.109 45.106 45.144 45.161 45.169 45.184 45.184 45.221 45.239 45.244 45.226 45.236 45.229 45.231 45.239 45.244 45.249 45.289 45.259 45.261 45.314 45.349 45.309 45.309 45.331 45.329 45.381 45.409 45.454 45.459 45.466 45.476 45.426 45.386 45.346 45.271 45.219 45.149 45.076 45.039 44.974 44.884 44.846 44.801 44.699 44.666 44.566 44.506 44.421 44.341 44.254 44.144 44.051 43.976 43.856 43.784 43.724 43.611 43.509 43.371 43.216 43.061 42.891 42.706 42.496 42.174 41.919 41.646 41.316 41.059 40.276 39.254 38.696 38.611 38.576 38.581 38.509 38.401 38.324 38.356 38.354 38.389 38.461 38.564 38.719 38.781 38.754 38.729 38.741 38.724 38.756 38.786 38.791 38.794 38.689 38.419 38.454 38.594 38.621 38.634 38.586 38.511 38.399 38.396 38.384 38.936 39.246 39.521 39.609 39.556 39.509 39.494 39.466 39.391 39.376 39.339 39.314 39.256 39.239 39.221 39.274 39.284 39.146 39.054 38.949 38.834 38.734 38.651 38.666 38.654 38.641 38.634 38.574 38.354 38.246 38.224 38.174 38.154 38.156 38.139 38.066 37.979 37.876 37.736 37.779 37.689 37.659 37.654 37.686 37.636 37.544 37.456 37.364 37.251 37.201 37.199 37.184 37.101 37.209 37.204 37.194 37.194 37.196 37.194 37.171 37.166 37.121 37.101 37.089 37.194 37.221 37.134 37.054 37.024 36.969 36.971 36.999 36.969 36.936 36.879 36.724 36.524 36.561 36.574 36.539 36.436 36.514 36.654 36.634 36.644 36.666 36.636 36.634 36.621 36.586 36.581 36.511 36.514 36.456 36.436 36.449 36.469 36.471 36.436 36.316 36.306 36.366 36.394 36.456 36.484 36.354 36.276 36.194 36.174 36.121 36.056 35.991 35.996 36.031 36.034 36.051 35.988 35.978 36.011 36.038 36.058 36.041 36.021 36.046 36.086 36.086 36.073 36.008 35.946 35.966 35.956 35.968 35.948 35.936 35.941 35.958 35.971 36.008 36.028 36.023 36.063 36.066 36.028 36.018 36.006 36.016 36.003 35.971 35.936 35.966 35.973 35.961 36.018 36.088 36.146 36.191 36.253 36.291 36.308 36.366 36.418 36.501 36.606 36.698 36.673 36.628 36.611 36.623 36.631 36.598 36.573 36.523 36.536 36.586 36.548 36.541 36.533 36.548 36.563 36.571 36.583 36.606 36.603 36.613 36.621 36.723 36.718 36.776 36.801 36.821 36.773 36.728 36.686 36.758 36.846 36.861 36.776 36.658 36.521 36.451 36.546 36.536 36.538 36.491 36.503 36.506 36.468 36.371 36.488 36.478 36.463 36.448 36.351 36.131 36.088 36.108 36.143 36.146 36.151 36.121 36.103 36.123 36.143 36.071 35.981 35.943 35.958 35.966 36.046 36.063 35.988 35.971 35.943 35.881 35.801 35.763 35.728 35.731 35.731 35.756 35.723 35.726 35.791 35.818 35.896 35.948 36.061 36.133 36.188 36.221 36.113 36.063 36.101 36.108 36.041 35.991 35.876 35.848 35.913 35.726 35.576 35.311 35.116 35.088 35.171 35.121 35.098 35.088 35.083 35.088 35.051 35.006 34.986 34.958 34.923 34.861 34.896 34.846 34.811 34.826 34.791 34.798 34.736 34.663 34.651 34.628 34.608 34.586 34.588 34.616 34.598 34.608 34.661 34.648 34.608
46.246 46.229 46.186 46.136 46.119 46.196 46.331 46.329 46.331 46.296 46.246 46.174 45.909 45.304 45.134 45.266 45.189 45.086 45.039 45.054 45.089 45.066 45.041 45.021 45.066 45.089 45.091 45.061 45.094 45.114 45.121 45.146 45.121 45.176 45.191 45.154 45.171 45.184 45.194 45.209 45.231 45.229 45.226 45.224 45.219 45.249 45.254 45.289 45.301 45.339 45.339 45.359 45.426 45.419 45.454 45.456 45.454 45.496 45.459 45.416 45.376 45.291 45.246 45.179 45.131 45.056 44.966 44.889 44.849 44.796 44.741 44.704 44.614 44.541 44.441 44.326 44.259 44.156 44.021 43.954 43.859 43.776 43.699 43.574 43.499 43.391 43.251 43.119 42.919 42.761 42.531 42.314 42.019 41.786 41.531 41.226 40.716 39.696 38.994 38.781 38.729 38.646 38.514 38.414 38.371 38.381 38.376 38.406 38.431 38.581 38.736 38.769 38.771 38.754 38.771 38.766 38.774 38.766 38.779 38.759 38.469 38.464 38.671 38.656 38.624 38.576 38.491 38.441 38.429 38.429 38.849 39.774 39.776 39.616 39.586 39.536 39.494 39.474 39.449 39.384 39.326 39.294 39.289 39.284 39.289 39.261 39.221 39.174 39.011 38.921 38.854 38.784 38.684 38.669 38.649 38.619 38.596 38.571 38.511 38.351 38.296 38.231 38.156 38.169 38.136 38.081 38.071 37.921 37.751 37.679 37.716 37.659 37.644 37.694 37.736 37.564 37.436 37.361 37.311 37.231 37.176 37.161 37.236 37.244 37.206 37.191 37.181 37.174 37.191 37.156 37.121 37.129 37.094 37.079 37.099 37.154 37.141 37.076 37.049 37.019 36.974 36.981 37.011 36.991 36.974 36.856 36.661 36.539 36.549 36.596 36.579 36.499 36.506 36.586 36.649 36.676 36.674 36.614 36.591 36.571 36.564 36.556 36.519 36.554 36.521 36.536 36.539 36.571 36.486 36.486 36.466 36.391 36.441 36.379 36.399 36.454 36.384 36.239 36.179 36.159 36.116 36.074 36.041 36.024 36.021 36.014 36.041 36.006 35.968 35.976 35.943 35.963 35.971 36.003 36.048 36.053 36.038 36.018 36.026 36.008 35.978 35.953 35.936 35.981 35.993 35.901 35.928 35.956 35.988 36.003 36.001 36.061 36.028 36.028 36.018 35.993 35.986 35.976 35.983 35.956 35.996 36.038 36.013 36.061 36.131 36.191 36.228 36.281 36.283 36.353 36.383 36.456 36.508 36.616 36.638 36.608 36.586 36.576 36.593 36.603 36.568 36.488 36.471 36.506 36.556 36.581 36.581 36.593 36.603 36.598 36.581 36.606 36.638 36.608 36.623 36.676 36.741 36.733 36.796 36.821 36.823 36.778 36.738 36.693 36.748 36.801 36.858 36.836 36.726 36.631 36.606 36.591 36.633 36.631 36.576 36.561 36.603 36.456 36.383 36.488 36.498 36.498 36.481 36.433 36.256 36.151 36.168 36.166 36.173 36.146 36.116 36.156 36.096 36.036 35.991 35.948 35.951 35.966 35.916 35.913 35.906 35.961 35.958 35.943 35.948 35.908 35.878 35.788 35.736 35.728 35.758 35.761 35.751 35.813 35.868 35.876 35.866 35.961 36.001 36.036 36.131 36.006 36.023 36.146 36.156 36.078 35.978 35.936 35.856 35.853 35.891 35.651 35.511 35.248 35.151 35.106 35.113 35.116 35.106 35.113 35.121 35.086 35.023 35.006 34.996 34.973 34.898 34.823 34.831 34.758 34.648 34.763 34.811 34.781 34.691 34.686 34.646 34.646 34.623 34.623 34.636 34.666 34.641 34.658 34.653 34.618
46.291 46.254 46.221 46.181 46.136 46.156 46.299 46.351 46.296 46.261 46.274 46.211 46.099 45.564 45.136 45.169 45.211 45.096 45.029 45.046 45.059 45.046 44.989 44.976 45.014 45.029 45.011 45.034 45.041 45.051 45.066 45.074 45.091 45.116 45.156 45.131 45.119 45.146 45.189 45.206 45.171 45.214 45.214 45.206 45.201 45.199 45.214 45.269 45.281 45.301 45.334 45.381 45.406 45.419 45.449 45.451 45.446 45.466 45.479 45.426 45.391 45.334 45.251 45.196 45.131 45.071 45.006 44.941 44.899 44.824 44.734 44.681 44.611 44.541 44.459 44.354 44.254 44.159 44.046 43.969 43.856 43.759 43.721 43.574 43.516 43.409 43.296 43.156 42.996 42.829 42.599 42.411 42.146 41.926 41.641 41.321 40.864 40.201 39.456 38.944 38.771 38.664 38.599 38.551 38.464 38.459 38.449 38.496 38.481 38.646 38.791 38.781 38.781 38.779 38.754 38.739 38.764 38.791 38.744 38.596 38.546 38.659 38.681 38.649 38.619 38.541 38.424 38.454 38.421 38.881 39.691 39.846 39.696 39.601 39.551 39.536 39.494 39.441 39.416 39.359 39.309 39.221 39.239 39.246 39.216 39.121 39.049 39.029 38.966 38.879 38.796 38.766 38.681 38.659 38.649 38.619 38.581 38.549 38.484 38.414 38.276 38.199 38.196 38.169 38.101 38.076 38.039 37.859 37.751 37.734 37.779 37.696 37.654 37.774 37.711 37.529 37.384 37.326 37.306 37.284 37.289 37.299 37.291 37.264 37.231 37.189 37.174 37.144 37.154 37.116 37.084 37.079 37.081 37.061 37.079 37.064 37.099 37.074 37.049 37.019 36.979 36.996 37.006 36.976 36.939 36.796 36.636 36.531 36.531 36.584 36.599 36.549 36.461 36.534 36.686 36.716 36.679 36.566 36.559 36.554 36.554 36.554 36.561 36.556 36.589 36.596 36.616 36.669 36.606 36.606 36.629 36.554 36.506 36.379 36.311 36.316 36.316 36.174 36.179 36.166 36.139 36.091 36.109 36.031 36.024 35.976 36.036 36.028 35.988 35.973 35.963 35.961 35.956 35.963 35.983 35.963 35.976 36.031 36.061 36.013 35.963 35.896 35.891 35.906 35.938 35.928 35.903 35.913 35.951 35.963 35.933 35.968 36.028 36.016 35.993 35.986 35.986 35.976 35.996 35.983 36.008 36.026 36.053 36.121 36.168 36.206 36.223 36.248 36.268 36.338 36.413 36.473 36.506 36.511 36.561 36.533 36.531 36.563 36.566 36.553 36.528 36.506 36.501 36.508 36.573 36.603 36.603 36.618 36.578 36.598 36.606 36.603 36.636 36.688 36.723 36.741 36.743 36.768 36.771 36.783 36.766 36.753 36.806 36.791 36.738 36.783 36.853 36.888 36.818 36.711 36.641 36.616 36.668 36.676 36.663 36.633 36.596 36.538 36.466 36.501 36.511 36.488 36.443 36.431 36.291 36.211 36.178 36.176 36.211 36.218 36.156 36.058 35.996 36.028 36.028 35.983 35.916 35.923 35.941 35.946 35.976 35.936 35.938 35.898 35.881 35.918 35.946 35.903 35.868 35.806 35.801 35.806 35.828 35.843 35.861 35.851 35.868 35.933 35.888 35.823 35.931 35.938 36.043 36.126 36.163 36.128 36.058 35.976 35.923 35.826 35.861 35.856 35.631 35.386 35.201 35.138 35.128 35.121 35.136 35.143 35.136 35.071 35.028 35.016 35.006 35.011 34.946 34.846 34.836 34.798 34.793 34.858 34.828 34.786 34.713 34.693 34.728 34.713 34.711 34.693 34.731 34.748 34.711 34.668 34.641 34.606
46.296 46.251 46.236 46.174 46.119 46.109 46.214 46.341 46.356 46.296 46.279 46.246 46.059 45.859 45.291 45.106 45.159 45.159 45.046 45.021 45.036 45.014 44.984 44.949 44.974 44.989 45.016 44.999 45.034 45.029 45.026 45.044 45.039 45.059 45.086 45.084 45.101 45.129 45.136 45.154 45.144 45.186 45.199 45.179 45.181 45.186 45.194 45.241 45.306 45.301 45.356 45.374 45.414 45.399 45.421 45.456 45.459 45.454 45.451 45.436 45.389 45.339 45.281 45.174 45.154 45.084 45.031 44.954 44.891 44.836 44.751 44.679 44.611 44.529 44.444 44.341 44.241 44.134 44.064 43.981 43.866 43.761 43.681 43.574 43.501 43.399 43.306 43.191 43.046 42.876 42.684 42.486 42.281 42.021 41.741 41.436 41.101 40.574 39.836 39.044 38.819 38.736 38.749 38.761 38.589 38.551 38.546 38.574 38.476 38.656 38.841 38.811 38.791 38.764 38.749 38.714 38.729 38.746 38.661 38.596 38.696 38.696 38.676 38.624 38.571 38.514 38.419 38.386 38.581 39.469 39.764 39.671 39.616 39.606 39.546 39.479 39.461 39.409 39.359 39.366 39.311 39.226 39.251 39.199 39.086 38.979 38.966 38.976 38.984 38.914 38.759 38.689 38.689 38.641 38.634 38.626 38.559 38.484 38.459 38.389 38.289 38.196 38.191 38.186 38.106 38.061 37.926 37.769 37.774 37.774 37.746 37.676 37.709 37.819 37.686 37.464 37.366 37.294 37.276 37.304 37.294 37.279 37.281 37.286 37.281 37.234 37.164 37.129 37.131 37.099 37.046 37.071 37.089 37.059 37.076 37.016 37.029 37.034 37.031 37.016 36.986 36.966 36.981 36.961 36.854 36.686 36.586 36.499 36.474 36.526 36.536 36.534 36.536 36.509 36.649 36.674 36.624 36.586 36.571 36.574 36.576 36.574 36.586 36.574 36.569 36.519 36.516 36.561 36.559 36.526 36.559 36.566 36.474 36.371 36.321 36.224 36.216 36.124 36.131 36.154 36.149 36.139 36.106 36.019 35.989 35.966 35.958 36.001 36.003 35.971 35.926 35.938 35.963 35.921 35.916 35.948 35.986 36.028 36.018 35.986 35.933 35.893 35.881 35.881 35.933 35.886 35.876 35.816 35.888 35.888 35.928 35.938 35.973 35.986 35.963 35.973 35.973 35.968 36.006 36.008 36.046 36.051 36.083 36.173 36.191 36.226 36.236 36.241 36.306 36.376 36.428 36.433 36.496 36.506 36.478 36.411 36.423 36.511 36.518 36.503 36.503 36.538 36.578 36.526 36.538 36.593 36.653 36.606 36.563 36.563 36.626 36.681 36.691 36.748 36.768 36.751 36.726 36.766 36.783 36.778 36.721 36.753 36.803 36.823 36.793 36.793 36.851 36.878 36.833 36.686 36.686 36.663 36.708 36.703 36.721 36.641 36.618 36.556 36.493 36.438 36.478 36.456 36.426 36.426 36.328 36.321 36.226 36.188 36.178 36.153 36.088 36.031 36.013 36.066 36.031 35.986 35.956 35.938 35.916 35.921 35.921 35.901 35.898 35.883 35.888 35.846 35.861 35.828 35.821 35.858 35.856 35.881 35.906 35.896 35.911 35.881 35.878 35.861 35.793 35.758 35.916 35.981 36.041 36.106 36.153 36.091 36.136 36.088 35.993 35.886 35.836 35.843 35.848 35.708 35.463 35.206 35.143 35.116 35.121 35.101 35.043 35.006 35.046 35.021 34.978 34.968 34.971 34.893 34.886 34.828 34.873 34.903 34.811 34.798 34.743 34.746 34.773 34.766 34.771 34.771 34.808 34.798 34.721 34.671 34.603 34.591
46.284 46.274 46.269 46.201 46.149 46.089 46.106 46.231 46.339 46.294 46.244 46.239 46.156 46.081 45.639 45.096 45.091 45.129 45.026 44.959 44.986 44.989 44.964 44.931 44.931 44.949 44.954 44.939 44.989 45.001 44.984 45.011 45.016 45.004 45.029 45.064 45.071 45.091 45.084 45.136 45.136 45.176 45.184 45.191 45.186 45.191 45.226 45.236 45.271 45.324 45.351 45.364 45.414 45.414 45.436 45.459 45.449 45.441 45.449 45.416 45.394 45.331 45.316 45.221 45.174 45.109 45.041 44.996 44.909 44.844 44.794 44.714 44.631 44.526 44.456 44.354 44.256 44.181 44.081 43.986 43.884 43.774 43.661 43.586 43.521 43.431 43.336 43.201 43.086 42.914 42.746 42.584 42.346 42.119 41.881 41.594 41.294 40.864 40.091 39.324 38.879 38.784 38.846 38.861 38.621 38.499 38.484 38.481 38.444 38.614 38.846 38.841 38.706 38.654 38.714 38.721 38.691 38.641 38.591 38.721 38.754 38.684 38.639 38.566 38.496 38.471 38.459 38.581 38.919 39.496 39.719 39.674 39.646 39.606 39.536 39.481 39.434 39.406 39.349 39.346 39.304 39.239 39.186 39.101 39.021 38.941 38.951 38.949 38.934 38.869 38.721 38.666 38.659 38.624 38.614 38.571 38.501 38.484 38.401 38.356 38.329 38.181 38.206 38.154 38.099 37.914 37.834 37.764 37.771 37.796 37.729 37.684 37.816 37.839 37.581 37.361 37.426 37.344 37.259 37.279 37.284 37.259 37.241 37.266 37.259 37.201 37.124 37.104 37.089 37.051 37.034 37.016 37.009 37.039 37.101 37.106 37.001 36.961 36.944 36.959 36.999 36.976 36.926 36.806 36.651 36.546 36.541 36.526 36.511 36.486 36.499 36.524 36.541 36.506 36.484 36.599 36.644 36.611 36.584 36.604 36.614 36.591 36.571 36.566 36.544 36.524 36.489 36.486 36.509 36.551 36.551 36.509 36.441 36.376 36.281 36.189 36.124 36.041 36.084 36.139 36.091 36.089 36.094 36.039 36.009 35.971 35.903 36.006 36.011 35.971 35.973 35.951 35.911 35.878 35.933 35.946 35.978 36.001 35.996 35.913 35.916 35.908 35.876 35.873 35.873 35.858 35.876 35.823 35.813 35.818 35.861 35.923 35.938 35.961 35.988 35.971 35.981 35.978 36.008 36.036 36.091 36.103 36.158 36.193 36.213 36.243 36.233 36.276 36.351 36.413 36.386 36.398 36.458 36.466 36.436 36.371 36.388 36.463 36.478 36.463 36.486 36.531 36.546 36.551 36.518 36.541 36.608 36.611 36.601 36.641 36.686 36.748 36.781 36.803 36.788 36.751 36.713 36.741 36.758 36.733 36.696 36.731 36.786 36.831 36.823 36.746 36.746 36.813 36.808 36.723 36.726 36.738 36.786 36.751 36.701 36.641 36.631 36.608 36.533 36.473 36.443 36.451 36.423 36.403 36.358 36.371 36.276 36.216 36.158 36.096 36.088 36.066 36.008 36.031 36.038 35.996 35.986 35.968 35.968 35.948 35.936 35.956 35.898 35.863 35.866 35.843 35.836 35.853 35.806 35.836 35.741 35.733 35.823 35.836 35.818 35.828 35.798 35.866 35.896 35.896 35.961 35.968 35.981 36.051 36.081 36.096 36.151 36.111 36.026 35.963 35.883 35.748 35.856 35.868 35.696 35.356 35.193 35.183 35.123 35.031 34.948 34.951 34.981 35.028 35.071 35.001 34.936 34.936 34.886 34.898 34.953 34.911 34.856 34.841 34.801 34.828 34.821 34.818 34.773 34.751 34.756 34.793 34.756 34.653 34.608 34.573
46.331 46.254 46.281 46.214 46.139 46.106 46.066 46.166 46.351 46.321 46.321 46.271 46.184 46.151 45.936 45.361 45.111 45.081 45.066 44.899 44.926 44.934 44.919 44.921 44.911 44.911 44.929 44.911 44.946 44.976 44.964 44.961 44.961 44.961 44.951 44.986 45.039 45.079 45.099 45.124 45.151 45.129 45.154 45.194 45.176 45.164 45.221 45.226 45.249 45.306 45.361 45.374 45.399 45.434 45.439 45.446 45.431 45.416 45.401 45.419 45.399 45.351 45.314 45.249 45.201 45.139 45.061 45.009 44.946 44.904 44.824 44.731 44.629 44.579 44.466 44.386 44.276 44.194 44.091 43.986 43.886 43.769 43.681 43.569 43.484 43.411 43.284 43.196 43.099 42.916 42.796 42.644 42.429 42.211 41.961 41.706 41.449 41.084 40.449 39.699 39.111 38.924 38.919 38.894 38.699 38.559 38.479 38.451 38.511 38.709 38.889 38.819 38.579 38.566 38.629 38.744 38.761 38.644 38.666 38.696 38.744 38.629 38.559 38.446 38.449 38.434 38.731 39.114 39.264 39.639 39.701 39.696 39.609 39.571 39.504 39.466 39.421 39.346 39.311 39.274 39.259 39.246 39.256 39.074 39.024 38.976 38.946 38.914 38.866 38.749 38.686 38.649 38.631 38.611 38.554 38.514 38.479 38.449 38.426 38.326 38.259 38.151 38.134 38.214 38.124 37.939 37.811 37.764 37.776 37.774 37.754 37.741 37.924 37.709 37.446 37.401 37.391 37.304 37.279 37.279 37.259 37.239 37.219 37.209 37.256 37.316 37.219 37.054 37.094 37.061 37.044 36.989 36.951 36.984 37.031 37.074 37.031 36.979 36.931 36.959 36.971 36.924 36.739 36.604 36.561 36.549 36.559 36.559 36.494 36.471 36.469 36.444 36.511 36.551 36.519 36.514 36.636 36.619 36.579 36.584 36.574 36.601 36.556 36.544 36.536 36.539 36.509 36.489 36.546 36.574 36.524 36.486 36.451 36.391 36.249 36.194 36.144 36.146 36.179 36.134 36.099 36.121 36.061 36.056 36.019 35.989 35.948 35.971 36.006 36.026 36.001 35.913 35.868 35.901 35.931 35.921 35.933 35.953 35.948 35.903 35.933 35.921 35.881 35.856 35.811 35.828 35.821 35.798 35.761 35.763 35.818 35.888 35.908 35.936 35.981 35.958 35.956 35.931 35.951 36.013 36.078 36.113 36.133 36.178 36.188 36.203 36.243 36.283 36.291 36.348 36.371 36.371 36.391 36.418 36.388 36.346 36.341 36.363 36.371 36.418 36.468 36.483 36.498 36.523 36.513 36.493 36.583 36.656 36.666 36.683 36.718 36.748 36.793 36.831 36.796 36.758 36.721 36.788 36.786 36.738 36.698 36.693 36.766 36.793 36.778 36.738 36.723 36.766 36.851 36.798 36.766 36.843 36.823 36.768 36.688 36.633 36.636 36.638 36.586 36.578 36.488 36.461 36.413 36.386 36.343 36.248 36.183 36.186 36.166 36.111 36.106 36.053 36.063 36.071 36.086 36.108 36.041 36.031 36.028 36.046 36.003 35.986 35.966 35.933 35.941 35.911 35.858 35.823 35.798 35.756 35.736 35.763 35.748 35.743 35.801 35.813 35.781 35.793 35.883 35.931 35.898 35.916 35.966 36.141 36.211 36.178 36.211 36.131 36.053 35.986 35.893 35.808 35.748 35.888 35.848 35.683 35.416 35.271 35.251 35.118 34.978 34.938 34.973 35.011 35.003 35.001 34.961 34.931 34.943 34.958 34.958 34.898 34.871 34.848 34.863 34.851 34.833 34.791 34.758 34.758 34.741 34.703 34.751 34.678 34.631 34.606
46.386 46.279 46.246 46.229 46.201 46.156 46.074 46.059 46.314 46.331 46.316 46.269 46.256 46.204 46.011 45.629 45.189 45.044 45.071 44.919 44.869 44.874 44.874 44.884 44.911 44.884 44.899 44.891 44.939 44.909 44.909 44.924 44.936 44.906 44.944 44.956 44.999 45.046 45.064 45.094 45.116 45.109 45.129 45.144 45.146 45.176 45.221 45.241 45.279 45.309 45.349 45.359 45.394 45.431 45.421 45.434 45.416 45.399 45.391 45.401 45.399 45.374 45.301 45.266 45.221 45.159 45.099 45.036 44.964 44.916 44.821 44.739 44.646 44.574 44.521 44.419 44.301 44.211 44.101 44.026 43.891 43.776 43.721 43.586 43.491 43.396 43.264 43.179 43.084 42.951 42.806 42.616 42.454 42.254 42.006 41.781 41.526 41.244 40.799 40.184 39.554 39.061 38.909 38.864 38.774 38.604 38.569 38.626 38.851 39.006 38.836 38.661 38.671 38.639 38.591 38.646 38.709 38.644 38.689 38.709 38.659 38.579 38.444 38.419 38.444 38.781 39.596 39.711 39.624 39.674 39.724 39.644 39.564 39.589 39.501 39.436 39.391 39.334 39.294 39.266 39.274 39.281 39.286 39.126 39.001 38.941 38.886 38.856 38.789 38.704 38.646 38.541 38.536 38.559 38.534 38.504 38.436 38.371 38.366 38.324 38.219 38.181 38.134 38.049 37.966 37.854 37.794 37.781 37.744 37.754 37.759 37.834 37.811 37.494 37.384 37.371 37.359 37.356 37.366 37.301 37.239 37.221 37.211 37.209 37.294 37.376 37.279 37.221 37.161 37.086 37.104 37.079 36.939 36.869 36.924 36.976 37.006 36.924 36.896 36.946 36.899 36.759 36.601 36.571 36.576 36.569 36.474 36.196 36.464 36.611 36.611 36.561 36.484 36.549 36.574 36.454 36.579 36.641 36.626 36.629 36.581 36.614 36.521 36.521 36.511 36.534 36.534 36.454 36.484 36.506 36.509 36.506 36.454 36.424 36.221 36.136 36.101 36.221 36.334 36.271 36.144 36.089 36.039 36.069 36.011 35.991 35.951 35.938 35.983 36.003 35.923 35.891 35.913 35.903 35.891 35.883 35.916 35.893 35.921 35.923 35.936 35.928 35.901 35.826 35.803 35.793 35.796 35.771 35.738 35.706 35.848 35.873 35.888 35.886 35.923 35.936 35.923 35.923 35.911 35.961 36.016 36.048 36.083 36.148 36.211 36.238 36.243 36.221 36.213 36.231 36.213 36.273 36.331 36.346 36.316 36.283 36.308 36.313 36.343 36.416 36.441 36.441 36.453 36.491 36.481 36.463 36.546 36.668 36.706 36.733 36.763 36.731 36.743 36.768 36.773 36.738 36.761 36.826 36.851 36.758 36.698 36.716 36.796 36.823 36.858 36.808 36.776 36.741 36.756 36.818 36.831 36.863 36.791 36.726 36.708 36.671 36.623 36.636 36.618 36.576 36.516 36.498 36.443 36.361 36.303 36.211 36.193 36.206 36.178 36.163 36.176 36.186 36.128 36.136 36.163 36.176 36.066 36.041 36.046 36.041 36.021 36.011 35.998 35.983 35.956 35.916 35.913 35.933 35.863 35.821 35.823 35.816 35.768 35.673 35.636 35.726 35.768 35.743 35.853 35.898 35.866 35.971 36.113 36.228 36.168 36.218 36.286 36.248 36.163 35.923 35.718 35.736 35.711 35.801 35.898 35.866 35.676 35.468 35.353 35.168 35.026 34.938 34.991 34.996 35.001 35.008 34.993 34.948 35.003 34.991 34.986 34.943 34.868 34.866 34.876 34.873 34.871 34.853 34.791 34.738 34.733 34.723 34.703 34.691 34.681 34.606
