ncols 431
nrows 31
xllcorner    428008
yllcorner    485902
cellsize     2
NODATA_value -9999
30.828 30.825 30.808 30.87 30.885 30.89 30.87 30.913 30.908 30.89 30.928 30.883 30.883 30.908 30.865 30.865 30.843 30.798 30.763 30.778 30.748 30.705 30.683 30.615 30.533 30.458 30.418 30.378 30.383 30.41 30.468 30.503 30.478 30.463 30.485 30.533 30.503 30.508 30.508 30.49 30.458 30.47 30.463 30.45 30.408 30.363 30.333 30.303 30.31 30.258 30.235 30.3 30.318 30.313 30.313 30.305 30.285 30.315 30.318 30.315 30.348 30.343 30.315 30.298 30.313 30.335 30.3 30.305 30.323 30.315 30.33 30.32 30.328 30.31 30.3 30.31 30.303 30.29 30.288 30.273 30.248 30.25 30.26 30.258 30.245 30.235 30.185 30.155 30.125 30.098 30.058 30.015 30.008 29.985 29.968 29.945 29.935 29.95 29.987 30.005 30.035 30.042 30.002 30.015 29.995 30.035 30.1 30.117 30.052 30.06 30.112 30.072 30.055 30.007 29.997 30.04 30.075 30.077 30.077 30.057 30.067 30.067 30.072 30.082 30.067 30.077 30.08 30.075 30.045 30.057 30.062 30.112 30.067 30.032 29.962 30.02 30.007 30.042 30.065 30.05 30.047 30.027 29.977 29.95 29.97 29.95 29.9 29.84 29.757 29.7 29.667 29.61 29.53 29.452 29.372 29.345 29.255 29.205 29.132 29.082 29.03 28.952 28.932 28.84 28.782 28.78 28.692 28.64 28.63 28.66 28.65 28.587 28.54 28.552 28.495 28.475 28.462 28.437 28.415 28.392 28.405 28.425 28.412 28.487 28.455 28.472 28.452 28.482 28.49 28.53 28.505 28.477 28.465 28.47 28.48 28.447 28.427 28.405 28.375 28.36 28.365 28.395 28.422 28.527 28.555 28.615 28.667 28.7 28.712 28.825 28.882 28.945 28.972 29.045 29.115 29.167 29.207 29.267 29.335 29.375 29.35 29.37 29.42 29.47 29.452 29.402 29.422 29.38 29.347 29.397 29.375 29.352 29.33 29.33 29.315 29.332 29.297 29.35 29.372 29.312 29.347 29.367 29.32 29.345 29.325 29.34 29.357 29.294 29.257 29.239 29.182 29.139 29.104 29.007 28.999 28.917 28.869 28.789 28.772 28.707 28.622 28.597 28.489 28.459 28.362 28.334 28.307 28.277 28.229 28.207 28.209 28.184 28.187 28.187 28.179 28.179 28.137 28.107 28.142 28.109 28.159 28.142 28.139 28.122 28.154 28.167 28.142 28.207 28.227 28.209 28.119 27.354 26.802 27.427 28.399 28.507 28.394 28.334 28.237 28.147 28.102 28.037 27.987 27.929 27.929 27.947 27.984 28.074 28.132 28.232 28.287 28.437 28.547 28.679 28.787 28.929 29.062 29.209 29.347 29.442 29.569 29.622 29.652 29.684 29.699 29.677 29.627 29.559 29.482 29.422 29.377 29.272 29.184 29.122 29.009 28.822 28.657 28.494 28.347 28.232 28.124 28.034 28.049 28.054 28.062 28.122 28.181 28.224 28.259 28.331 28.336 28.354 28.336 28.354 28.329 28.331 28.321 28.259 28.191 28.124 28.081 28.049 27.994 27.999 28.014 28.019 27.981 28.009 27.996 27.991 28.024 27.991 28.011 28.029 28.064 28.126 28.094 28.109 28.159 28.219 28.306 28.336 28.404 28.469 28.514 28.556 28.624 28.664 28.654 28.694 28.741 28.786 28.784 28.771 28.814 28.871 28.899 28.921 28.964 28.974 29.024 29.014 29.056 29.076 29.091 29.146 29.109 29.139 29.194 29.229 29.231 29.239 29.286 29.301 29.346 29.346 29.351 29.336 29.346 29.324 29.316 29.301 29.286 29.291 29.336 29.284 29.239 29.249 29.259 29.346 29.334
30.833 30.833 30.835 30.85 30.873 30.9 30.883 30.873 30.908 30.92 30.945 30.925 30.89 30.883 30.89 30.893 30.858 30.81 30.808 30.8 30.783 30.728 30.723 30.66 30.568 30.508 30.428 30.405 30.403 30.405 30.448 30.463 30.498 30.513 30.495 30.488 30.505 30.488 30.49 30.493 30.49 30.488 30.453 30.443 30.4 30.365 30.328 30.283 30.3 30.24 30.233 30.29 30.32 30.285 30.273 30.28 30.273 30.31 30.34 30.318 30.318 30.31 30.303 30.295 30.323 30.338 30.31 30.31 30.335 30.29 30.32 30.35 30.348 30.325 30.308 30.293 30.305 30.288 30.275 30.268 30.263 30.253 30.235 30.238 30.24 30.245 30.195 30.18 30.133 30.108 30.073 30.018 30.038 30.018 29.99 30.003 29.992 29.995 30.005 30.02 30.04 30.042 30.037 30.037 30.02 30.027 30.077 30.17 30.117 30.082 30.097 30.152 30.145 30.132 30.07 30.115 30.09 30.137 30.147 30.15 30.135 30.132 30.127 30.11 30.08 30.1 30.15 30.125 30.06 30.077 30.087 30.125 30.085 30.045 30.075 30.087 30.12 30.08 30.077 30.075 30.062 30.067 30.027 30.01 30 29.947 29.895 29.855 29.842 29.74 29.667 29.617 29.587 29.497 29.437 29.382 29.317 29.225 29.192 29.102 29.042 29.022 28.96 28.887 28.817 28.81 28.752 28.74 28.737 28.707 28.672 28.615 28.602 28.575 28.505 28.46 28.485 28.48 28.425 28.435 28.44 28.437 28.442 28.435 28.447 28.455 28.427 28.435 28.48 28.507 28.517 28.517 28.465 28.457 28.475 28.447 28.427 28.43 28.402 28.375 28.382 28.427 28.435 28.475 28.49 28.542 28.615 28.612 28.665 28.762 28.825 28.89 28.95 29.032 29.087 29.125 29.175 29.21 29.28 29.332 29.352 29.36 29.402 29.422 29.382 29.352 29.365 29.36 29.335 29.357 29.337 29.315 29.307 29.312 29.31 29.307 29.302 29.307 29.322 29.297 29.282 29.295 29.282 29.31 29.302 29.305 29.294 29.254 29.197 29.192 29.154 29.092 29.044 28.982 28.999 28.884 28.824 28.774 28.679 28.632 28.577 28.522 28.469 28.427 28.372 28.374 28.304 28.254 28.214 28.222 28.224 28.214 28.219 28.204 28.207 28.192 28.184 28.157 28.147 28.137 28.137 28.134 28.142 28.132 28.157 28.184 28.172 28.174 28.207 28.214 28.164 27.299 26.807 27.479 28.442 28.517 28.369 28.309 28.194 28.122 28.094 28.017 27.964 27.927 27.897 27.942 27.964 28.074 28.169 28.224 28.327 28.442 28.539 28.669 28.772 28.942 29.069 29.204 29.319 29.432 29.542 29.614 29.677 29.684 29.689 29.632 29.619 29.569 29.497 29.432 29.379 29.262 29.202 29.094 28.952 28.847 28.649 28.469 28.337 28.209 28.122 28.014 28.024 28.044 28.057 28.087 28.144 28.224 28.256 28.316 28.351 28.369 28.329 28.344 28.319 28.304 28.249 28.186 28.176 28.134 28.071 28.036 27.989 27.944 27.939 27.944 27.944 27.984 27.979 27.981 28.039 27.999 28.016 28.041 28.059 28.111 28.074 28.126 28.174 28.221 28.269 28.309 28.326 28.409 28.476 28.504 28.566 28.601 28.614 28.669 28.716 28.746 28.734 28.776 28.819 28.881 28.859 28.939 28.934 28.984 29.001 29.036 29.036 29.084 29.104 29.131 29.139 29.144 29.194 29.224 29.249 29.274 29.274 29.341 29.309 29.321 29.329 29.349 29.356 29.341 29.314 29.306 29.271 29.271 29.336 29.314 29.276 29.274 29.269 29.359 29.359
30.82 30.823 30.808 30.848 30.825 30.9 30.898 30.898 30.918 30.938 30.943 30.928 30.913 30.893 30.888 30.88 30.853 30.83 30.803 30.788 30.763 30.763 30.708 30.663 30.633 30.558 30.49 30.428 30.418 30.415 30.433 30.478 30.505 30.523 30.498 30.49 30.515 30.535 30.488 30.478 30.478 30.473 30.453 30.443 30.4 30.373 30.323 30.293 30.298 30.263 30.248 30.258 30.305 30.318 30.293 30.313 30.31 30.295 30.285 30.31 30.278 30.295 30.27 30.308 30.328 30.305 30.31 30.325 30.338 30.338 30.328 30.325 30.35 30.33 30.3 30.295 30.3 30.288 30.283 30.275 30.258 30.248 30.27 30.263 30.243 30.24 30.175 30.193 30.168 30.138 30.083 30.068 30.04 30.038 30 29.995 30.005 30.035 30.027 30.007 30.052 30.082 30.07 30.045 30.037 30.04 30.1 30.155 30.172 30.097 30.09 30.162 30.197 30.147 30.112 30.125 30.152 30.155 30.172 30.2 30.195 30.162 30.165 30.12 30.122 30.122 30.155 30.137 30.13 30.112 30.11 30.105 30.127 30.097 30.107 30.092 30.11 30.117 30.08 30.097 30.1 30.11 30.062 30.037 30 29.99 29.955 29.897 29.87 29.822 29.755 29.695 29.61 29.545 29.505 29.422 29.33 29.282 29.202 29.135 29.1 29.03 28.972 28.917 28.9 28.85 28.81 28.755 28.75 28.722 28.702 28.652 28.642 28.575 28.522 28.482 28.475 28.46 28.465 28.455 28.415 28.455 28.422 28.427 28.447 28.45 28.455 28.45 28.48 28.482 28.485 28.535 28.52 28.457 28.412 28.42 28.42 28.437 28.432 28.407 28.397 28.385 28.365 28.44 28.47 28.497 28.532 28.625 28.717 28.772 28.777 28.82 28.887 28.962 29 29.06 29.105 29.165 29.235 29.275 29.302 29.32 29.297 29.327 29.305 29.347 29.327 29.327 29.315 29.317 29.31 29.297 29.305 29.295 29.287 29.25 29.282 29.267 29.275 29.267 29.257 29.295 29.28 29.27 29.29 29.237 29.247 29.217 29.157 29.132 29.109 29.067 28.984 28.952 28.884 28.832 28.747 28.712 28.637 28.584 28.554 28.482 28.424 28.389 28.359 28.342 28.302 28.254 28.244 28.224 28.199 28.227 28.237 28.217 28.202 28.242 28.202 28.207 28.159 28.144 28.167 28.187 28.154 28.154 28.129 28.157 28.167 28.172 28.174 28.212 28.094 27.267 26.819 27.494 28.359 28.487 28.364 28.349 28.229 28.149 28.062 28.014 27.944 27.932 27.929 27.942 27.949 28.054 28.162 28.254 28.332 28.429 28.534 28.692 28.792 28.897 29.069 29.192 29.304 29.412 29.507 29.589 29.647 29.697 29.689 29.654 29.632 29.552 29.497 29.434 29.352 29.267 29.164 29.069 28.957 28.857 28.674 28.492 28.292 28.184 28.109 28.049 28.024 28.039 28.072 28.077 28.119 28.184 28.256 28.279 28.326 28.344 28.314 28.331 28.284 28.291 28.236 28.176 28.146 28.121 28.059 28.049 27.971 27.949 27.911 27.916 27.969 27.971 27.984 27.956 27.994 27.986 28.034 28.041 28.049 28.091 28.089 28.106 28.151 28.184 28.221 28.289 28.339 28.394 28.451 28.476 28.496 28.539 28.571 28.646 28.659 28.691 28.726 28.759 28.766 28.841 28.859 28.871 28.934 28.979 29.001 29.049 29.046 29.061 29.119 29.096 29.104 29.111 29.169 29.224 29.216 29.259 29.274 29.299 29.334 29.316 29.311 29.336 29.334 29.301 29.299 29.289 29.281 29.281 29.321 29.284 29.291 29.284 29.294 29.364 29.409
30.805 30.795 30.793 30.845 30.838 30.89 30.873 30.888 30.883 30.893 30.928 30.925 30.903 30.91 30.925 30.895 30.838 30.818 30.818 30.785 30.773 30.75 30.73 30.668 30.628 30.573 30.505 30.445 30.41 30.428 30.44 30.503 30.503 30.543 30.55 30.518 30.535 30.535 30.5 30.478 30.518 30.493 30.448 30.433 30.37 30.348 30.338 30.31 30.303 30.288 30.305 30.29 30.308 30.338 30.335 30.333 30.295 30.3 30.293 30.258 30.298 30.308 30.285 30.305 30.265 30.33 30.365 30.318 30.328 30.355 30.333 30.328 30.325 30.31 30.275 30.303 30.295 30.293 30.28 30.265 30.258 30.268 30.26 30.235 30.21 30.218 30.173 30.145 30.155 30.108 30.055 30.053 30.05 30.068 29.993 30.018 30.047 30.045 30.042 30.03 30.075 30.102 30.125 30.092 30.097 30.08 30.107 30.185 30.197 30.182 30.137 30.16 30.205 30.21 30.197 30.22 30.182 30.18 30.202 30.235 30.247 30.242 30.195 30.185 30.177 30.162 30.19 30.215 30.225 30.157 30.177 30.167 30.137 30.087 30.092 30.082 30.117 30.137 30.157 30.192 30.155 30.15 30.127 30.085 30.017 29.987 29.982 29.952 29.882 29.825 29.79 29.712 29.612 29.55 29.517 29.435 29.38 29.315 29.247 29.207 29.13 29.1 29.02 28.947 28.91 28.845 28.807 28.802 28.805 28.792 28.762 28.67 28.667 28.592 28.51 28.502 28.487 28.497 28.475 28.432 28.432 28.445 28.465 28.482 28.502 28.487 28.435 28.452 28.51 28.507 28.527 28.53 28.505 28.492 28.477 28.405 28.407 28.417 28.405 28.397 28.307 28.362 28.365 28.445 28.45 28.497 28.54 28.605 28.685 28.722 28.747 28.8 28.847 28.92 28.977 28.997 29.052 29.11 29.187 29.205 29.227 29.255 29.232 29.285 29.287 29.297 29.327 29.312 29.287 29.26 29.267 29.267 29.295 29.277 29.257 29.22 29.247 29.282 29.267 29.26 29.29 29.297 29.27 29.245 29.232 29.227 29.179 29.182 29.119 29.082 29.047 29.017 28.954 28.877 28.834 28.787 28.754 28.659 28.599 28.567 28.472 28.427 28.409 28.369 28.332 28.309 28.309 28.269 28.249 28.227 28.184 28.262 28.227 28.252 28.279 28.219 28.232 28.257 28.204 28.159 28.179 28.174 28.119 28.139 28.102 28.147 28.167 28.172 28.202 28.182 28.004 27.154 26.754 27.509 28.434 28.539 28.397 28.344 28.212 28.127 28.069 28.029 27.967 27.919 27.939 27.942 28.009 28.092 28.164 28.292 28.332 28.414 28.552 28.664 28.797 28.902 29.069 29.219 29.292 29.424 29.552 29.629 29.649 29.694 29.702 29.682 29.649 29.549 29.527 29.449 29.347 29.269 29.147 29.072 28.944 28.812 28.677 28.472 28.307 28.182 28.102 28.037 28.017 28.022 28.069 28.092 28.099 28.199 28.219 28.279 28.286 28.314 28.299 28.286 28.244 28.249 28.201 28.161 28.141 28.131 28.054 28.024 27.964 27.939 27.901 27.891 27.979 28.006 28.011 27.999 28.004 27.966 28.024 28.069 28.071 28.099 28.101 28.089 28.141 28.174 28.199 28.279 28.336 28.381 28.416 28.406 28.466 28.491 28.506 28.599 28.626 28.651 28.676 28.709 28.719 28.811 28.831 28.856 28.944 28.994 29.011 29.044 29.079 29.084 29.094 29.096 29.124 29.114 29.156 29.191 29.219 29.236 29.286 29.294 29.329 29.341 29.326 29.324 29.314 29.294 29.299 29.306 29.279 29.254 29.306 29.304 29.281 29.294 29.286 29.384 29.426
30.79 30.793 30.79 30.833 30.84 30.888 30.868 30.888 30.88 30.875 30.918 30.908 30.96 30.958 30.93 30.878 30.875 30.828 30.795 30.785 30.753 30.75 30.718 30.698 30.62 30.555 30.53 30.458 30.418 30.408 30.423 30.473 30.515 30.533 30.565 30.545 30.51 30.548 30.498 30.488 30.52 30.49 30.45 30.428 30.4 30.37 30.388 30.34 30.338 30.318 30.31 30.29 30.333 30.33 30.378 30.368 30.335 30.31 30.293 30.288 30.3 30.31 30.303 30.31 30.303 30.333 30.313 30.323 30.35 30.32 30.318 30.32 30.33 30.305 30.283 30.268 30.28 30.305 30.278 30.275 30.255 30.258 30.278 30.243 30.25 30.213 30.19 30.16 30.16 30.12 30.083 30.048 30.075 30.043 30.063 30.048 30.08 30.06 30.077 30.1 30.087 30.095 30.125 30.115 30.122 30.135 30.14 30.182 30.207 30.182 30.2 30.215 30.272 30.352 30.37 30.345 30.227 30.215 30.195 30.267 30.272 30.235 30.205 30.2 30.177 30.205 30.205 30.195 30.2 30.15 30.102 30.15 30.145 30.087 30.087 30.135 30.177 30.185 30.175 30.175 30.182 30.195 30.162 30.127 30.052 30 29.995 29.942 29.875 29.805 29.77 29.695 29.647 29.585 29.577 29.497 29.432 29.347 29.31 29.267 29.185 29.127 29.037 29.012 28.96 28.902 28.945 28.867 28.86 28.8 28.76 28.72 28.655 28.645 28.562 28.537 28.527 28.51 28.435 28.467 28.487 28.49 28.492 28.485 28.437 28.462 28.487 28.487 28.457 28.497 28.515 28.487 28.482 28.49 28.485 28.437 28.455 28.42 28.372 28.36 28.335 28.33 28.35 28.395 28.395 28.47 28.507 28.545 28.562 28.652 28.692 28.76 28.797 28.85 28.905 28.985 29.007 29.06 29.105 29.11 29.175 29.235 29.227 29.252 29.277 29.26 29.265 29.262 29.27 29.282 29.247 29.27 29.26 29.255 29.26 29.27 29.262 29.247 29.24 29.22 29.255 29.232 29.177 29.235 29.24 29.192 29.157 29.142 29.097 29.009 28.942 28.957 28.872 28.864 28.807 28.722 28.724 28.637 28.577 28.509 28.454 28.422 28.379 28.354 28.339 28.312 28.304 28.262 28.252 28.244 28.244 28.244 28.237 28.287 28.292 28.244 28.254 28.289 28.232 28.212 28.199 28.187 28.152 28.162 28.182 28.187 28.177 28.192 28.244 28.199 28.049 27.179 26.792 27.449 28.434 28.552 28.404 28.364 28.269 28.132 28.069 28.012 27.944 27.944 27.954 27.962 28.004 28.099 28.147 28.269 28.322 28.404 28.542 28.667 28.762 28.907 29.029 29.169 29.292 29.382 29.507 29.604 29.667 29.694 29.687 29.662 29.624 29.562 29.519 29.474 29.372 29.262 29.129 29.059 28.917 28.784 28.642 28.467 28.279 28.154 28.062 28.009 28.002 28.027 28.057 28.067 28.096 28.146 28.199 28.254 28.274 28.291 28.274 28.261 28.269 28.226 28.179 28.119 28.136 28.099 28.046 28.014 28.016 27.981 27.981 27.996 28.009 27.974 27.974 27.979 27.989 28.014 28.029 28.054 28.061 28.066 28.114 28.099 28.104 28.179 28.211 28.241 28.259 28.304 28.371 28.396 28.439 28.454 28.464 28.526 28.586 28.586 28.626 28.669 28.701 28.739 28.811 28.881 28.934 28.954 28.966 29.011 29.051 29.089 29.084 29.094 29.089 29.124 29.159 29.169 29.201 29.221 29.264 29.284 29.321 29.341 29.334 29.339 29.311 29.299 29.309 29.321 29.284 29.289 29.289 29.296 29.289 29.289 29.309 29.364 29.424
30.815 30.79 30.8 30.808 30.833 30.863 30.893 30.888 30.925 30.945 30.948 30.925 30.955 30.948 30.923 30.89 30.888 30.865 30.82 30.785 30.763 30.755 30.728 30.7 30.623 30.57 30.578 30.52 30.455 30.453 30.45 30.493 30.498 30.558 30.563 30.603 30.548 30.54 30.515 30.493 30.463 30.47 30.43 30.405 30.405 30.375 30.37 30.355 30.355 30.36 30.363 30.343 30.365 30.368 30.393 30.393 30.355 30.345 30.34 30.32 30.273 30.303 30.28 30.32 30.318 30.33 30.31 30.323 30.33 30.298 30.34 30.32 30.295 30.285 30.285 30.248 30.27 30.27 30.29 30.273 30.255 30.255 30.285 30.255 30.26 30.203 30.208 30.178 30.145 30.095 30.083 30.048 30.073 30.055 30.063 30.068 30.077 30.092 30.097 30.137 30.117 30.132 30.167 30.182 30.162 30.192 30.142 30.152 30.23 30.277 30.317 30.272 30.35 30.445 30.527 30.47 30.325 30.262 30.247 30.27 30.27 30.252 30.23 30.222 30.177 30.167 30.147 30.177 30.17 30.172 30.155 30.175 30.122 30.105 30.14 30.172 30.195 30.21 30.192 30.195 30.212 30.195 30.142 30.152 30.082 30.027 29.997 29.957 29.895 29.842 29.772 29.735 29.692 29.647 29.607 29.537 29.5 29.385 29.357 29.302 29.247 29.145 29.077 29.025 28.995 28.937 28.95 28.895 28.867 28.797 28.797 28.742 28.68 28.617 28.58 28.605 28.567 28.472 28.467 28.507 28.452 28.47 28.462 28.475 28.435 28.432 28.465 28.485 28.49 28.51 28.497 28.512 28.482 28.467 28.455 28.452 28.447 28.412 28.41 28.4 28.342 28.317 28.34 28.295 28.395 28.41 28.445 28.522 28.565 28.607 28.665 28.727 28.77 28.79 28.812 28.92 28.94 28.995 29.035 29.085 29.15 29.17 29.192 29.197 29.22 29.21 29.232 29.17 29.21 29.242 29.227 29.22 29.245 29.217 29.222 29.225 29.24 29.212 29.212 29.2 29.272 29.255 29.197 29.125 29.12 29.112 29.117 29.087 29.047 28.984 28.912 28.924 28.832 28.799 28.734 28.637 28.674 28.624 28.537 28.499 28.484 28.444 28.374 28.327 28.287 28.257 28.242 28.252 28.244 28.269 28.274 28.249 28.287 28.284 28.309 28.309 28.272 28.302 28.272 28.222 28.177 28.182 28.164 28.199 28.204 28.234 28.239 28.242 28.267 28.264 28.239 27.429 26.682 27.379 28.414 28.522 28.384 28.322 28.259 28.109 28.047 27.999 27.967 27.892 27.912 27.974 28.022 28.079 28.159 28.254 28.339 28.399 28.504 28.644 28.719 28.882 29.019 29.162 29.299 29.387 29.487 29.567 29.649 29.707 29.667 29.642 29.612 29.567 29.479 29.464 29.374 29.247 29.114 29.014 28.874 28.772 28.627 28.442 28.242 28.109 28.062 27.969 27.982 28.017 28.012 28.044 28.116 28.179 28.206 28.204 28.291 28.291 28.266 28.256 28.279 28.251 28.186 28.154 28.126 28.061 28.029 27.981 27.981 27.966 27.966 27.984 27.986 27.974 28.024 28.011 28.004 28.021 28.054 28.041 28.034 28.069 28.114 28.134 28.126 28.129 28.166 28.231 28.264 28.321 28.329 28.364 28.396 28.401 28.439 28.459 28.509 28.539 28.566 28.604 28.676 28.719 28.796 28.864 28.924 28.956 28.994 29.024 29.034 29.049 29.066 29.091 29.114 29.119 29.129 29.169 29.191 29.226 29.271 29.301 29.326 29.321 29.311 29.334 29.304 29.321 29.274 29.314 29.299 29.269 29.329 29.329 29.299 29.319 29.306 29.371 29.449
30.843 30.813 30.825 30.795 30.855 30.895 30.888 30.905 30.948 30.935 30.923 30.928 30.938 30.918 30.923 30.913 30.855 30.84 30.83 30.82 30.79 30.773 30.728 30.698 30.645 30.605 30.628 30.54 30.505 30.518 30.488 30.518 30.555 30.608 30.615 30.613 30.58 30.545 30.53 30.493 30.478 30.48 30.433 30.385 30.373 30.375 30.363 30.385 30.38 30.418 30.428 30.408 30.388 30.423 30.455 30.415 30.36 30.363 30.355 30.34 30.325 30.308 30.295 30.293 30.29 30.303 30.333 30.323 30.31 30.308 30.333 30.315 30.333 30.293 30.27 30.263 30.27 30.265 30.255 30.303 30.3 30.275 30.245 30.245 30.268 30.228 30.22 30.173 30.155 30.11 30.07 30.05 30.058 30.065 30.06 30.078 30.115 30.107 30.107 30.112 30.125 30.137 30.182 30.207 30.185 30.212 30.19 30.165 30.25 30.342 30.392 30.372 30.407 30.47 30.545 30.54 30.397 30.322 30.26 30.242 30.277 30.277 30.272 30.272 30.195 30.175 30.15 30.167 30.137 30.135 30.14 30.097 30.172 30.162 30.192 30.217 30.205 30.235 30.225 30.19 30.192 30.187 30.155 30.12 30.062 30.02 29.997 29.97 29.927 29.88 29.797 29.777 29.76 29.697 29.647 29.585 29.562 29.452 29.405 29.352 29.332 29.19 29.145 29.09 29.065 29.02 28.945 28.952 28.93 28.862 28.8 28.742 28.69 28.655 28.632 28.615 28.562 28.475 28.482 28.502 28.472 28.462 28.437 28.442 28.462 28.455 28.46 28.462 28.515 28.497 28.495 28.52 28.525 28.512 28.492 28.45 28.492 28.437 28.407 28.402 28.285 28.327 28.317 28.325 28.377 28.405 28.455 28.517 28.545 28.6 28.605 28.617 28.682 28.707 28.817 28.88 28.895 28.972 29.007 29.065 29.087 29.1 29.115 29.122 29.157 29.152 29.187 29.192 29.197 29.192 29.19 29.177 29.185 29.185 29.2 29.215 29.235 29.227 29.192 29.19 29.2 29.18 29.162 29.115 29.057 29.052 29.074 29.044 28.989 28.959 28.927 28.852 28.764 28.724 28.667 28.654 28.649 28.599 28.517 28.484 28.457 28.392 28.334 28.287 28.287 28.267 28.257 28.257 28.264 28.284 28.279 28.227 28.234 28.254 28.257 28.262 28.254 28.297 28.292 28.279 28.237 28.209 28.212 28.204 28.197 28.214 28.229 28.254 28.252 28.262 28.297 27.539 26.789 27.392 28.449 28.504 28.344 28.279 28.159 28.097 28.044 28.007 27.949 27.902 27.897 27.952 28.002 28.069 28.154 28.252 28.319 28.384 28.522 28.632 28.737 28.867 28.989 29.142 29.299 29.394 29.519 29.577 29.622 29.709 29.727 29.667 29.612 29.559 29.504 29.432 29.339 29.202 29.109 29.012 28.894 28.747 28.614 28.397 28.224 28.109 28.017 27.962 27.954 27.979 28.009 28.052 28.094 28.184 28.211 28.226 28.254 28.291 28.289 28.244 28.239 28.204 28.151 28.114 28.099 28.029 28.009 27.976 27.949 27.996 28.014 28.019 27.984 28.021 28.021 28.009 28.041 28.056 28.029 28.034 28.039 28.069 28.109 28.119 28.111 28.109 28.136 28.171 28.216 28.264 28.311 28.329 28.349 28.356 28.361 28.404 28.449 28.516 28.554 28.571 28.621 28.721 28.754 28.851 28.886 28.921 28.974 28.996 29.021 29.054 29.081 29.071 29.084 29.111 29.134 29.159 29.224 29.249 29.251 29.276 29.326 29.349 29.329 29.336 29.306 29.334 29.326 29.319 29.324 29.316 29.334 29.329 29.299 29.311 29.329 29.354 29.441
30.845 30.835 30.813 30.785 30.843 30.853 30.878 30.888 30.935 30.955 30.903 30.89 30.928 30.92 30.895 30.878 30.858 30.835 30.835 30.823 30.82 30.778 30.753 30.71 30.668 30.653 30.618 30.555 30.52 30.535 30.53 30.573 30.585 30.59 30.605 30.613 30.608 30.558 30.548 30.528 30.493 30.478 30.433 30.38 30.38 30.373 30.38 30.413 30.438 30.46 30.483 30.488 30.46 30.465 30.473 30.448 30.418 30.383 30.388 30.378 30.333 30.305 30.27 30.258 30.275 30.255 30.273 30.325 30.305 30.33 30.33 30.333 30.308 30.28 30.255 30.288 30.298 30.313 30.298 30.313 30.295 30.28 30.265 30.26 30.26 30.235 30.198 30.198 30.17 30.125 30.07 30.028 30.06 30.06 30.053 30.085 30.11 30.15 30.127 30.12 30.187 30.18 30.195 30.22 30.217 30.215 30.237 30.217 30.25 30.342 30.492 30.462 30.415 30.512 30.545 30.522 30.43 30.312 30.257 30.237 30.247 30.26 30.237 30.22 30.185 30.177 30.15 30.137 30.107 30.112 30.125 30.135 30.157 30.165 30.187 30.202 30.242 30.235 30.202 30.202 30.202 30.185 30.13 30.11 30.112 30.055 30.025 29.997 29.887 29.915 29.855 29.805 29.792 29.765 29.702 29.65 29.625 29.502 29.447 29.405 29.357 29.247 29.215 29.147 29.122 29.067 29.047 28.987 28.99 28.9 28.842 28.77 28.7 28.707 28.607 28.607 28.55 28.537 28.505 28.46 28.5 28.475 28.467 28.465 28.505 28.465 28.462 28.467 28.472 28.535 28.525 28.54 28.557 28.565 28.512 28.46 28.452 28.447 28.415 28.42 28.372 28.335 28.335 28.347 28.372 28.385 28.4 28.442 28.437 28.512 28.5 28.625 28.667 28.697 28.78 28.825 28.872 28.895 28.98 28.985 29.022 29.022 29.045 29.052 29.082 29.12 29.125 29.167 29.16 29.195 29.165 29.16 29.145 29.142 29.165 29.165 29.202 29.182 29.152 29.132 29.14 29.132 29.137 29.122 29.105 29.035 29.022 28.997 28.959 28.902 28.852 28.812 28.759 28.727 28.694 28.639 28.599 28.554 28.489 28.442 28.404 28.359 28.344 28.307 28.274 28.277 28.267 28.237 28.262 28.217 28.272 28.247 28.229 28.252 28.282 28.274 28.274 28.287 28.302 28.312 28.264 28.232 28.214 28.217 28.197 28.222 28.257 28.279 28.257 28.277 28.269 27.329 26.797 27.322 28.432 28.519 28.364 28.297 28.182 28.137 28.017 27.994 27.967 27.902 27.919 27.947 28.007 28.089 28.137 28.239 28.324 28.394 28.524 28.649 28.784 28.872 28.989 29.127 29.277 29.404 29.512 29.587 29.649 29.727 29.707 29.684 29.617 29.564 29.489 29.402 29.332 29.194 29.104 28.994 28.852 28.722 28.554 28.372 28.189 28.067 28.002 27.952 27.947 27.974 27.997 28.032 28.074 28.114 28.189 28.221 28.276 28.256 28.281 28.259 28.246 28.244 28.176 28.109 28.099 28.049 28.011 28.001 28.009 28.016 28.061 28.036 28.026 28.026 27.994 28.044 28.064 28.061 28.011 28.029 28.021 28.054 28.099 28.109 28.139 28.134 28.136 28.174 28.181 28.226 28.284 28.321 28.324 28.341 28.344 28.369 28.419 28.429 28.489 28.531 28.596 28.696 28.734 28.816 28.849 28.899 28.941 28.989 29.019 29.064 29.061 29.096 29.104 29.094 29.111 29.169 29.231 29.249 29.251 29.284 29.306 29.314 29.316 29.339 29.304 29.321 29.344 29.356 29.326 29.341 29.364 29.336 29.321 29.341 29.351 29.344 29.434
30.825 30.865 30.823 30.833 30.81 30.795 30.85 30.865 30.91 30.93 30.925 30.943 30.93 30.903 30.908 30.86 30.893 30.88 30.85 30.813 30.84 30.788 30.77 30.733 30.675 30.663 30.618 30.573 30.59 30.573 30.548 30.538 30.595 30.615 30.62 30.64 30.645 30.6 30.555 30.505 30.455 30.455 30.418 30.368 30.388 30.393 30.42 30.455 30.488 30.528 30.538 30.553 30.538 30.555 30.555 30.528 30.52 30.46 30.435 30.393 30.36 30.34 30.273 30.253 30.265 30.268 30.263 30.305 30.288 30.303 30.308 30.318 30.315 30.325 30.293 30.303 30.283 30.32 30.303 30.293 30.275 30.28 30.27 30.248 30.253 30.225 30.188 30.18 30.153 30.12 30.12 30.068 30.068 30.063 30.083 30.11 30.12 30.165 30.127 30.115 30.165 30.2 30.215 30.25 30.255 30.275 30.307 30.262 30.237 30.32 30.49 30.502 30.477 30.552 30.592 30.485 30.4 30.345 30.27 30.257 30.24 30.235 30.205 30.182 30.157 30.145 30.117 30.145 30.14 30.127 30.13 30.125 30.127 30.152 30.177 30.197 30.215 30.192 30.212 30.217 30.2 30.207 30.187 30.147 30.137 30.065 30.012 30.015 29.945 29.905 29.89 29.84 29.82 29.822 29.765 29.7 29.635 29.595 29.5 29.427 29.367 29.272 29.24 29.195 29.13 29.095 29.087 29.007 29.007 28.937 28.907 28.82 28.767 28.7 28.61 28.637 28.61 28.55 28.55 28.485 28.48 28.487 28.47 28.492 28.5 28.437 28.455 28.472 28.485 28.542 28.555 28.51 28.535 28.505 28.5 28.477 28.437 28.467 28.45 28.392 28.355 28.362 28.375 28.33 28.35 28.352 28.365 28.397 28.455 28.497 28.53 28.627 28.625 28.637 28.685 28.767 28.765 28.84 28.897 28.92 28.94 28.95 29.025 29.042 29.07 29.097 29.132 29.152 29.125 29.11 29.105 29.12 29.115 29.122 29.127 29.13 29.107 29.13 29.13 29.092 29.092 29.107 29.1 29.065 29.007 28.987 28.949 28.947 28.859 28.847 28.817 28.769 28.692 28.664 28.632 28.589 28.547 28.504 28.459 28.434 28.444 28.359 28.322 28.287 28.259 28.262 28.272 28.197 28.232 28.192 28.227 28.229 28.217 28.259 28.267 28.312 28.307 28.309 28.334 28.312 28.284 28.227 28.229 28.222 28.219 28.267 28.279 28.307 28.322 28.297 28.324 27.744 26.657 27.202 28.362 28.544 28.394 28.294 28.219 28.104 28.022 27.967 27.939 27.904 27.954 27.949 28.012 28.087 28.142 28.227 28.329 28.394 28.514 28.632 28.744 28.877 28.987 29.139 29.292 29.364 29.477 29.564 29.599 29.689 29.702 29.667 29.664 29.552 29.477 29.372 29.339 29.192 29.087 28.969 28.822 28.694 28.537 28.367 28.202 28.067 27.984 27.949 27.959 27.952 27.949 28.004 28.036 28.119 28.154 28.209 28.294 28.286 28.276 28.251 28.206 28.206 28.174 28.089 28.121 28.061 27.994 28.024 28.019 28.026 28.034 28.051 28.006 28.089 28.046 28.046 28.051 28.014 28.011 28.009 28.026 28.029 28.079 28.119 28.121 28.146 28.131 28.169 28.194 28.201 28.221 28.274 28.314 28.319 28.301 28.351 28.391 28.394 28.439 28.519 28.611 28.686 28.736 28.804 28.891 28.894 28.921 28.961 29.019 29.029 29.039 29.069 29.096 29.131 29.126 29.149 29.204 29.219 29.251 29.289 29.326 29.316 29.329 29.319 29.334 29.336 29.314 29.316 29.321 29.339 29.364 29.351 29.324 29.349 29.359 29.356 29.436
30.798 30.86 30.82 30.82 30.818 30.803 30.82 30.86 30.88 30.9 30.943 30.948 30.933 30.913 30.905 30.895 30.883 30.85 30.838 30.828 30.838 30.823 30.785 30.73 30.708 30.67 30.658 30.605 30.603 30.568 30.53 30.555 30.588 30.623 30.605 30.623 30.63 30.608 30.575 30.5 30.465 30.455 30.423 30.383 30.41 30.443 30.45 30.483 30.513 30.56 30.603 30.608 30.598 30.603 30.615 30.58 30.585 30.533 30.463 30.405 30.38 30.363 30.28 30.26 30.24 30.233 30.248 30.265 30.26 30.29 30.305 30.32 30.295 30.288 30.318 30.318 30.27 30.315 30.308 30.28 30.27 30.253 30.233 30.253 30.248 30.215 30.163 30.165 30.145 30.14 30.115 30.095 30.048 30.053 30.085 30.118 30.13 30.185 30.177 30.177 30.21 30.21 30.23 30.292 30.292 30.307 30.322 30.302 30.277 30.3 30.432 30.492 30.5 30.475 30.435 30.392 30.447 30.397 30.257 30.22 30.165 30.177 30.165 30.142 30.17 30.15 30.137 30.147 30.115 30.105 30.132 30.142 30.12 30.152 30.137 30.18 30.195 30.212 30.225 30.215 30.215 30.215 30.172 30.147 30.122 30.047 30.012 29.995 29.955 29.977 29.96 29.93 29.86 29.872 29.82 29.78 29.737 29.637 29.542 29.47 29.37 29.307 29.27 29.217 29.18 29.125 29.097 29.067 28.995 29.002 28.907 28.835 28.787 28.722 28.637 28.625 28.612 28.577 28.545 28.54 28.507 28.517 28.5 28.477 28.455 28.427 28.447 28.5 28.49 28.502 28.52 28.552 28.52 28.495 28.497 28.495 28.51 28.462 28.437 28.392 28.395 28.36 28.35 28.362 28.382 28.342 28.345 28.39 28.412 28.442 28.522 28.572 28.55 28.605 28.642 28.665 28.735 28.78 28.815 28.847 28.872 28.88 28.927 28.997 29.03 29.047 29.082 29.11 29.092 29.082 29.077 29.1 29.097 29.127 29.092 29.105 29.06 29.055 29.077 29.037 29.05 29.067 29.022 28.97 28.967 28.97 28.927 28.897 28.814 28.829 28.799 28.747 28.654 28.637 28.637 28.544 28.527 28.462 28.424 28.387 28.372 28.322 28.327 28.277 28.247 28.212 28.222 28.182 28.204 28.207 28.224 28.232 28.232 28.267 28.314 28.334 28.294 28.309 28.319 28.292 28.282 28.267 28.254 28.249 28.204 28.269 28.284 28.354 28.377 28.357 28.349 27.962 26.759 27.192 28.167 28.504 28.384 28.299 28.209 28.122 28.054 27.994 27.939 27.954 27.962 27.989 28.027 28.099 28.157 28.287 28.344 28.414 28.527 28.624 28.734 28.867 29.017 29.124 29.287 29.382 29.439 29.564 29.619 29.654 29.652 29.682 29.637 29.544 29.472 29.402 29.342 29.192 29.092 28.952 28.794 28.629 28.499 28.339 28.177 28.109 27.997 27.924 27.929 27.957 27.964 27.999 28.036 28.116 28.159 28.211 28.246 28.274 28.279 28.249 28.219 28.214 28.166 28.106 28.101 28.069 28.054 28.034 28.034 28.016 27.991 28.066 28.061 28.106 28.089 28.079 28.054 27.986 27.999 27.994 28.026 28.061 28.044 28.084 28.136 28.161 28.146 28.156 28.171 28.201 28.239 28.246 28.304 28.281 28.301 28.321 28.326 28.384 28.424 28.529 28.571 28.649 28.714 28.756 28.874 28.899 28.926 28.976 28.999 29.024 29.071 29.074 29.111 29.121 29.129 29.169 29.181 29.231 29.236 29.269 29.306 29.321 29.351 29.349 29.344 29.329 29.316 29.334 29.341 29.339 29.354 29.346 29.324 29.334 29.356 29.364 29.401
30.753 30.798 30.835 30.84 30.803 30.8 30.82 30.85 30.88 30.88 30.888 30.928 30.935 30.925 30.898 30.888 30.873 30.865 30.853 30.815 30.798 30.795 30.798 30.735 30.758 30.713 30.675 30.615 30.605 30.57 30.555 30.568 30.58 30.603 30.61 30.595 30.605 30.59 30.57 30.513 30.468 30.438 30.44 30.4 30.435 30.45 30.493 30.525 30.605 30.633 30.655 30.695 30.7 30.683 30.683 30.683 30.648 30.59 30.52 30.44 30.408 30.35 30.293 30.253 30.23 30.25 30.243 30.238 30.268 30.283 30.288 30.293 30.29 30.298 30.293 30.318 30.303 30.305 30.335 30.288 30.248 30.26 30.258 30.228 30.23 30.215 30.17 30.16 30.14 30.138 30.095 30.113 30.075 30.085 30.113 30.145 30.172 30.185 30.2 30.22 30.197 30.235 30.24 30.31 30.322 30.357 30.37 30.347 30.305 30.315 30.42 30.5 30.462 30.42 30.395 30.46 30.54 30.422 30.272 30.207 30.15 30.14 30.1 30.085 30.105 30.102 30.087 30.082 30.07 30.087 30.072 30.102 30.087 30.102 30.14 30.195 30.175 30.177 30.242 30.227 30.217 30.212 30.147 30.135 30.107 30.022 30.025 30.05 30.04 30.025 30 29.987 29.922 29.932 29.902 29.842 29.717 29.635 29.587 29.49 29.385 29.335 29.272 29.285 29.242 29.165 29.145 29.08 29.027 29 28.945 28.86 28.767 28.735 28.652 28.645 28.632 28.62 28.572 28.592 28.57 28.522 28.545 28.535 28.48 28.46 28.43 28.457 28.48 28.49 28.527 28.515 28.49 28.507 28.527 28.55 28.502 28.47 28.46 28.437 28.432 28.425 28.385 28.36 28.337 28.335 28.32 28.337 28.385 28.415 28.485 28.522 28.55 28.602 28.605 28.627 28.64 28.705 28.767 28.807 28.815 28.855 28.935 28.94 28.957 29.025 29.025 29.027 29.042 29.037 29.035 29.062 29.032 29.027 29.055 29.06 29.04 29.022 28.99 29 29.025 29.022 29.007 28.977 28.952 28.925 28.907 28.894 28.802 28.774 28.759 28.697 28.644 28.609 28.572 28.529 28.444 28.452 28.387 28.382 28.332 28.249 28.242 28.229 28.202 28.172 28.209 28.189 28.192 28.207 28.249 28.229 28.262 28.282 28.272 28.289 28.277 28.289 28.309 28.292 28.327 28.284 28.297 28.234 28.242 28.274 28.304 28.339 28.377 28.322 28.357 27.872 26.814 27.227 28.152 28.527 28.389 28.319 28.199 28.122 28.077 28.014 27.942 27.922 27.927 27.987 28.024 28.122 28.197 28.242 28.339 28.414 28.502 28.604 28.712 28.839 28.982 29.109 29.224 29.359 29.442 29.569 29.602 29.614 29.652 29.672 29.622 29.517 29.404 29.372 29.294 29.184 29.084 28.909 28.794 28.619 28.469 28.299 28.157 28.072 27.989 27.932 27.947 27.944 27.949 28.007 28.029 28.096 28.149 28.206 28.231 28.261 28.281 28.261 28.219 28.216 28.179 28.106 28.109 28.079 28.044 28.046 28.024 28.021 27.999 28.066 28.106 28.124 28.119 28.116 28.084 28.064 28.049 27.989 28.009 28.046 28.036 28.044 28.106 28.136 28.141 28.129 28.124 28.164 28.206 28.186 28.266 28.296 28.279 28.281 28.331 28.356 28.419 28.491 28.546 28.626 28.694 28.721 28.851 28.876 28.901 28.971 29.014 29.036 29.099 29.114 29.101 29.116 29.139 29.159 29.214 29.236 29.244 29.254 29.279 29.301 29.344 29.336 29.346 29.331 29.334 29.384 29.351 29.354 29.366 29.364 29.324 29.324 29.344 29.354 29.391
30.765 30.79 30.818 30.845 30.813 30.785 30.798 30.853 30.853 30.885 30.89 30.875 30.893 30.92 30.91 30.883 30.873 30.868 30.855 30.84 30.848 30.81 30.83 30.795 30.765 30.725 30.678 30.633 30.603 30.59 30.55 30.545 30.565 30.548 30.568 30.58 30.568 30.55 30.513 30.453 30.428 30.453 30.43 30.43 30.448 30.475 30.533 30.593 30.675 30.72 30.71 30.72 30.775 30.785 30.765 30.738 30.725 30.655 30.585 30.533 30.44 30.355 30.348 30.293 30.28 30.235 30.258 30.265 30.258 30.273 30.308 30.313 30.3 30.278 30.315 30.318 30.283 30.253 30.298 30.295 30.24 30.258 30.253 30.223 30.2 30.195 30.18 30.143 30.11 30.103 30.095 30.088 30.093 30.098 30.125 30.205 30.197 30.2 30.24 30.252 30.247 30.247 30.27 30.347 30.357 30.382 30.4 30.355 30.317 30.307 30.342 30.377 30.332 30.297 30.267 30.385 30.462 30.372 30.315 30.147 30.09 30.052 30.04 30.042 30.1 30.085 30.03 30.052 30.052 30.052 30.04 30.065 30.06 30.03 30.09 30.115 30.155 30.172 30.172 30.207 30.2 30.16 30.14 30.077 30.06 30.035 30.025 30.045 30.045 30.045 30.037 29.98 30.03 29.977 29.935 29.867 29.762 29.72 29.657 29.525 29.47 29.412 29.355 29.302 29.25 29.217 29.19 29.132 29.072 29.007 28.96 28.89 28.79 28.747 28.675 28.66 28.687 28.672 28.637 28.657 28.622 28.577 28.582 28.54 28.497 28.5 28.442 28.492 28.497 28.505 28.55 28.537 28.525 28.545 28.517 28.52 28.51 28.465 28.45 28.445 28.397 28.35 28.342 28.322 28.35 28.345 28.33 28.332 28.35 28.395 28.45 28.485 28.542 28.562 28.575 28.595 28.637 28.662 28.742 28.772 28.79 28.812 28.882 28.875 28.902 28.927 28.975 28.97 28.985 28.975 28.995 28.977 28.965 28.99 28.982 28.955 28.975 28.967 29.005 29.002 28.99 28.962 28.955 28.947 28.915 28.885 28.859 28.827 28.779 28.782 28.719 28.629 28.609 28.574 28.499 28.469 28.427 28.452 28.364 28.289 28.249 28.214 28.222 28.167 28.164 28.137 28.159 28.167 28.174 28.237 28.232 28.209 28.234 28.307 28.297 28.307 28.299 28.302 28.274 28.294 28.289 28.292 28.304 28.279 28.267 28.259 28.277 28.337 28.377 28.377 28.354 27.634 26.864 27.174 28.194 28.552 28.404 28.312 28.237 28.112 28.077 28.032 27.974 27.919 27.924 27.967 28.037 28.122 28.192 28.232 28.314 28.409 28.474 28.612 28.709 28.782 28.949 29.089 29.202 29.327 29.444 29.549 29.594 29.639 29.612 29.634 29.599 29.524 29.444 29.367 29.254 29.139 29.034 28.909 28.774 28.589 28.462 28.292 28.149 28.054 27.997 27.914 27.907 27.939 27.934 27.987 28.044 28.079 28.139 28.216 28.244 28.246 28.239 28.241 28.191 28.179 28.159 28.126 28.114 28.101 28.071 28.081 28.066 28.021 28.046 28.114 28.124 28.169 28.169 28.126 28.129 28.076 28.029 28.031 28.016 28.061 28.084 28.079 28.121 28.149 28.154 28.126 28.116 28.146 28.174 28.196 28.221 28.254 28.261 28.261 28.309 28.351 28.419 28.486 28.539 28.614 28.686 28.759 28.834 28.874 28.886 28.929 28.979 29.019 29.071 29.094 29.101 29.134 29.134 29.144 29.199 29.241 29.256 29.271 29.286 29.321 29.296 29.306 29.329 29.351 29.336 29.369 29.356 29.354 29.376 29.351 29.349 29.349 29.314 29.331 29.386
30.748 30.783 30.798 30.825 30.79 30.805 30.788 30.855 30.868 30.873 30.895 30.915 30.883 30.875 30.895 30.883 30.86 30.855 30.873 30.803 30.828 30.813 30.813 30.803 30.77 30.74 30.693 30.675 30.635 30.598 30.543 30.54 30.563 30.543 30.535 30.528 30.568 30.55 30.493 30.473 30.475 30.468 30.438 30.433 30.49 30.52 30.57 30.65 30.738 30.773 30.768 30.793 30.853 30.865 30.818 30.748 30.783 30.743 30.658 30.593 30.48 30.425 30.385 30.335 30.283 30.283 30.258 30.25 30.288 30.298 30.31 30.285 30.305 30.31 30.288 30.283 30.285 30.253 30.268 30.268 30.223 30.248 30.233 30.203 30.173 30.175 30.168 30.123 30.103 30.073 30.115 30.11 30.105 30.128 30.143 30.205 30.2 30.232 30.247 30.265 30.262 30.305 30.35 30.365 30.375 30.412 30.425 30.38 30.33 30.305 30.265 30.342 30.33 30.225 30.13 30.24 30.307 30.325 30.28 30.142 30.042 30.012 30.007 30.015 30.04 30.042 29.99 30 30.04 30.017 29.997 30.002 30.015 30.005 30.015 30.042 30.12 30.125 30.152 30.19 30.177 30.155 30.145 30.107 30.05 30.032 30.045 30.065 30.075 30.112 30.075 30.027 30.055 30.015 29.98 29.897 29.837 29.78 29.687 29.615 29.525 29.437 29.41 29.367 29.337 29.285 29.252 29.187 29.12 29.055 28.977 28.905 28.847 28.78 28.752 28.722 28.695 28.69 28.667 28.677 28.65 28.59 28.577 28.545 28.51 28.505 28.5 28.54 28.535 28.56 28.552 28.557 28.575 28.582 28.557 28.502 28.497 28.515 28.467 28.497 28.432 28.41 28.372 28.35 28.315 28.302 28.325 28.332 28.35 28.42 28.435 28.47 28.482 28.48 28.51 28.55 28.587 28.605 28.677 28.677 28.757 28.765 28.802 28.835 28.847 28.842 28.882 28.892 28.92 28.965 28.957 28.937 28.887 28.917 28.92 28.942 28.95 28.92 28.962 28.932 28.932 28.882 28.907 28.872 28.875 28.855 28.812 28.777 28.767 28.707 28.674 28.599 28.562 28.514 28.472 28.419 28.374 28.379 28.304 28.219 28.214 28.187 28.194 28.189 28.184 28.179 28.187 28.139 28.159 28.187 28.217 28.194 28.217 28.257 28.269 28.307 28.299 28.334 28.307 28.277 28.262 28.329 28.324 28.287 28.259 28.274 28.299 28.332 28.384 28.354 28.394 27.782 26.942 27.059 28.127 28.569 28.417 28.319 28.252 28.109 28.057 28.054 27.999 27.944 27.952 27.989 28.027 28.112 28.159 28.229 28.287 28.394 28.474 28.609 28.692 28.767 28.922 29.052 29.162 29.287 29.429 29.514 29.549 29.634 29.637 29.627 29.599 29.517 29.437 29.407 29.229 29.087 29.009 28.912 28.724 28.564 28.432 28.284 28.137 28.057 27.989 27.929 27.907 27.927 27.942 27.997 28.061 28.096 28.126 28.186 28.241 28.249 28.231 28.231 28.191 28.179 28.176 28.111 28.109 28.091 28.056 28.046 28.076 28.034 28.069 28.139 28.159 28.176 28.211 28.159 28.134 28.114 28.106 28.069 28.041 28.101 28.114 28.126 28.124 28.134 28.156 28.146 28.146 28.114 28.164 28.179 28.181 28.234 28.246 28.254 28.309 28.351 28.401 28.486 28.544 28.589 28.659 28.711 28.799 28.854 28.879 28.929 28.959 29.019 29.084 29.079 29.124 29.164 29.149 29.136 29.186 29.231 29.241 29.299 29.329 29.316 29.301 29.314 29.331 29.326 29.309 29.351 29.359 29.341 29.334 29.356 29.344 29.316 29.311 29.334 29.356
30.765 30.813 30.828 30.828 30.805 30.803 30.788 30.823 30.84 30.878 30.895 30.91 30.893 30.883 30.883 30.848 30.855 30.86 30.885 30.83 30.828 30.82 30.81 30.818 30.773 30.73 30.738 30.7 30.645 30.603 30.58 30.545 30.545 30.548 30.558 30.545 30.54 30.558 30.525 30.49 30.45 30.453 30.48 30.468 30.498 30.555 30.598 30.683 30.78 30.815 30.825 30.883 30.898 30.89 30.883 30.84 30.805 30.788 30.733 30.64 30.518 30.495 30.408 30.348 30.285 30.27 30.27 30.258 30.25 30.293 30.305 30.295 30.308 30.32 30.293 30.305 30.305 30.263 30.283 30.26 30.255 30.23 30.213 30.208 30.193 30.145 30.138 30.115 30.13 30.098 30.09 30.085 30.163 30.138 30.165 30.163 30.212 30.26 30.29 30.307 30.335 30.34 30.355 30.387 30.425 30.417 30.43 30.402 30.32 30.257 30.202 30.275 30.32 30.197 30.125 30.167 30.315 30.27 30.13 30.135 30.05 29.952 29.967 29.977 29.972 30.005 29.992 29.972 29.997 29.952 29.942 29.942 29.942 29.945 29.96 30.012 30.077 30.05 30.09 30.11 30.095 30.08 30.08 30.097 30.09 30.05 30.087 30.087 30.125 30.155 30.142 30.11 30.112 30.062 30.002 29.955 29.887 29.787 29.677 29.64 29.557 29.48 29.415 29.422 29.38 29.36 29.315 29.2 29.165 29.105 29.025 28.947 28.875 28.837 28.812 28.722 28.717 28.692 28.67 28.66 28.625 28.59 28.565 28.552 28.54 28.522 28.515 28.552 28.567 28.56 28.567 28.602 28.585 28.645 28.575 28.54 28.487 28.52 28.5 28.482 28.43 28.43 28.365 28.362 28.36 28.327 28.327 28.37 28.377 28.392 28.427 28.435 28.477 28.49 28.49 28.54 28.54 28.572 28.607 28.655 28.69 28.72 28.737 28.74 28.78 28.822 28.845 28.862 28.87 28.862 28.867 28.885 28.892 28.895 28.91 28.872 28.86 28.865 28.87 28.88 28.862 28.862 28.835 28.807 28.787 28.78 28.739 28.704 28.709 28.692 28.639 28.577 28.527 28.467 28.399 28.392 28.334 28.279 28.229 28.224 28.182 28.192 28.174 28.179 28.189 28.142 28.139 28.129 28.169 28.169 28.199 28.187 28.182 28.217 28.234 28.297 28.272 28.284 28.304 28.292 28.274 28.277 28.319 28.307 28.279 28.302 28.317 28.357 28.372 28.374 28.384 28.162 26.957 26.852 28.047 28.557 28.414 28.332 28.269 28.134 28.037 28.059 28.022 27.954 27.957 27.984 28.047 28.099 28.184 28.232 28.309 28.397 28.469 28.597 28.674 28.822 28.927 29.037 29.139 29.277 29.374 29.474 29.559 29.612 29.617 29.607 29.609 29.497 29.432 29.339 29.252 29.087 28.964 28.842 28.684 28.572 28.422 28.302 28.157 28.037 27.969 27.907 27.879 27.917 27.949 27.957 28.034 28.104 28.146 28.194 28.234 28.244 28.234 28.244 28.224 28.176 28.189 28.119 28.101 28.086 28.061 28.059 28.071 28.119 28.174 28.156 28.204 28.211 28.209 28.204 28.164 28.144 28.131 28.094 28.074 28.106 28.084 28.126 28.156 28.171 28.176 28.156 28.156 28.141 28.156 28.134 28.136 28.176 28.194 28.266 28.316 28.379 28.401 28.451 28.546 28.604 28.659 28.689 28.769 28.851 28.899 28.961 28.986 29.039 29.091 29.106 29.126 29.154 29.154 29.161 29.204 29.219 29.231 29.269 29.319 29.319 29.326 29.326 29.359 29.344 29.324 29.374 29.329 29.319 29.324 29.351 29.346 29.326 29.334 29.321 29.336
30.798 30.825 30.823 30.81 30.815 30.835 30.823 30.81 30.795 30.87 30.91 30.923 30.888 30.908 30.883 30.865 30.86 30.865 30.868 30.86 30.85 30.83 30.778 30.773 30.77 30.738 30.753 30.69 30.663 30.613 30.605 30.583 30.55 30.543 30.538 30.535 30.545 30.548 30.538 30.478 30.455 30.455 30.465 30.475 30.508 30.573 30.64 30.755 30.815 30.83 30.908 30.95 30.973 30.963 30.935 30.893 30.828 30.803 30.76 30.678 30.605 30.523 30.445 30.333 30.265 30.238 30.218 30.23 30.25 30.278 30.283 30.293 30.3 30.258 30.29 30.293 30.285 30.275 30.265 30.238 30.245 30.223 30.215 30.228 30.193 30.158 30.13 30.083 30.123 30.07 30.1 30.093 30.168 30.185 30.193 30.215 30.275 30.312 30.33 30.367 30.415 30.39 30.412 30.42 30.437 30.417 30.427 30.385 30.287 30.242 30.177 30.177 30.2 30.007 30.02 30.062 30.172 30.25 30.182 30.18 30.047 29.955 29.915 29.937 29.93 29.957 29.962 29.947 29.96 29.927 29.94 29.95 29.94 29.95 29.977 29.992 30.007 30.007 30.045 30.045 30.03 30.06 30.082 30.08 30.1 30.09 30.107 30.157 30.175 30.165 30.177 30.147 30.122 30.107 30.08 30.047 29.965 29.815 29.677 29.635 29.57 29.547 29.497 29.445 29.392 29.327 29.28 29.242 29.202 29.125 29.055 28.982 28.9 28.857 28.81 28.77 28.7 28.667 28.72 28.68 28.652 28.652 28.59 28.56 28.597 28.575 28.585 28.62 28.577 28.535 28.59 28.615 28.585 28.587 28.572 28.577 28.56 28.575 28.575 28.572 28.502 28.43 28.42 28.422 28.375 28.35 28.34 28.352 28.325 28.385 28.41 28.412 28.415 28.425 28.427 28.46 28.522 28.577 28.597 28.632 28.652 28.64 28.687 28.692 28.717 28.752 28.777 28.785 28.792 28.81 28.855 28.84 28.865 28.85 28.88 28.827 28.81 28.812 28.78 28.802 28.795 28.787 28.8 28.79 28.717 28.687 28.684 28.692 28.684 28.622 28.599 28.509 28.457 28.424 28.364 28.307 28.294 28.274 28.224 28.242 28.184 28.174 28.142 28.112 28.157 28.127 28.124 28.112 28.144 28.144 28.199 28.127 28.139 28.197 28.252 28.264 28.257 28.304 28.287 28.272 28.249 28.227 28.289 28.342 28.312 28.264 28.334 28.347 28.377 28.404 28.422 28.222 27.037 26.892 27.929 28.552 28.434 28.359 28.242 28.124 28.087 28.059 28.032 27.969 27.972 27.994 28.062 28.084 28.157 28.212 28.292 28.372 28.482 28.592 28.719 28.807 28.899 29.034 29.132 29.264 29.387 29.482 29.569 29.587 29.602 29.577 29.579 29.499 29.407 29.322 29.229 29.059 28.942 28.812 28.662 28.504 28.432 28.292 28.157 28.044 27.984 27.909 27.904 27.889 27.937 27.989 28.056 28.099 28.166 28.214 28.246 28.264 28.239 28.246 28.221 28.199 28.164 28.106 28.086 28.091 28.084 28.099 28.089 28.096 28.201 28.194 28.214 28.254 28.286 28.239 28.209 28.204 28.179 28.141 28.136 28.136 28.136 28.166 28.186 28.191 28.169 28.179 28.146 28.159 28.166 28.111 28.144 28.166 28.176 28.206 28.279 28.344 28.379 28.449 28.484 28.521 28.626 28.726 28.811 28.849 28.886 28.964 29.004 29.044 29.066 29.086 29.109 29.146 29.166 29.196 29.226 29.219 29.239 29.276 29.309 29.319 29.316 29.331 29.351 29.339 29.324 29.394 29.346 29.344 29.346 29.339 29.334 29.331 29.334 29.334 29.336
30.813 30.86 30.805 30.79 30.768 30.818 30.815 30.815 30.788 30.83 30.88 30.918 30.905 30.895 30.898 30.888 30.87 30.865 30.838 30.85 30.85 30.843 30.798 30.77 30.793 30.755 30.733 30.705 30.658 30.603 30.64 30.57 30.565 30.57 30.543 30.525 30.53 30.545 30.528 30.465 30.47 30.46 30.453 30.478 30.543 30.625 30.683 30.785 30.835 30.898 30.933 30.973 30.985 31.033 30.995 30.955 30.9 30.85 30.763 30.705 30.608 30.533 30.453 30.343 30.298 30.248 30.223 30.248 30.253 30.238 30.278 30.288 30.283 30.315 30.268 30.27 30.255 30.248 30.253 30.223 30.255 30.195 30.203 30.173 30.185 30.143 30.128 30.12 30.135 30.11 30.12 30.143 30.185 30.225 30.235 30.235 30.33 30.33 30.367 30.4 30.412 30.432 30.442 30.442 30.44 30.397 30.4 30.375 30.297 30.245 30.217 30.117 30.14 30.1 30.04 29.95 30.192 30.367 30.265 30.2 30.14 29.98 29.912 29.917 29.932 29.947 29.96 29.947 29.95 29.91 29.882 29.947 29.932 29.94 29.947 29.95 29.965 30.04 30 30 30.01 30.042 30.062 30.057 30.062 30.067 30.087 30.142 30.142 30.11 30.207 30.152 30.195 30.175 30.132 30.095 29.982 29.9 29.8 29.71 29.612 29.555 29.522 29.497 29.435 29.352 29.315 29.302 29.237 29.15 29.045 28.982 28.915 28.87 28.86 28.8 28.737 28.7 28.722 28.7 28.655 28.652 28.585 28.585 28.57 28.59 28.595 28.587 28.607 28.59 28.587 28.6 28.592 28.575 28.585 28.585 28.602 28.61 28.557 28.577 28.487 28.46 28.44 28.387 28.357 28.387 28.39 28.365 28.362 28.357 28.382 28.41 28.407 28.4 28.4 28.417 28.505 28.545 28.557 28.58 28.592 28.602 28.655 28.66 28.7 28.717 28.75 28.747 28.715 28.8 28.805 28.785 28.815 28.785 28.802 28.79 28.782 28.795 28.77 28.732 28.732 28.725 28.76 28.727 28.687 28.652 28.659 28.647 28.579 28.574 28.527 28.442 28.387 28.369 28.344 28.277 28.217 28.209 28.232 28.162 28.112 28.102 28.097 28.094 28.114 28.122 28.109 28.152 28.129 28.147 28.152 28.149 28.154 28.177 28.232 28.237 28.254 28.287 28.257 28.257 28.254 28.197 28.257 28.287 28.292 28.272 28.304 28.317 28.342 28.399 28.427 27.974 26.997 26.857 28.017 28.604 28.497 28.359 28.282 28.132 28.077 28.069 28.014 27.967 27.944 28.007 28.047 28.092 28.177 28.229 28.282 28.362 28.447 28.572 28.642 28.779 28.912 29.032 29.132 29.262 29.399 29.469 29.539 29.572 29.594 29.567 29.534 29.472 29.384 29.299 29.197 29.067 28.944 28.802 28.659 28.504 28.367 28.262 28.144 28.052 27.979 27.904 27.894 27.917 27.957 28.004 28.071 28.086 28.164 28.199 28.264 28.246 28.271 28.219 28.226 28.199 28.184 28.139 28.099 28.096 28.056 28.109 28.161 28.159 28.209 28.231 28.234 28.276 28.281 28.271 28.296 28.231 28.216 28.189 28.156 28.149 28.144 28.164 28.186 28.181 28.179 28.214 28.174 28.139 28.161 28.131 28.146 28.169 28.169 28.184 28.259 28.299 28.379 28.446 28.469 28.526 28.586 28.661 28.774 28.831 28.876 28.949 29.001 29.021 29.066 29.091 29.094 29.156 29.164 29.166 29.186 29.159 29.184 29.246 29.281 29.311 29.319 29.336 29.346 29.351 29.349 29.376 29.346 29.344 29.336 29.356 29.319 29.324 29.314 29.331 29.316
30.738 30.718 30.773 30.815 30.78 30.82 30.815 30.793 30.788 30.833 30.878 30.898 30.905 30.898 30.893 30.873 30.918 30.898 30.86 30.868 30.853 30.853 30.818 30.805 30.818 30.76 30.733 30.73 30.698 30.633 30.64 30.6 30.563 30.543 30.555 30.573 30.523 30.518 30.495 30.49 30.465 30.48 30.488 30.52 30.568 30.663 30.705 30.77 30.843 30.913 30.975 31.01 31.04 31.038 31.018 30.993 30.945 30.883 30.79 30.733 30.615 30.503 30.455 30.383 30.293 30.25 30.22 30.198 30.213 30.238 30.238 30.285 30.285 30.293 30.275 30.268 30.258 30.27 30.275 30.223 30.218 30.205 30.185 30.14 30.125 30.103 30.103 30.13 30.125 30.118 30.118 30.148 30.228 30.255 30.258 30.278 30.345 30.392 30.417 30.43 30.43 30.457 30.46 30.425 30.415 30.402 30.362 30.335 30.332 30.235 30.17 30.09 30.077 30.117 30.095 29.965 30.15 30.315 30.252 30.21 30.17 30.045 29.942 29.922 29.945 29.942 29.97 29.957 29.93 29.915 29.897 29.94 29.95 29.93 29.885 29.902 29.9 29.927 29.96 29.927 29.962 29.94 29.96 29.995 30.037 30.04 30.08 30.105 30.132 30.172 30.23 30.21 30.215 30.16 30.152 30.075 30.022 29.937 29.82 29.765 29.687 29.62 29.59 29.522 29.487 29.44 29.377 29.3 29.262 29.175 29.072 28.972 28.922 28.875 28.855 28.787 28.747 28.712 28.702 28.705 28.695 28.672 28.625 28.597 28.6 28.607 28.627 28.6 28.637 28.632 28.587 28.592 28.637 28.637 28.652 28.635 28.615 28.622 28.57 28.57 28.562 28.547 28.512 28.422 28.37 28.36 28.335 28.352 28.392 28.342 28.35 28.36 28.39 28.387 28.372 28.375 28.447 28.472 28.527 28.515 28.507 28.577 28.615 28.667 28.69 28.692 28.685 28.7 28.712 28.745 28.735 28.727 28.765 28.745 28.762 28.76 28.742 28.732 28.69 28.662 28.687 28.667 28.697 28.677 28.655 28.645 28.622 28.602 28.534 28.494 28.457 28.397 28.379 28.324 28.307 28.252 28.229 28.192 28.184 28.159 28.114 28.094 28.059 28.069 28.092 28.099 28.114 28.142 28.087 28.117 28.137 28.159 28.177 28.197 28.212 28.209 28.237 28.204 28.232 28.249 28.202 28.202 28.252 28.284 28.309 28.289 28.302 28.292 28.294 28.352 28.407 28.249 27.087 26.742 27.929 28.574 28.467 28.357 28.314 28.162 28.112 28.062 28.014 27.997 27.957 28.004 28.044 28.127 28.169 28.229 28.257 28.352 28.439 28.582 28.659 28.732 28.897 29.007 29.164 29.282 29.384 29.459 29.564 29.582 29.582 29.562 29.522 29.464 29.374 29.302 29.209 29.077 28.919 28.784 28.637 28.489 28.377 28.242 28.144 28.047 27.982 27.899 27.884 27.912 27.957 28.012 28.064 28.091 28.149 28.196 28.209 28.204 28.259 28.221 28.244 28.184 28.154 28.144 28.161 28.126 28.106 28.109 28.136 28.136 28.189 28.234 28.259 28.291 28.309 28.286 28.306 28.291 28.239 28.224 28.181 28.166 28.159 28.169 28.211 28.189 28.194 28.171 28.184 28.136 28.181 28.131 28.124 28.139 28.149 28.176 28.246 28.296 28.376 28.416 28.484 28.549 28.599 28.671 28.766 28.814 28.871 28.974 28.994 28.996 29.056 29.086 29.119 29.116 29.141 29.174 29.179 29.179 29.204 29.261 29.261 29.284 29.334 29.336 29.336 29.339 29.341 29.384 29.369 29.356 29.356 29.351 29.349 29.309 29.331 29.326 29.321
30.53 30.675 30.793 30.825 30.818 30.83 30.795 30.778 30.82 30.828 30.89 30.888 30.91 30.905 30.903 30.89 30.925 30.888 30.895 30.893 30.86 30.86 30.83 30.803 30.803 30.805 30.753 30.75 30.718 30.69 30.633 30.635 30.575 30.528 30.515 30.54 30.495 30.488 30.478 30.48 30.468 30.483 30.515 30.533 30.578 30.643 30.738 30.788 30.875 30.965 31.033 31.065 31.053 31.063 31.033 31.013 30.948 30.878 30.815 30.748 30.658 30.503 30.433 30.288 30.27 30.225 30.213 30.203 30.213 30.24 30.268 30.285 30.28 30.293 30.29 30.293 30.278 30.268 30.253 30.245 30.205 30.213 30.173 30.165 30.095 30.08 30.103 30.13 30.128 30.15 30.16 30.193 30.243 30.295 30.325 30.345 30.362 30.44 30.477 30.47 30.492 30.465 30.462 30.44 30.405 30.385 30.387 30.357 30.327 30.235 30.172 30.107 30.042 30.082 30.125 30.067 30.045 30.18 30.222 30.147 30.157 30.125 29.985 29.902 29.932 29.957 29.93 29.952 29.922 29.922 29.907 29.89 29.877 29.912 29.885 29.86 29.825 29.87 29.875 29.882 29.907 29.907 29.935 29.952 29.97 30.052 30.1 30.125 30.18 30.217 30.205 30.245 30.222 30.202 30.187 30.147 30.07 29.97 29.882 29.847 29.737 29.657 29.627 29.562 29.52 29.44 29.377 29.33 29.28 29.21 29.107 29.037 28.952 28.905 28.882 28.81 28.77 28.727 28.785 28.717 28.695 28.67 28.627 28.625 28.62 28.655 28.672 28.667 28.637 28.675 28.622 28.612 28.68 28.622 28.635 28.647 28.647 28.675 28.622 28.587 28.615 28.56 28.507 28.475 28.442 28.402 28.382 28.402 28.41 28.37 28.37 28.402 28.37 28.377 28.367 28.365 28.402 28.405 28.427 28.455 28.487 28.54 28.567 28.632 28.615 28.667 28.665 28.687 28.677 28.67 28.707 28.725 28.712 28.722 28.685 28.702 28.71 28.657 28.635 28.612 28.612 28.62 28.627 28.625 28.612 28.58 28.549 28.504 28.462 28.449 28.384 28.359 28.327 28.269 28.244 28.252 28.219 28.177 28.172 28.139 28.144 28.097 28.067 28.074 28.122 28.094 28.137 28.147 28.109 28.112 28.139 28.157 28.209 28.197 28.187 28.207 28.227 28.212 28.197 28.242 28.202 28.207 28.264 28.284 28.317 28.297 28.287 28.302 28.302 28.342 28.379 27.969 27.109 26.969 27.862 28.524 28.414 28.319 28.292 28.194 28.092 28.072 27.989 27.957 27.957 27.994 28.034 28.117 28.182 28.227 28.269 28.347 28.459 28.579 28.682 28.759 28.859 28.999 29.132 29.269 29.349 29.477 29.544 29.582 29.572 29.557 29.509 29.494 29.354 29.287 29.187 29.047 28.872 28.749 28.657 28.494 28.352 28.244 28.109 28.002 27.969 27.902 27.872 27.907 27.939 27.997 28.046 28.104 28.146 28.176 28.229 28.251 28.234 28.254 28.264 28.219 28.179 28.149 28.134 28.121 28.106 28.109 28.156 28.156 28.231 28.239 28.276 28.276 28.309 28.304 28.314 28.324 28.324 28.266 28.211 28.219 28.206 28.196 28.214 28.219 28.176 28.166 28.159 28.126 28.156 28.161 28.141 28.149 28.144 28.176 28.239 28.274 28.334 28.374 28.456 28.551 28.574 28.676 28.774 28.784 28.846 28.916 28.956 28.994 29.044 29.089 29.084 29.106 29.131 29.151 29.189 29.189 29.181 29.229 29.219 29.254 29.324 29.334 29.331 29.329 29.306 29.341 29.356 29.349 29.356 29.336 29.324 29.336 29.331 29.304 29.339
30.548 30.718 30.805 30.76 30.805 30.823 30.788 30.745 30.79 30.82 30.868 30.898 30.883 30.89 30.893 30.903 30.91 30.888 30.893 30.893 30.903 30.84 30.838 30.815 30.815 30.808 30.76 30.693 30.708 30.683 30.63 30.635 30.588 30.523 30.518 30.525 30.485 30.468 30.465 30.495 30.475 30.468 30.505 30.548 30.583 30.658 30.748 30.823 30.935 30.965 31.033 31.045 31.065 31.083 31.048 31.04 30.973 30.913 30.818 30.743 30.655 30.543 30.45 30.353 30.265 30.22 30.218 30.208 30.225 30.215 30.215 30.265 30.293 30.308 30.3 30.248 30.275 30.263 30.278 30.25 30.203 30.203 30.175 30.158 30.105 30.068 30.095 30.09 30.135 30.145 30.183 30.225 30.248 30.328 30.428 30.415 30.425 30.47 30.52 30.532 30.54 30.517 30.505 30.46 30.412 30.345 30.33 30.302 30.305 30.26 30.195 30.117 30.052 30.085 30.147 30.192 30.092 30.142 30.222 30.182 30.19 30.22 30.042 29.952 29.937 29.94 29.96 29.965 29.957 29.932 29.925 29.927 29.902 29.877 29.875 29.855 29.83 29.857 29.84 29.82 29.825 29.88 29.865 29.915 30.007 30.012 30.045 30.085 30.15 30.207 30.207 30.26 30.237 30.225 30.21 30.185 30.102 30.04 29.905 29.91 29.74 29.677 29.665 29.612 29.527 29.482 29.44 29.352 29.29 29.237 29.162 29.037 28.975 28.94 28.897 28.845 28.8 28.74 28.777 28.735 28.675 28.687 28.675 28.665 28.712 28.737 28.675 28.665 28.647 28.677 28.65 28.675 28.71 28.65 28.67 28.665 28.69 28.682 28.635 28.607 28.602 28.63 28.555 28.527 28.485 28.467 28.44 28.41 28.402 28.335 28.365 28.362 28.335 28.372 28.38 28.382 28.345 28.407 28.425 28.432 28.472 28.482 28.522 28.527 28.542 28.582 28.625 28.62 28.637 28.61 28.655 28.67 28.68 28.672 28.702 28.612 28.687 28.645 28.61 28.567 28.585 28.587 28.597 28.57 28.542 28.51 28.484 28.439 28.377 28.349 28.329 28.309 28.264 28.244 28.224 28.234 28.192 28.149 28.119 28.072 28.102 28.122 28.079 28.114 28.134 28.094 28.119 28.144 28.119 28.122 28.152 28.142 28.174 28.169 28.144 28.159 28.207 28.177 28.187 28.237 28.202 28.209 28.279 28.297 28.252 28.297 28.264 28.277 28.299 28.334 28.292 27.717 27.009 26.982 27.757 28.427 28.414 28.319 28.264 28.132 28.017 28.029 28.019 27.964 27.987 28.027 28.019 28.062 28.144 28.214 28.264 28.349 28.434 28.557 28.704 28.792 28.892 28.982 29.122 29.244 29.359 29.482 29.529 29.569 29.584 29.567 29.544 29.457 29.349 29.284 29.139 29.022 28.889 28.717 28.602 28.472 28.347 28.212 28.122 28.004 27.982 27.924 27.884 27.897 27.964 28.012 28.066 28.136 28.189 28.194 28.244 28.216 28.236 28.219 28.209 28.214 28.199 28.146 28.121 28.126 28.126 28.154 28.139 28.199 28.234 28.244 28.304 28.331 28.339 28.361 28.361 28.329 28.331 28.304 28.254 28.289 28.254 28.234 28.214 28.206 28.206 28.179 28.181 28.114 28.161 28.136 28.154 28.151 28.149 28.204 28.269 28.299 28.359 28.401 28.469 28.516 28.551 28.629 28.746 28.819 28.861 28.919 28.966 29.004 29.034 29.056 29.086 29.089 29.151 29.139 29.174 29.164 29.189 29.231 29.234 29.244 29.289 29.329 29.331 29.331 29.306 29.319 29.349 29.371 29.386 29.334 29.351 29.359 29.299 29.286 29.326
30.62 30.77 30.785 30.73 30.763 30.788 30.8 30.765 30.755 30.82 30.845 30.853 30.89 30.908 30.87 30.903 30.925 30.898 30.898 30.908 30.91 30.84 30.85 30.843 30.848 30.778 30.758 30.735 30.683 30.68 30.628 30.575 30.58 30.548 30.528 30.513 30.475 30.45 30.45 30.473 30.513 30.473 30.51 30.563 30.6 30.68 30.788 30.833 30.905 31 31.055 31.07 31.078 31.115 31.133 31.083 30.978 30.93 30.838 30.743 30.658 30.548 30.45 30.363 30.285 30.255 30.228 30.198 30.213 30.213 30.233 30.288 30.288 30.283 30.255 30.265 30.253 30.238 30.25 30.228 30.195 30.185 30.183 30.148 30.098 30.1 30.068 30.103 30.138 30.178 30.215 30.278 30.295 30.383 30.458 30.46 30.502 30.522 30.56 30.58 30.59 30.547 30.477 30.45 30.412 30.337 30.312 30.295 30.252 30.255 30.227 30.175 30.132 30.08 30.152 30.252 30.237 30.122 30.147 30.172 30.217 30.272 30.135 29.992 29.942 29.945 29.965 29.985 29.967 29.925 29.877 29.912 29.927 29.887 29.865 29.85 29.79 29.777 29.807 29.792 29.757 29.797 29.817 29.927 29.96 30.002 30.005 30.05 30.137 30.195 30.24 30.267 30.275 30.22 30.275 30.212 30.112 30.032 29.955 29.915 29.752 29.712 29.597 29.585 29.517 29.515 29.477 29.405 29.322 29.237 29.15 29.077 29.017 29.005 28.89 28.875 28.817 28.785 28.777 28.747 28.735 28.747 28.722 28.692 28.737 28.75 28.73 28.722 28.697 28.722 28.695 28.702 28.742 28.712 28.735 28.707 28.682 28.685 28.64 28.64 28.575 28.597 28.597 28.577 28.537 28.467 28.472 28.437 28.405 28.352 28.332 28.325 28.322 28.387 28.385 28.35 28.345 28.402 28.437 28.417 28.435 28.462 28.462 28.512 28.547 28.547 28.542 28.545 28.607 28.58 28.577 28.57 28.612 28.585 28.585 28.585 28.585 28.545 28.512 28.5 28.537 28.535 28.537 28.522 28.48 28.482 28.417 28.367 28.369 28.287 28.289 28.254 28.222 28.192 28.182 28.207 28.149 28.127 28.087 28.087 28.054 28.094 28.072 28.127 28.132 28.164 28.137 28.164 28.097 28.094 28.119 28.129 28.169 28.167 28.169 28.197 28.199 28.157 28.182 28.212 28.187 28.212 28.249 28.257 28.247 28.274 28.302 28.292 28.277 28.324 28.339 28.279 27.352 26.859 27.522 28.294 28.399 28.267 28.217 28.077 27.989 27.984 28.002 27.989 27.979 28.022 28.022 28.057 28.109 28.224 28.264 28.324 28.447 28.547 28.679 28.789 28.872 29.012 29.119 29.267 29.342 29.489 29.544 29.577 29.544 29.524 29.522 29.442 29.319 29.239 29.139 29.029 28.859 28.707 28.569 28.442 28.319 28.212 28.112 28.012 27.984 27.922 27.882 27.912 27.977 28.012 28.069 28.089 28.176 28.194 28.216 28.214 28.231 28.196 28.199 28.229 28.206 28.166 28.151 28.109 28.091 28.159 28.136 28.194 28.234 28.266 28.291 28.381 28.396 28.394 28.384 28.369 28.361 28.336 28.306 28.286 28.299 28.264 28.234 28.239 28.239 28.186 28.196 28.154 28.164 28.174 28.151 28.154 28.166 28.201 28.239 28.291 28.346 28.404 28.424 28.489 28.561 28.611 28.706 28.806 28.834 28.884 28.946 28.994 29.034 29.066 29.069 29.114 29.106 29.096 29.146 29.181 29.184 29.226 29.226 29.254 29.269 29.289 29.286 29.319 29.314 29.351 29.374 29.351 29.354 29.369 29.306 29.321 29.279 29.311 29.349
30.633 30.768 30.758 30.668 30.765 30.78 30.748 30.755 30.78 30.795 30.84 30.868 30.87 30.893 30.91 30.928 30.948 30.968 30.93 30.885 30.948 30.905 30.893 30.873 30.82 30.778 30.768 30.718 30.683 30.663 30.635 30.59 30.57 30.558 30.523 30.505 30.468 30.438 30.408 30.45 30.518 30.503 30.533 30.603 30.623 30.705 30.765 30.86 30.918 31.02 31.08 31.14 31.14 31.118 31.11 31.1 31.005 30.925 30.838 30.728 30.65 30.54 30.418 30.328 30.278 30.233 30.2 30.183 30.208 30.22 30.223 30.253 30.305 30.288 30.258 30.26 30.263 30.248 30.235 30.233 30.205 30.183 30.195 30.173 30.133 30.125 30.098 30.115 30.183 30.218 30.3 30.343 30.348 30.43 30.48 30.51 30.57 30.567 30.592 30.577 30.58 30.527 30.512 30.472 30.435 30.345 30.322 30.327 30.295 30.272 30.272 30.22 30.19 30.127 30.115 30.262 30.312 30.155 30.115 30.16 30.27 30.325 30.242 30.072 29.967 29.942 29.96 29.987 29.962 29.935 29.925 29.875 29.895 29.877 29.865 29.822 29.787 29.757 29.772 29.745 29.722 29.745 29.785 29.855 29.922 29.947 29.957 30.057 30.14 30.217 30.265 30.23 30.225 30.25 30.227 30.167 30.147 30.062 29.992 29.892 29.827 29.725 29.627 29.59 29.552 29.525 29.477 29.427 29.367 29.305 29.225 29.11 29.027 28.977 28.927 28.875 28.81 28.827 28.792 28.75 28.727 28.742 28.747 28.727 28.745 28.702 28.73 28.725 28.71 28.727 28.715 28.72 28.712 28.747 28.715 28.69 28.69 28.682 28.662 28.652 28.59 28.6 28.57 28.59 28.522 28.452 28.445 28.417 28.435 28.372 28.405 28.397 28.365 28.367 28.362 28.352 28.357 28.375 28.385 28.387 28.485 28.49 28.467 28.485 28.507 28.517 28.545 28.515 28.572 28.547 28.562 28.542 28.515 28.51 28.492 28.48 28.482 28.482 28.455 28.447 28.497 28.477 28.475 28.427 28.412 28.407 28.332 28.294 28.309 28.314 28.247 28.209 28.179 28.212 28.182 28.144 28.107 28.109 28.064 28.047 28.057 28.067 28.087 28.067 28.094 28.127 28.142 28.164 28.122 28.157 28.109 28.107 28.134 28.172 28.147 28.177 28.214 28.189 28.184 28.174 28.194 28.192 28.239 28.242 28.249 28.234 28.262 28.284 28.244 28.304 28.279 28.292 27.207 26.839 27.567 28.307 28.394 28.269 28.219 28.099 28.019 28.004 27.959 27.929 27.962 27.982 28.014 28.067 28.142 28.214 28.314 28.349 28.444 28.562 28.669 28.792 28.922 29.002 29.144 29.262 29.339 29.447 29.527 29.572 29.547 29.497 29.467 29.439 29.329 29.219 29.129 28.982 28.832 28.692 28.574 28.424 28.302 28.169 28.067 27.992 27.934 27.874 27.854 27.892 27.927 27.957 28.049 28.086 28.134 28.166 28.174 28.184 28.184 28.199 28.234 28.201 28.166 28.159 28.164 28.101 28.084 28.116 28.166 28.211 28.221 28.291 28.321 28.371 28.411 28.409 28.384 28.394 28.376 28.404 28.371 28.331 28.341 28.294 28.261 28.276 28.286 28.261 28.254 28.171 28.154 28.169 28.181 28.186 28.184 28.221 28.234 28.279 28.326 28.354 28.391 28.474 28.524 28.589 28.674 28.744 28.826 28.901 28.939 28.949 28.999 29.024 29.056 29.119 29.124 29.139 29.141 29.169 29.196 29.226 29.189 29.231 29.251 29.249 29.271 29.286 29.319 29.336 29.361 29.336 29.326 29.351 29.301 29.309 29.311 29.334 29.391
30.658 30.655 30.758 30.663 30.735 30.805 30.8 30.75 30.768 30.808 30.83 30.843 30.848 30.868 30.89 30.928 30.938 30.928 30.925 30.91 30.9 30.908 30.878 30.883 30.86 30.818 30.78 30.745 30.728 30.65 30.643 30.603 30.57 30.555 30.545 30.525 30.495 30.508 30.468 30.49 30.518 30.525 30.543 30.615 30.665 30.735 30.793 30.848 30.91 30.998 31.083 31.123 31.16 31.15 31.108 31.108 31.025 30.938 30.828 30.718 30.635 30.513 30.42 30.318 30.315 30.258 30.208 30.225 30.218 30.243 30.273 30.283 30.26 30.285 30.27 30.275 30.283 30.243 30.21 30.208 30.198 30.195 30.178 30.135 30.12 30.13 30.115 30.12 30.173 30.215 30.308 30.395 30.43 30.513 30.548 30.56 30.607 30.632 30.637 30.637 30.602 30.552 30.492 30.495 30.395 30.357 30.357 30.327 30.31 30.315 30.315 30.272 30.217 30.192 30.18 30.262 30.312 30.23 30.107 30.162 30.235 30.3 30.31 30.192 30.03 29.992 29.992 29.997 29.997 29.952 29.932 29.882 29.882 29.837 29.817 29.795 29.812 29.775 29.73 29.73 29.705 29.695 29.755 29.807 29.867 29.912 29.977 30.025 30.075 30.15 30.152 30.19 30.195 30.215 30.22 30.182 30.152 30.092 30.01 29.917 29.83 29.752 29.717 29.597 29.572 29.542 29.507 29.452 29.397 29.322 29.265 29.157 29.012 28.985 28.94 28.872 28.847 28.837 28.777 28.772 28.767 28.747 28.765 28.782 28.795 28.77 28.77 28.762 28.765 28.77 28.725 28.74 28.725 28.725 28.695 28.68 28.682 28.705 28.69 28.677 28.62 28.612 28.585 28.567 28.517 28.485 28.465 28.48 28.5 28.495 28.475 28.465 28.44 28.41 28.365 28.345 28.37 28.405 28.432 28.412 28.447 28.435 28.44 28.437 28.467 28.472 28.455 28.5 28.532 28.492 28.467 28.477 28.447 28.465 28.415 28.405 28.437 28.407 28.42 28.455 28.44 28.397 28.397 28.37 28.375 28.352 28.317 28.287 28.287 28.272 28.229 28.197 28.164 28.174 28.114 28.102 28.087 28.124 28.094 28.092 28.144 28.114 28.107 28.087 28.069 28.112 28.134 28.122 28.109 28.117 28.144 28.119 28.104 28.139 28.159 28.199 28.212 28.174 28.214 28.192 28.179 28.169 28.192 28.204 28.239 28.202 28.222 28.244 28.214 28.224 28.239 28.082 27.134 26.959 27.639 28.422 28.364 28.247 28.194 28.092 28.032 27.992 27.932 27.942 27.929 27.984 28.022 28.069 28.172 28.222 28.304 28.369 28.437 28.569 28.689 28.812 28.927 29.029 29.142 29.257 29.344 29.469 29.522 29.532 29.547 29.507 29.462 29.412 29.302 29.212 29.062 28.954 28.799 28.657 28.549 28.407 28.309 28.172 28.062 27.972 27.934 27.887 27.882 27.909 27.954 27.959 28.031 28.099 28.126 28.144 28.164 28.176 28.184 28.186 28.231 28.204 28.179 28.156 28.134 28.124 28.124 28.136 28.159 28.184 28.241 28.274 28.331 28.359 28.414 28.421 28.421 28.411 28.391 28.389 28.394 28.376 28.394 28.339 28.306 28.349 28.356 28.316 28.286 28.219 28.211 28.189 28.204 28.186 28.201 28.211 28.224 28.281 28.309 28.319 28.374 28.454 28.499 28.579 28.654 28.731 28.811 28.886 28.916 28.951 28.979 29.006 29.041 29.099 29.099 29.114 29.129 29.154 29.161 29.189 29.221 29.236 29.244 29.269 29.284 29.319 29.356 29.349 29.354 29.354 29.339 29.349 29.364 29.336 29.359 29.361 29.406
30.705 30.638 30.668 30.643 30.683 30.778 30.768 30.755 30.733 30.788 30.803 30.818 30.805 30.853 30.89 30.898 30.93 30.9 30.925 30.928 30.898 30.9 30.9 30.868 30.855 30.805 30.783 30.74 30.705 30.68 30.67 30.62 30.575 30.578 30.56 30.508 30.488 30.49 30.495 30.52 30.545 30.56 30.575 30.628 30.708 30.738 30.788 30.808 30.9 31 31.09 31.113 31.143 31.15 31.12 31.078 31.015 30.92 30.848 30.74 30.655 30.518 30.438 30.328 30.278 30.258 30.22 30.205 30.223 30.255 30.26 30.265 30.28 30.283 30.283 30.3 30.285 30.23 30.213 30.21 30.188 30.185 30.165 30.153 30.133 30.12 30.158 30.18 30.233 30.275 30.338 30.398 30.483 30.54 30.598 30.625 30.667 30.635 30.652 30.652 30.61 30.56 30.51 30.445 30.4 30.385 30.357 30.36 30.36 30.355 30.352 30.35 30.307 30.285 30.247 30.275 30.34 30.36 30.252 30.235 30.215 30.245 30.29 30.287 30.145 30.055 30.035 30.015 29.99 29.977 29.93 29.875 29.88 29.842 29.795 29.77 29.762 29.695 29.732 29.712 29.692 29.69 29.745 29.812 29.832 29.86 29.97 30.032 30.07 30.13 30.145 30.182 30.172 30.225 30.265 30.195 30.145 30.11 30.035 29.937 29.817 29.777 29.755 29.672 29.572 29.542 29.492 29.475 29.38 29.297 29.235 29.172 29.095 29.05 28.98 28.905 28.902 28.852 28.835 28.822 28.8 28.817 28.81 28.832 28.797 28.775 28.78 28.77 28.777 28.785 28.752 28.742 28.747 28.737 28.762 28.737 28.712 28.695 28.705 28.662 28.652 28.612 28.582 28.545 28.542 28.535 28.515 28.53 28.525 28.527 28.482 28.432 28.435 28.41 28.365 28.35 28.37 28.355 28.385 28.392 28.415 28.402 28.432 28.44 28.43 28.437 28.407 28.435 28.42 28.395 28.412 28.4 28.362 28.42 28.37 28.417 28.392 28.34 28.35 28.357 28.382 28.332 28.312 28.312 28.307 28.302 28.272 28.289 28.254 28.234 28.179 28.109 28.139 28.139 28.102 28.102 28.109 28.112 28.127 28.097 28.114 28.132 28.124 28.064 28.077 28.117 28.102 28.139 28.182 28.134 28.149 28.134 28.137 28.172 28.182 28.189 28.184 28.194 28.217 28.172 28.119 28.134 28.119 28.199 28.217 28.224 28.232 28.249 28.229 28.219 28.264 28.062 27.084 26.947 27.754 28.494 28.387 28.217 28.179 28.069 28.052 28.024 27.942 27.912 27.904 27.969 27.992 28.062 28.122 28.222 28.332 28.394 28.457 28.564 28.689 28.794 28.917 29.029 29.197 29.287 29.379 29.452 29.514 29.512 29.524 29.482 29.442 29.397 29.269 29.157 29.032 28.922 28.799 28.639 28.507 28.384 28.277 28.152 28.017 27.979 27.899 27.852 27.844 27.904 27.947 27.992 28.041 28.106 28.151 28.151 28.174 28.181 28.189 28.199 28.194 28.196 28.184 28.171 28.161 28.179 28.144 28.149 28.151 28.166 28.234 28.294 28.331 28.369 28.436 28.406 28.416 28.436 28.414 28.421 28.396 28.414 28.414 28.369 28.359 28.406 28.381 28.359 28.351 28.281 28.254 28.241 28.214 28.219 28.199 28.236 28.244 28.289 28.321 28.381 28.396 28.419 28.479 28.531 28.626 28.719 28.779 28.861 28.871 28.924 28.966 28.999 29.024 29.044 29.054 29.074 29.119 29.174 29.169 29.191 29.224 29.231 29.264 29.244 29.296 29.311 29.339 29.344 29.339 29.376 29.366 29.354 29.341 29.321 29.336 29.384 29.431
30.648 30.663 30.65 30.643 30.688 30.77 30.745 30.73 30.693 30.758 30.798 30.823 30.813 30.825 30.848 30.888 30.895 30.878 30.913 30.923 30.905 30.895 30.873 30.87 30.845 30.793 30.778 30.763 30.705 30.71 30.703 30.61 30.57 30.568 30.558 30.51 30.488 30.493 30.488 30.508 30.553 30.583 30.633 30.64 30.705 30.748 30.775 30.82 30.905 30.978 31.063 31.12 31.13 31.11 31.083 31.073 31.03 30.938 30.873 30.765 30.638 30.518 30.453 30.355 30.285 30.258 30.243 30.255 30.22 30.245 30.25 30.283 30.268 30.303 30.273 30.273 30.255 30.225 30.218 30.225 30.208 30.198 30.178 30.133 30.158 30.133 30.213 30.22 30.28 30.34 30.398 30.468 30.52 30.595 30.605 30.673 30.672 30.662 30.657 30.66 30.612 30.57 30.54 30.497 30.442 30.452 30.435 30.402 30.405 30.385 30.375 30.402 30.4 30.352 30.29 30.275 30.317 30.39 30.335 30.285 30.262 30.242 30.285 30.325 30.197 30.112 30.055 30.012 29.975 30 29.94 29.902 29.892 29.827 29.817 29.802 29.747 29.67 29.707 29.685 29.702 29.72 29.74 29.745 29.797 29.797 29.907 29.982 30.03 30.06 30.11 30.177 30.192 30.205 30.215 30.2 30.16 30.137 30.06 29.955 29.867 29.815 29.76 29.69 29.59 29.572 29.522 29.507 29.415 29.347 29.29 29.182 29.097 29.022 29.002 28.952 28.887 28.867 28.882 28.82 28.792 28.845 28.837 28.872 28.79 28.79 28.782 28.78 28.787 28.755 28.742 28.767 28.757 28.79 28.795 28.745 28.722 28.685 28.665 28.66 28.675 28.63 28.635 28.587 28.592 28.58 28.567 28.572 28.542 28.545 28.502 28.45 28.462 28.43 28.387 28.36 28.357 28.355 28.382 28.415 28.417 28.39 28.415 28.392 28.362 28.357 28.375 28.382 28.387 28.367 28.385 28.357 28.32 28.36 28.322 28.372 28.322 28.295 28.282 28.305 28.267 28.272 28.275 28.23 28.267 28.235 28.222 28.204 28.204 28.187 28.189 28.152 28.169 28.172 28.117 28.132 28.097 28.067 28.092 28.082 28.064 28.129 28.092 28.077 28.132 28.139 28.102 28.134 28.127 28.107 28.079 28.142 28.142 28.127 28.199 28.187 28.212 28.177 28.167 28.159 28.154 28.187 28.132 28.219 28.199 28.217 28.207 28.202 28.217 28.169 28.219 28.052 27.132 26.982 27.634 28.444 28.324 28.169 28.174 28.052 28.034 27.982 27.929 27.912 27.937 27.937 27.979 28.047 28.099 28.212 28.297 28.399 28.489 28.592 28.714 28.794 28.892 29.057 29.164 29.299 29.337 29.464 29.502 29.507 29.499 29.429 29.412 29.357 29.269 29.097 29.012 28.884 28.754 28.627 28.519 28.392 28.277 28.162 28.029 27.984 27.904 27.859 27.859 27.869 27.899 27.974 28.051 28.094 28.139 28.191 28.211 28.216 28.211 28.221 28.214 28.191 28.169 28.164 28.149 28.174 28.149 28.144 28.186 28.239 28.264 28.274 28.334 28.374 28.424 28.441 28.439 28.431 28.409 28.444 28.454 28.446 28.411 28.399 28.416 28.451 28.414 28.391 28.404 28.331 28.281 28.241 28.216 28.189 28.194 28.189 28.224 28.274 28.296 28.346 28.389 28.384 28.454 28.479 28.576 28.666 28.749 28.789 28.864 28.909 28.976 29.001 29.019 29.016 29.046 29.071 29.129 29.149 29.146 29.184 29.214 29.239 29.241 29.284 29.301 29.339 29.326 29.324 29.326 29.356 29.376 29.386 29.344 29.339 29.364 29.356 29.449
30.658 30.635 30.658 30.655 30.68 30.705 30.71 30.708 30.71 30.7 30.763 30.803 30.818 30.828 30.828 30.875 30.895 30.915 30.943 30.935 30.94 30.94 30.91 30.88 30.84 30.813 30.795 30.793 30.765 30.745 30.7 30.61 30.563 30.543 30.565 30.528 30.483 30.463 30.518 30.533 30.558 30.58 30.643 30.66 30.66 30.713 30.803 30.86 30.945 30.975 31.005 31.073 31.108 31.128 31.1 31.038 30.988 30.933 30.848 30.768 30.663 30.538 30.448 30.373 30.288 30.283 30.23 30.238 30.245 30.27 30.293 30.3 30.283 30.29 30.293 30.273 30.255 30.213 30.218 30.183 30.16 30.178 30.18 30.113 30.143 30.11 30.193 30.228 30.305 30.373 30.448 30.523 30.573 30.653 30.703 30.7 30.707 30.685 30.667 30.665 30.64 30.607 30.567 30.537 30.52 30.482 30.48 30.452 30.447 30.47 30.45 30.465 30.482 30.407 30.352 30.282 30.32 30.397 30.387 30.317 30.315 30.257 30.235 30.337 30.297 30.13 30.06 30.072 30 29.997 29.985 29.922 29.875 29.825 29.835 29.77 29.752 29.722 29.702 29.662 29.677 29.717 29.717 29.725 29.77 29.795 29.87 29.977 30.02 30.017 30.1 30.17 30.165 30.187 30.202 30.14 30.145 30.11 30.062 29.995 29.915 29.845 29.765 29.677 29.61 29.577 29.552 29.517 29.415 29.332 29.307 29.255 29.15 29.085 29.037 28.965 28.91 28.925 28.922 28.86 28.827 28.84 28.862 28.855 28.817 28.782 28.805 28.807 28.8 28.817 28.802 28.775 28.795 28.772 28.75 28.742 28.71 28.67 28.707 28.695 28.675 28.685 28.64 28.64 28.642 28.605 28.625 28.61 28.56 28.58 28.542 28.515 28.497 28.502 28.445 28.37 28.402 28.397 28.467 28.457 28.405 28.377 28.377 28.38 28.35 28.35 28.345 28.365 28.35 28.335 28.347 28.342 28.252 28.327 28.282 28.287 28.31 28.265 28.237 28.257 28.255 28.267 28.245 28.232 28.232 28.237 28.239 28.209 28.187 28.162 28.152 28.127 28.134 28.104 28.052 28.054 28.064 28.057 28.082 28.104 28.129 28.102 28.097 28.102 28.142 28.144 28.099 28.107 28.152 28.124 28.149 28.194 28.199 28.187 28.204 28.202 28.209 28.197 28.172 28.172 28.167 28.212 28.164 28.179 28.197 28.197 28.157 28.127 28.177 28.194 28.174 28.052 27.184 26.892 27.509 28.434 28.362 28.182 28.179 28.112 28.029 27.967 27.919 27.922 27.912 27.939 27.982 28.052 28.157 28.194 28.274 28.434 28.487 28.572 28.709 28.799 28.939 29.059 29.177 29.292 29.339 29.427 29.464 29.504 29.524 29.427 29.437 29.342 29.217 29.104 28.987 28.862 28.737 28.622 28.469 28.344 28.259 28.174 28.062 27.927 27.904 27.884 27.874 27.912 27.949 27.989 28.071 28.101 28.169 28.219 28.196 28.204 28.209 28.231 28.231 28.209 28.206 28.196 28.151 28.156 28.159 28.171 28.149 28.229 28.279 28.279 28.341 28.384 28.396 28.434 28.429 28.421 28.434 28.456 28.454 28.456 28.441 28.426 28.451 28.449 28.461 28.419 28.386 28.341 28.299 28.251 28.214 28.204 28.179 28.204 28.229 28.256 28.276 28.291 28.336 28.364 28.494 28.481 28.594 28.641 28.719 28.789 28.871 28.901 28.941 28.951 28.964 29.036 29.051 29.064 29.116 29.146 29.139 29.201 29.199 29.234 29.256 29.289 29.304 29.334 29.331 29.331 29.299 29.359 29.401 29.379 29.384 29.364 29.361 29.384 29.429
30.603 30.618 30.62 30.638 30.67 30.69 30.7 30.665 30.683 30.68 30.745 30.793 30.815 30.838 30.848 30.89 30.898 30.885 30.893 30.915 30.945 30.918 30.935 30.895 30.865 30.85 30.805 30.793 30.773 30.728 30.713 30.648 30.588 30.555 30.498 30.503 30.473 30.453 30.518 30.543 30.578 30.62 30.655 30.668 30.738 30.77 30.82 30.88 30.89 30.968 31.003 31.068 31.118 31.09 31.078 31.01 30.968 30.953 30.833 30.76 30.663 30.538 30.44 30.355 30.303 30.27 30.26 30.263 30.263 30.275 30.285 30.308 30.275 30.283 30.3 30.288 30.25 30.223 30.225 30.19 30.18 30.153 30.17 30.188 30.168 30.183 30.218 30.285 30.305 30.433 30.498 30.593 30.643 30.703 30.735 30.758 30.722 30.722 30.71 30.657 30.637 30.61 30.575 30.54 30.575 30.577 30.5 30.512 30.525 30.512 30.522 30.547 30.517 30.462 30.397 30.347 30.35 30.37 30.312 30.17 30.23 30.227 30.197 30.232 30.295 30.222 30.085 30.02 29.992 29.957 29.942 29.922 29.867 29.847 29.807 29.772 29.74 29.73 29.702 29.662 29.707 29.685 29.695 29.692 29.755 29.79 29.852 29.912 29.972 30.055 30.06 30.137 30.157 30.197 30.197 30.18 30.142 30.1 30.055 29.985 29.915 29.842 29.78 29.705 29.657 29.625 29.545 29.512 29.447 29.387 29.325 29.235 29.195 29.087 29.047 28.962 28.94 28.95 28.955 28.927 28.91 28.875 28.892 28.887 28.822 28.815 28.845 28.832 28.815 28.83 28.802 28.782 28.755 28.767 28.752 28.742 28.727 28.727 28.75 28.732 28.707 28.677 28.62 28.647 28.66 28.652 28.645 28.647 28.557 28.552 28.552 28.537 28.502 28.47 28.425 28.442 28.462 28.46 28.455 28.412 28.385 28.347 28.347 28.382 28.31 28.35 28.362 28.332 28.285 28.292 28.32 28.335 28.307 28.28 28.295 28.28 28.29 28.24 28.245 28.212 28.227 28.205 28.235 28.252 28.25 28.227 28.242 28.217 28.179 28.164 28.132 28.109 28.114 28.054 28.029 28.044 28.064 28.054 28.057 28.104 28.149 28.107 28.107 28.119 28.152 28.182 28.129 28.119 28.159 28.144 28.157 28.192 28.157 28.192 28.207 28.239 28.229 28.199 28.162 28.182 28.204 28.202 28.182 28.172 28.177 28.169 28.149 28.129 28.149 28.199 28.187 28.079 27.212 26.877 27.377 28.334 28.362 28.212 28.159 28.044 27.987 27.964 27.947 27.959 27.977 27.947 28.039 28.084 28.194 28.227 28.297 28.414 28.484 28.614 28.729 28.854 28.944 29.059 29.214 29.342 29.379 29.414 29.452 29.469 29.469 29.442 29.364 29.292 29.182 29.074 28.969 28.849 28.729 28.602 28.454 28.339 28.259 28.134 28.084 27.924 27.892 27.884 27.872 27.934 27.954 28.027 28.046 28.096 28.144 28.194 28.164 28.191 28.194 28.199 28.229 28.199 28.271 28.216 28.201 28.174 28.174 28.186 28.206 28.206 28.241 28.276 28.326 28.379 28.389 28.401 28.421 28.414 28.429 28.464 28.444 28.456 28.449 28.439 28.459 28.486 28.434 28.409 28.409 28.379 28.321 28.281 28.241 28.249 28.209 28.206 28.231 28.261 28.264 28.266 28.319 28.341 28.439 28.506 28.554 28.636 28.724 28.776 28.839 28.889 28.926 28.964 28.961 29.031 29.029 29.066 29.086 29.129 29.161 29.204 29.189 29.226 29.254 29.246 29.311 29.331 29.326 29.311 29.321 29.376 29.361 29.364 29.344 29.361 29.381 29.359 29.406
30.66 30.673 30.685 30.658 30.678 30.695 30.7 30.683 30.67 30.658 30.715 30.75 30.745 30.795 30.848 30.878 30.855 30.87 30.885 30.883 30.915 30.913 30.903 30.905 30.883 30.848 30.835 30.815 30.783 30.743 30.745 30.668 30.593 30.54 30.53 30.5 30.493 30.47 30.49 30.5 30.593 30.6 30.593 30.688 30.7 30.828 30.858 30.883 30.903 30.935 30.973 31.01 31.045 31.08 31.055 31.008 30.958 30.92 30.833 30.76 30.678 30.563 30.46 30.385 30.338 30.318 30.29 30.303 30.298 30.303 30.31 30.3 30.26 30.255 30.28 30.298 30.275 30.253 30.215 30.208 30.175 30.178 30.188 30.195 30.208 30.22 30.255 30.33 30.39 30.46 30.568 30.625 30.675 30.74 30.773 30.778 30.77 30.722 30.702 30.682 30.675 30.61 30.582 30.567 30.582 30.607 30.595 30.595 30.55 30.55 30.577 30.602 30.56 30.54 30.445 30.365 30.357 30.342 30.372 30.317 30.22 30.202 30.22 30.25 30.33 30.295 30.13 30.002 29.997 29.92 29.925 29.902 29.865 29.807 29.777 29.725 29.72 29.692 29.682 29.652 29.66 29.687 29.692 29.767 29.732 29.802 29.825 29.857 29.912 30 30.027 30.08 30.16 30.182 30.195 30.202 30.18 30.132 30.092 30.03 29.92 29.852 29.822 29.72 29.655 29.632 29.552 29.48 29.435 29.387 29.33 29.247 29.202 29.137 29.072 29.045 29.002 28.977 28.962 28.947 28.925 28.902 28.885 28.872 28.842 28.837 28.842 28.862 28.83 28.83 28.84 28.84 28.822 28.812 28.782 28.765 28.702 28.707 28.712 28.73 28.752 28.735 28.68 28.652 28.657 28.642 28.607 28.667 28.597 28.615 28.587 28.545 28.525 28.48 28.485 28.49 28.487 28.49 28.455 28.442 28.43 28.347 28.357 28.367 28.367 28.377 28.332 28.322 28.3 28.307 28.292 28.287 28.312 28.32 28.302 28.245 28.22 28.217 28.22 28.227 28.197 28.23 28.225 28.25 28.2 28.167 28.187 28.209 28.147 28.119 28.094 28.117 28.147 28.109 28.084 28.104 28.084 28.039 28.044 28.112 28.142 28.142 28.132 28.159 28.147 28.177 28.169 28.149 28.134 28.147 28.149 28.167 28.182 28.197 28.152 28.174 28.182 28.229 28.192 28.202 28.197 28.217 28.214 28.144 28.164 28.144 28.129 28.097 28.082 28.117 28.177 28.117 27.297 26.807 27.302 28.347 28.312 28.182 28.157 28.059 27.999 27.979 27.972 27.932 27.947 28.002 28.047 28.119 28.199 28.252 28.319 28.414 28.512 28.637 28.714 28.842 28.952 29.064 29.207 29.344 29.394 29.464 29.442 29.432 29.434 29.419 29.344 29.282 29.162 29.047 28.932 28.824 28.679 28.582 28.462 28.339 28.209 28.094 28.044 27.957 27.917 27.892 27.862 27.939 27.977 27.997 28.059 28.106 28.126 28.176 28.219 28.189 28.209 28.201 28.211 28.196 28.234 28.224 28.211 28.199 28.184 28.171 28.194 28.244 28.276 28.309 28.319 28.364 28.391 28.394 28.386 28.391 28.441 28.454 28.444 28.481 28.431 28.451 28.444 28.456 28.444 28.421 28.436 28.399 28.364 28.279 28.236 28.226 28.211 28.179 28.244 28.284 28.274 28.286 28.346 28.354 28.389 28.464 28.526 28.636 28.714 28.766 28.816 28.861 28.946 28.961 28.959 29.014 29.036 29.074 29.111 29.136 29.151 29.216 29.214 29.209 29.234 29.274 29.279 29.296 29.319 29.341 29.314 29.346 29.346 29.354 29.364 29.336 29.351 29.366 29.371
30.723 30.708 30.668 30.638 30.62 30.628 30.658 30.655 30.653 30.688 30.673 30.74 30.74 30.78 30.835 30.848 30.848 30.863 30.91 30.898 30.895 30.9 30.89 30.88 30.853 30.85 30.815 30.798 30.793 30.748 30.723 30.698 30.64 30.545 30.548 30.485 30.483 30.488 30.485 30.483 30.56 30.593 30.62 30.69 30.74 30.798 30.84 30.873 30.928 30.965 30.973 31.01 31.013 31.033 31.02 31.015 30.945 30.88 30.835 30.748 30.663 30.543 30.453 30.398 30.358 30.355 30.32 30.285 30.318 30.305 30.34 30.333 30.323 30.275 30.295 30.285 30.288 30.243 30.215 30.215 30.198 30.17 30.178 30.203 30.218 30.26 30.288 30.34 30.41 30.518 30.603 30.673 30.713 30.755 30.765 30.76 30.755 30.717 30.722 30.685 30.69 30.67 30.637 30.625 30.635 30.64 30.62 30.625 30.6 30.582 30.605 30.605 30.575 30.542 30.492 30.437 30.395 30.282 30.38 30.432 30.265 30.22 30.215 30.177 30.335 30.327 30.187 30.052 29.975 29.912 29.892 29.862 29.812 29.792 29.762 29.71 29.722 29.7 29.647 29.667 29.687 29.72 29.715 29.767 29.777 29.782 29.805 29.822 29.862 29.91 29.987 30.065 30.097 30.187 30.217 30.197 30.21 30.18 30.082 30.06 29.957 29.88 29.797 29.727 29.675 29.622 29.547 29.457 29.422 29.377 29.355 29.275 29.227 29.162 29.115 29.052 28.965 29.015 29.007 28.957 28.93 28.945 28.932 28.892 28.87 28.852 28.845 28.837 28.845 28.877 28.895 28.875 28.812 28.767 28.762 28.755 28.735 28.7 28.695 28.78 28.785 28.732 28.72 28.692 28.652 28.615 28.635 28.652 28.63 28.645 28.597 28.575 28.55 28.532 28.507 28.495 28.487 28.487 28.497 28.462 28.447 28.41 28.375 28.357 28.38 28.375 28.385 28.365 28.33 28.322 28.335 28.305 28.295 28.292 28.267 28.185 28.195 28.202 28.247 28.227 28.245 28.262 28.24 28.232 28.177 28.177 28.209 28.157 28.129 28.122 28.122 28.114 28.139 28.119 28.109 28.104 28.072 28.084 28.069 28.117 28.129 28.177 28.152 28.159 28.179 28.192 28.192 28.184 28.182 28.179 28.209 28.167 28.209 28.219 28.199 28.179 28.174 28.204 28.212 28.187 28.164 28.189 28.192 28.134 28.159 28.167 28.107 28.064 28.034 28.087 28.142 28.132 27.312 26.724 27.129 28.297 28.302 28.164 28.129 28.034 28.012 27.984 27.967 27.914 27.949 28.004 28.062 28.174 28.209 28.284 28.319 28.404 28.539 28.609 28.727 28.869 28.972 29.079 29.199 29.347 29.399 29.462 29.474 29.449 29.392 29.374 29.312 29.237 29.142 29.009 28.884 28.809 28.694 28.567 28.459 28.312 28.224 28.127 28.032 27.969 27.914 27.882 27.872 27.914 27.992 28.032 28.079 28.136 28.151 28.191 28.211 28.199 28.204 28.211 28.216 28.231 28.216 28.249 28.226 28.219 28.204 28.186 28.166 28.216 28.269 28.289 28.329 28.374 28.386 28.406 28.414 28.424 28.446 28.464 28.464 28.481 28.446 28.461 28.466 28.471 28.474 28.431 28.421 28.381 28.331 28.334 28.269 28.226 28.211 28.179 28.241 28.259 28.266 28.289 28.301 28.346 28.399 28.454 28.506 28.581 28.636 28.719 28.821 28.874 28.894 28.944 28.946 28.986 29.044 29.051 29.114 29.131 29.154 29.169 29.174 29.191 29.236 29.269 29.264 29.256 29.251 29.324 29.329 29.356 29.376 29.359 29.351 29.334 29.334 29.336 29.406
30.693 30.715 30.71 30.643 30.565 30.585 30.625 30.618 30.63 30.625 30.68 30.735 30.728 30.768 30.818 30.84 30.85 30.853 30.863 30.893 30.895 30.905 30.875 30.895 30.868 30.84 30.823 30.795 30.788 30.718 30.708 30.693 30.653 30.6 30.558 30.503 30.47 30.463 30.473 30.49 30.51 30.575 30.635 30.645 30.758 30.818 30.825 30.878 30.913 30.958 30.948 30.958 30.983 30.993 30.988 30.96 30.878 30.835 30.788 30.718 30.638 30.56 30.473 30.415 30.385 30.338 30.33 30.335 30.368 30.278 30.308 30.34 30.34 30.295 30.285 30.29 30.293 30.235 30.238 30.223 30.18 30.178 30.235 30.245 30.263 30.295 30.34 30.378 30.445 30.523 30.62 30.69 30.735 30.755 30.785 30.763 30.75 30.755 30.722 30.707 30.697 30.67 30.665 30.677 30.655 30.65 30.635 30.632 30.642 30.672 30.637 30.617 30.625 30.572 30.53 30.462 30.437 30.34 30.337 30.337 30.305 30.217 30.202 30.172 30.302 30.397 30.24 30.09 29.982 29.947 29.87 29.847 29.83 29.78 29.747 29.73 29.682 29.677 29.687 29.71 29.735 29.757 29.742 29.772 29.81 29.792 29.792 29.822 29.865 29.905 29.942 30.032 30.037 30.13 30.177 30.162 30.175 30.12 30.11 30.057 29.997 29.915 29.81 29.73 29.677 29.667 29.537 29.505 29.46 29.407 29.385 29.302 29.26 29.182 29.1 29.085 29.012 29.017 29.035 28.985 28.975 28.965 28.95 28.9 28.88 28.88 28.875 28.88 28.912 28.887 28.9 28.855 28.872 28.855 28.782 28.795 28.795 28.772 28.802 28.765 28.757 28.75 28.732 28.757 28.692 28.685 28.64 28.642 28.647 28.622 28.625 28.58 28.55 28.56 28.54 28.547 28.535 28.52 28.492 28.47 28.467 28.452 28.402 28.432 28.455 28.4 28.38 28.397 28.405 28.367 28.37 28.342 28.302 28.305 28.28 28.252 28.26 28.217 28.242 28.27 28.225 28.202 28.217 28.2 28.175 28.182 28.182 28.194 28.207 28.147 28.154 28.112 28.139 28.114 28.089 28.102 28.089 28.102 28.102 28.147 28.162 28.159 28.124 28.164 28.182 28.192 28.219 28.202 28.209 28.184 28.159 28.159 28.202 28.227 28.224 28.202 28.147 28.154 28.202 28.154 28.169 28.139 28.157 28.147 28.159 28.124 28.057 28.027 27.999 28.047 28.084 28.047 27.414 26.852 27.097 28.099 28.264 28.159 28.172 28.059 28.004 27.999 27.967 27.952 27.962 27.989 28.069 28.192 28.244 28.302 28.377 28.412 28.537 28.639 28.734 28.862 28.989 29.109 29.227 29.324 29.419 29.479 29.487 29.417 29.379 29.364 29.292 29.222 29.104 28.942 28.872 28.779 28.659 28.564 28.467 28.332 28.239 28.144 28.039 27.952 27.894 27.884 27.854 27.882 27.959 28.032 28.084 28.119 28.154 28.214 28.206 28.206 28.241 28.234 28.206 28.211 28.266 28.286 28.219 28.239 28.234 28.201 28.221 28.214 28.241 28.284 28.331 28.376 28.376 28.386 28.419 28.416 28.444 28.501 28.494 28.504 28.466 28.471 28.464 28.496 28.466 28.456 28.429 28.391 28.356 28.381 28.281 28.254 28.226 28.199 28.249 28.299 28.274 28.301 28.314 28.324 28.399 28.419 28.489 28.564 28.614 28.711 28.779 28.856 28.876 28.926 28.951 28.969 29.029 29.046 29.081 29.129 29.161 29.159 29.189 29.189 29.219 29.254 29.284 29.276 29.309 29.289 29.304 29.349 29.319 29.366 29.346 29.336 29.301 29.341 29.399
30.633 30.683 30.663 30.61 30.54 30.553 30.595 30.568 30.585 30.62 30.678 30.685 30.723 30.743 30.78 30.813 30.833 30.78 30.805 30.835 30.845 30.91 30.885 30.883 30.865 30.833 30.805 30.795 30.763 30.713 30.695 30.678 30.658 30.615 30.57 30.54 30.51 30.465 30.488 30.478 30.523 30.548 30.598 30.645 30.723 30.783 30.835 30.85 30.923 30.94 30.96 30.95 30.945 30.91 30.918 30.895 30.828 30.818 30.763 30.69 30.608 30.548 30.485 30.418 30.41 30.383 30.343 30.37 30.353 30.338 30.355 30.338 30.363 30.295 30.308 30.3 30.283 30.283 30.28 30.225 30.238 30.275 30.27 30.278 30.318 30.328 30.375 30.408 30.463 30.518 30.59 30.67 30.72 30.725 30.775 30.795 30.785 30.77 30.727 30.71 30.69 30.692 30.687 30.69 30.667 30.665 30.69 30.657 30.647 30.685 30.67 30.622 30.62 30.595 30.537 30.455 30.44 30.332 30.282 30.297 30.35 30.24 30.16 30.16 30.31 30.395 30.292 30.08 29.987 29.917 29.862 29.837 29.825 29.79 29.73 29.685 29.692 29.682 29.66 29.74 29.745 29.755 29.772 29.767 29.802 29.792 29.792 29.805 29.875 29.945 29.965 30.022 30.047 30.115 30.17 30.165 30.167 30.122 30.137 30.07 29.997 29.92 29.82 29.747 29.702 29.62 29.582 29.56 29.54 29.455 29.342 29.307 29.225 29.21 29.182 29.142 29.127 29.08 29.045 29.01 28.995 28.962 28.952 28.94 28.932 28.922 28.925 28.92 28.942 28.902 28.932 28.877 28.905 28.885 28.86 28.815 28.8 28.75 28.777 28.762 28.742 28.755 28.735 28.7 28.695 28.65 28.612 28.665 28.627 28.607 28.65 28.59 28.59 28.58 28.582 28.562 28.537 28.555 28.55 28.512 28.535 28.47 28.46 28.457 28.492 28.462 28.412 28.41 28.397 28.392 28.372 28.352 28.33 28.327 28.325 28.312 28.3 28.252 28.245 28.255 28.19 28.182 28.182 28.212 28.192 28.205 28.197 28.209 28.174 28.167 28.189 28.169 28.159 28.157 28.122 28.114 28.124 28.119 28.139 28.152 28.189 28.162 28.169 28.194 28.184 28.187 28.184 28.167 28.189 28.204 28.212 28.217 28.187 28.179 28.212 28.164 28.154 28.149 28.172 28.159 28.149 28.172 28.142 28.137 28.134 28.079 28.019 28.009 27.972 27.984 28.047 28.167 27.917 26.929 26.997 27.964 28.282 28.107 28.132 28.104 28.032 28.024 27.992 27.977 27.959 27.997 28.074 28.157 28.269 28.304 28.374 28.442 28.584 28.637 28.777 28.879 29.009 29.107 29.219 29.337 29.402 29.462 29.472 29.434 29.407 29.372 29.264 29.222 29.089 28.972 28.852 28.729 28.654 28.534 28.417 28.299 28.199 28.157 28.049 27.977 27.912 27.879 27.839 27.892 27.957 27.997 28.036 28.086 28.116 28.181 28.209 28.211 28.226 28.244 28.231 28.241 28.239 28.256 28.236 28.261 28.209 28.181 28.189 28.221 28.224 28.266 28.319 28.371 28.409 28.429 28.399 28.439 28.461 28.476 28.491 28.539 28.549 28.526 28.484 28.504 28.494 28.461 28.411 28.434 28.384 28.376 28.301 28.289 28.256 28.249 28.246 28.311 28.319 28.329 28.329 28.316 28.336 28.386 28.466 28.551 28.624 28.686 28.771 28.831 28.899 28.934 28.979 28.969 29.006 29.034 29.101 29.111 29.161 29.156 29.149 29.201 29.191 29.219 29.226 29.254 29.261 29.264 29.299 29.294 29.309 29.301 29.314 29.326 29.281 29.316 29.376
30.643 30.61 30.66 30.623 30.503 30.493 30.538 30.568 30.553 30.575 30.635 30.693 30.698 30.705 30.728 30.758 30.755 30.773 30.823 30.843 30.858 30.863 30.853 30.845 30.848 30.83 30.83 30.808 30.798 30.763 30.728 30.685 30.663 30.628 30.578 30.545 30.543 30.45 30.498 30.475 30.493 30.535 30.55 30.65 30.705 30.76 30.828 30.86 30.868 30.913 30.938 30.94 30.895 30.86 30.868 30.828 30.798 30.768 30.723 30.67 30.603 30.543 30.49 30.435 30.383 30.405 30.373 30.353 30.398 30.4 30.393 30.375 30.385 30.353 30.355 30.343 30.305 30.343 30.323 30.313 30.31 30.303 30.32 30.37 30.363 30.36 30.433 30.433 30.475 30.543 30.588 30.635 30.678 30.738 30.725 30.748 30.775 30.747 30.695 30.712 30.682 30.68 30.66 30.675 30.67 30.702 30.692 30.7 30.7 30.697 30.652 30.647 30.605 30.592 30.577 30.487 30.427 30.357 30.307 30.302 30.36 30.332 30.167 30.182 30.29 30.33 30.317 30.112 29.977 29.9 29.835 29.81 29.772 29.76 29.755 29.707 29.727 29.715 29.745 29.785 29.797 29.8 29.805 29.772 29.755 29.77 29.78 29.805 29.872 29.962 29.952 29.99 30.062 30.122 30.137 30.197 30.18 30.16 30.127 30.065 30.017 29.952 29.852 29.77 29.7 29.642 29.567 29.535 29.485 29.435 29.377 29.335 29.262 29.232 29.217 29.147 29.087 29.077 29.05 29.057 29.057 29.01 29.022 28.982 28.965 28.912 28.945 28.915 28.905 28.89 28.92 28.912 28.865 28.837 28.857 28.822 28.822 28.79 28.822 28.775 28.742 28.752 28.71 28.672 28.685 28.66 28.652 28.695 28.677 28.66 28.635 28.627 28.572 28.607 28.63 28.615 28.582 28.602 28.62 28.6 28.582 28.547 28.497 28.512 28.56 28.525 28.472 28.452 28.445 28.412 28.39 28.372 28.362 28.38 28.362 28.312 28.287 28.282 28.277 28.242 28.245 28.22 28.225 28.227 28.237 28.21 28.219 28.262 28.249 28.217 28.204 28.187 28.182 28.244 28.129 28.137 28.159 28.184 28.167 28.169 28.187 28.172 28.194 28.177 28.144 28.182 28.189 28.204 28.197 28.169 28.189 28.194 28.154 28.182 28.154 28.132 28.164 28.152 28.129 28.109 28.119 28.137 28.142 28.142 28.154 28.119 28.054 28.029 27.979 27.989 27.974 28.109 27.687 26.967 26.892 27.882 28.324 28.129 28.122 28.107 28.024 28.004 27.972 27.962 27.942 28.022 28.072 28.149 28.242 28.327 28.374 28.437 28.559 28.667 28.802 28.907 29.017 29.099 29.234 29.339 29.392 29.459 29.457 29.454 29.424 29.364 29.274 29.152 29.089 28.957 28.837 28.729 28.597 28.467 28.382 28.289 28.222 28.187 28.054 27.964 27.919 27.887 27.829 27.847 27.932 28.019 28.039 28.079 28.129 28.166 28.204 28.251 28.259 28.271 28.249 28.224 28.236 28.234 28.229 28.229 28.221 28.191 28.174 28.199 28.256 28.284 28.334 28.391 28.424 28.431 28.424 28.464 28.484 28.481 28.489 28.534 28.556 28.544 28.529 28.541 28.536 28.479 28.436 28.414 28.394 28.409 28.321 28.284 28.284 28.276 28.296 28.319 28.301 28.319 28.346 28.329 28.351 28.426 28.444 28.536 28.599 28.689 28.779 28.814 28.879 28.914 28.959 28.971 29.014 29.026 29.061 29.116 29.156 29.129 29.159 29.194 29.184 29.194 29.241 29.279 29.266 29.261 29.251 29.256 29.256 29.266 29.294 29.296 29.236 29.264 29.309
