ncols 426
nrows 32
xllcorner    428024
yllcorner    488672
cellsize     2
NODATA_value -9999
33.214 33.182 33.167 33.139 33.117 33.102 33.092 33.074 33.079 33.079 33.047 33.084 33.054 33.029 32.994 32.999 32.989 32.944 32.937 32.874 32.887 32.894 32.854 32.839 32.829 32.797 32.809 32.789 32.774 32.739 32.747 32.689 32.617 32.637 32.607 32.617 32.599 32.582 32.624 32.581 32.561 32.581 32.564 32.551 32.539 32.516 32.499 32.479 32.446 32.406 32.366 32.341 32.334 32.241 32.171 32.146 32.144 32.096 32.009 31.979 31.936 31.894 31.819 31.816 31.739 31.711 31.674 31.659 31.644 31.639 31.591 31.566 31.534 31.479 31.501 31.471 31.434 31.419 31.396 31.376 31.379 31.374 31.351 31.376 31.396 31.414 31.426 31.461 31.516 31.536 31.551 31.551 31.541 31.566 31.594 31.606 31.561 31.581 31.579 31.599 31.609 31.606 31.576 31.621 31.611 31.641 31.669 31.609 31.636 31.634 31.614 31.584 31.579 31.594 31.611 31.611 31.616 31.651 31.644 31.661 31.664 31.674 31.696 31.714 31.721 31.721 31.749 31.761 31.781 31.789 31.761 31.786 31.746 31.709 31.711 31.706 31.696 31.649 31.646 31.616 31.599 31.601 31.569 31.559 31.541 31.481 31.456 31.451 31.431 31.404 31.359 31.336 31.346 31.319 31.299 31.274 31.241 31.231 31.209 31.159 31.119 31.051 31.039 30.976 30.934 30.884 30.864 30.826 30.746 30.709 30.689 30.639 30.596 30.571 30.529 30.529 30.489 30.426 30.384 30.356 30.289 30.259 30.211 30.159 30.096 30.034 29.974 29.921 29.846 29.801 29.724 29.679 29.639 29.526 29.476 29.394 29.341 29.269 29.164 29.166 29.081 28.956 28.926 28.904 28.866 28.791 28.684 28.629 28.604 28.604 28.614 28.504 28.441 28.269 28.114 27.981 27.691 27.649 27.704 27.651 27.646 27.534 27.439 27.419 27.439 27.411 27.424 27.424 27.461 27.436 27.441 27.406 27.414 27.401 27.381 27.369 27.419 27.424 27.446 27.396 27.421 27.431 27.404 27.391 27.434 27.411 27.411 27.444 27.429 27.421 27.421 27.426 27.394 27.394 27.426 27.419 27.426 27.399 27.429 27.401 27.424 27.439 27.454 27.479 27.501 27.524 27.566 27.604 27.666 27.689 27.774 27.819 27.844 27.929 28.004 27.929 27.411 26.654 26.351 26.406 26.566 27.479 27.916 27.976 27.981 27.721 26.594 26.181 26.231 26.486 27.173 27.321 27.286 27.258 27.296 27.291 27.278 27.281 27.261 27.258 27.263 27.221 27.218 27.191 27.173 27.178 27.208 27.251 27.291 27.346 27.418 27.503 27.631 27.773 27.956 28.176 28.433 28.708 29.018 29.251 29.451 29.598 30.106 30.908 31.268 31.311 31.386 31.516 31.616 31.783 31.926 32.123 32.308 32.448 32.571 32.721 32.891 33.046 33.176 33.313 33.451 33.616 33.731 33.831 33.906 33.908 33.916 33.943 33.963 33.993 33.991 34.028 34.048 34.093 34.116 34.118 34.063 34.108 34.106 34.123 34.118 34.131 34.158 34.251 34.296 34.276 34.298 34.316 34.338 34.358 34.351 34.356 34.378 34.388 34.388 34.418 34.471 34.516 34.538 34.578 34.606 34.576 34.606 34.626 34.661 34.708 34.718 34.693 34.688 34.721 34.703 34.711 34.733 34.741 34.753 34.783 34.791 34.821 34.818 34.833 34.901 34.928 34.958 34.961 34.988 35.033 35.088 35.141 35.138 35.161 35.203 35.216 35.241 35.293 35.316 35.428 35.478 35.566 35.623 35.636 35.631 35.658 35.701 35.766 35.801 35.801
33.192 33.177 33.169 33.152 33.102 33.049 33.034 33.052 33.079 33.027 32.987 33.017 33.007 33.017 32.982 32.937 32.947 32.949 32.914 32.889 32.859 32.847 32.804 32.779 32.804 32.777 32.784 32.754 32.724 32.694 32.679 32.644 32.624 32.624 32.622 32.604 32.569 32.544 32.564 32.551 32.521 32.521 32.531 32.494 32.484 32.456 32.454 32.444 32.371 32.356 32.299 32.264 32.261 32.184 32.131 32.104 32.099 32.069 32.001 31.959 31.906 31.859 31.816 31.769 31.731 31.681 31.654 31.631 31.639 31.624 31.554 31.501 31.561 31.556 31.511 31.461 31.431 31.406 31.374 31.359 31.399 31.374 31.396 31.429 31.439 31.429 31.476 31.494 31.534 31.549 31.576 31.584 31.616 31.634 31.581 31.621 31.644 31.606 31.641 31.651 31.669 31.621 31.609 31.634 31.644 31.649 31.686 31.669 31.616 31.639 31.644 31.569 31.564 31.596 31.606 31.586 31.636 31.636 31.669 31.649 31.636 31.649 31.669 31.699 31.701 31.711 31.739 31.756 31.764 31.771 31.771 31.784 31.756 31.719 31.741 31.706 31.691 31.679 31.674 31.626 31.586 31.594 31.546 31.549 31.546 31.514 31.471 31.469 31.456 31.386 31.361 31.351 31.306 31.286 31.264 31.244 31.239 31.214 31.174 31.161 31.119 31.076 31.014 30.946 30.939 30.876 30.861 30.814 30.784 30.724 30.694 30.654 30.631 30.571 30.544 30.509 30.471 30.416 30.361 30.341 30.311 30.236 30.181 30.134 30.089 30.016 29.951 29.894 29.826 29.791 29.701 29.676 29.591 29.534 29.464 29.354 29.321 29.271 29.164 29.106 29.104 28.966 28.911 28.861 28.814 28.754 28.679 28.639 28.589 28.551 28.524 28.449 28.359 28.236 28.109 27.976 27.741 27.654 27.716 27.686 27.659 27.576 27.516 27.466 27.439 27.411 27.444 27.441 27.444 27.406 27.426 27.436 27.421 27.429 27.434 27.426 27.419 27.456 27.439 27.426 27.434 27.426 27.419 27.401 27.404 27.416 27.434 27.426 27.456 27.421 27.434 27.424 27.396 27.409 27.431 27.401 27.409 27.429 27.444 27.421 27.411 27.431 27.441 27.461 27.454 27.489 27.536 27.579 27.611 27.671 27.736 27.766 27.811 27.854 27.976 28.024 27.821 27.224 26.534 26.269 26.431 26.896 27.769 27.934 27.971 27.919 27.206 26.169 26.026 26.098 26.996 27.293 27.281 27.268 27.281 27.296 27.321 27.268 27.278 27.281 27.261 27.233 27.221 27.188 27.161 27.153 27.201 27.228 27.321 27.351 27.436 27.503 27.603 27.698 27.886 28.078 28.353 28.623 28.913 29.163 29.398 29.558 29.938 30.863 31.196 31.296 31.361 31.463 31.561 31.711 31.883 32.028 32.221 32.391 32.516 32.683 32.848 32.996 33.138 33.266 33.393 33.581 33.676 33.791 33.886 33.906 33.888 33.936 33.941 33.968 33.981 34.018 34.033 34.086 34.121 34.131 34.096 34.123 34.128 34.121 34.123 34.111 34.173 34.251 34.281 34.278 34.293 34.308 34.326 34.368 34.373 34.391 34.383 34.408 34.413 34.436 34.481 34.521 34.548 34.573 34.613 34.591 34.608 34.648 34.666 34.713 34.713 34.701 34.708 34.706 34.736 34.731 34.753 34.768 34.768 34.793 34.826 34.828 34.818 34.848 34.898 34.941 34.946 34.971 34.966 35.001 35.081 35.123 35.178 35.203 35.203 35.191 35.273 35.291 35.356 35.436 35.511 35.561 35.613 35.656 35.661 35.666 35.723 35.786 35.818 35.808
33.167 33.159 33.127 33.112 33.064 33.009 33.017 33.022 33.024 33.012 32.984 32.957 32.982 32.994 32.957 32.934 32.909 32.904 32.867 32.844 32.807 32.807 32.787 32.774 32.749 32.729 32.702 32.672 32.652 32.684 32.669 32.627 32.602 32.587 32.587 32.542 32.549 32.499 32.536 32.521 32.499 32.479 32.481 32.451 32.426 32.424 32.419 32.394 32.336 32.314 32.279 32.246 32.206 32.134 32.079 32.114 32.066 31.996 31.969 31.886 31.866 31.839 31.811 31.766 31.684 31.639 31.631 31.646 31.616 31.584 31.551 31.536 31.569 31.534 31.506 31.456 31.439 31.396 31.424 31.389 31.376 31.389 31.384 31.414 31.434 31.486 31.534 31.546 31.599 31.604 31.626 31.639 31.651 31.686 31.684 31.686 31.711 31.686 31.669 31.676 31.676 31.659 31.684 31.704 31.669 31.691 31.709 31.669 31.664 31.649 31.641 31.621 31.634 31.636 31.614 31.614 31.621 31.591 31.624 31.634 31.611 31.634 31.661 31.686 31.689 31.694 31.719 31.751 31.786 31.741 31.766 31.764 31.794 31.719 31.711 31.694 31.674 31.664 31.654 31.644 31.611 31.604 31.539 31.546 31.546 31.521 31.504 31.464 31.404 31.389 31.334 31.301 31.249 31.271 31.271 31.211 31.206 31.184 31.139 31.134 31.091 31.074 31.014 30.961 30.921 30.891 30.809 30.779 30.769 30.719 30.671 30.649 30.616 30.576 30.546 30.491 30.454 30.411 30.371 30.311 30.271 30.219 30.154 30.134 30.094 29.999 29.951 29.906 29.821 29.776 29.711 29.671 29.591 29.471 29.426 29.376 29.299 29.266 29.179 29.086 29.011 28.976 28.906 28.831 28.776 28.726 28.664 28.581 28.546 28.456 28.399 28.329 28.301 28.181 28.089 27.954 27.741 27.714 27.739 27.731 27.691 27.664 27.536 27.519 27.489 27.426 27.386 27.411 27.431 27.411 27.446 27.401 27.431 27.429 27.431 27.344 27.354 27.439 27.436 27.449 27.429 27.436 27.409 27.409 27.439 27.409 27.419 27.431 27.429 27.406 27.444 27.424 27.429 27.426 27.421 27.421 27.399 27.381 27.414 27.429 27.429 27.426 27.431 27.436 27.479 27.489 27.531 27.574 27.599 27.654 27.676 27.726 27.796 27.841 27.951 28.054 28.064 27.616 27.011 26.351 26.341 26.354 27.296 27.824 27.971 28.011 27.711 26.829 26.033 26.026 26.376 26.998 27.296 27.268 27.286 27.306 27.296 27.291 27.258 27.286 27.256 27.206 27.218 27.193 27.191 27.198 27.198 27.218 27.313 27.356 27.421 27.501 27.551 27.648 27.811 28.011 28.273 28.546 28.846 29.126 29.326 29.466 29.773 30.731 31.108 31.256 31.346 31.433 31.513 31.663 31.813 31.981 32.151 32.316 32.458 32.638 32.768 32.946 33.083 33.191 33.363 33.511 33.613 33.753 33.843 33.838 33.883 33.908 33.936 33.933 33.968 34.016 34.033 34.061 34.093 34.121 34.108 34.113 34.116 34.128 34.141 34.128 34.158 34.226 34.278 34.301 34.321 34.308 34.328 34.371 34.401 34.421 34.408 34.431 34.428 34.433 34.478 34.531 34.578 34.591 34.636 34.611 34.593 34.636 34.686 34.723 34.723 34.748 34.721 34.733 34.746 34.756 34.758 34.766 34.806 34.801 34.806 34.823 34.851 34.856 34.908 34.943 34.968 34.991 34.993 35.021 35.081 35.111 35.181 35.186 35.228 35.233 35.263 35.298 35.358 35.406 35.491 35.538 35.603 35.673 35.701 35.696 35.711 35.766 35.793 35.808
33.149 33.134 33.097 33.077 33.029 32.989 33.004 32.982 32.979 32.969 32.954 32.924 32.919 32.932 32.932 32.877 32.854 32.829 32.819 32.764 32.772 32.759 32.734 32.722 32.654 32.627 32.657 32.649 32.619 32.637 32.612 32.594 32.549 32.564 32.549 32.514 32.522 32.497 32.489 32.469 32.469 32.426 32.401 32.374 32.386 32.371 32.356 32.341 32.301 32.229 32.226 32.169 32.121 32.061 32.019 32.051 32.014 31.939 31.909 31.849 31.811 31.806 31.756 31.721 31.646 31.641 31.614 31.594 31.584 31.574 31.526 31.529 31.556 31.526 31.489 31.454 31.454 31.404 31.384 31.401 31.399 31.421 31.426 31.481 31.479 31.514 31.574 31.576 31.616 31.666 31.674 31.684 31.704 31.716 31.704 31.734 31.724 31.721 31.729 31.689 31.744 31.711 31.711 31.741 31.706 31.741 31.734 31.699 31.709 31.684 31.691 31.651 31.649 31.656 31.641 31.596 31.609 31.599 31.634 31.601 31.631 31.656 31.676 31.661 31.689 31.691 31.704 31.726 31.746 31.744 31.726 31.734 31.746 31.701 31.719 31.691 31.679 31.681 31.641 31.649 31.641 31.606 31.551 31.556 31.534 31.499 31.479 31.431 31.399 31.391 31.324 31.289 31.261 31.241 31.241 31.199 31.171 31.154 31.134 31.121 31.066 31.031 30.981 30.941 30.916 30.856 30.821 30.766 30.751 30.751 30.679 30.659 30.631 30.589 30.549 30.506 30.419 30.389 30.374 30.304 30.261 30.224 30.151 30.091 30.039 29.994 29.939 29.909 29.819 29.766 29.734 29.634 29.571 29.499 29.444 29.381 29.256 29.251 29.164 29.074 28.999 28.964 28.879 28.814 28.789 28.716 28.651 28.594 28.514 28.454 28.359 28.304 28.296 28.154 28.126 27.994 27.751 27.739 27.766 27.741 27.716 27.679 27.601 27.534 27.481 27.434 27.416 27.419 27.414 27.409 27.399 27.369 27.436 27.406 27.424 27.334 27.331 27.391 27.446 27.426 27.389 27.431 27.451 27.419 27.429 27.381 27.426 27.434 27.426 27.394 27.391 27.401 27.406 27.429 27.436 27.434 27.399 27.409 27.421 27.421 27.376 27.419 27.419 27.426 27.451 27.459 27.496 27.514 27.619 27.589 27.619 27.686 27.734 27.809 27.939 28.016 28.091 27.871 27.411 26.734 26.501 26.441 26.764 27.646 27.954 28.006 27.926 27.451 26.666 26.341 26.103 26.536 27.146 27.261 27.288 27.261 27.271 27.273 27.271 27.268 27.293 27.221 27.221 27.206 27.173 27.186 27.181 27.256 27.313 27.366 27.428 27.438 27.511 27.611 27.741 27.918 28.168 28.431 28.751 29.051 29.233 29.411 29.568 30.328 31.083 31.293 31.331 31.426 31.468 31.593 31.753 31.898 32.078 32.258 32.396 32.533 32.711 32.863 33.028 33.161 33.318 33.468 33.586 33.676 33.821 33.866 33.853 33.918 33.921 33.948 33.971 33.986 34.028 34.056 34.073 34.113 34.113 34.121 34.141 34.136 34.171 34.191 34.188 34.251 34.273 34.283 34.341 34.323 34.358 34.378 34.421 34.421 34.446 34.441 34.453 34.438 34.473 34.518 34.561 34.593 34.621 34.618 34.621 34.663 34.723 34.741 34.758 34.763 34.731 34.743 34.766 34.791 34.768 34.786 34.796 34.806 34.816 34.833 34.853 34.863 34.886 34.928 34.951 34.998 35.016 35.028 35.098 35.123 35.168 35.196 35.213 35.216 35.243 35.291 35.331 35.398 35.466 35.503 35.591 35.646 35.671 35.723 35.738 35.741 35.798 35.831
33.159 33.127 33.107 33.069 33.034 33.014 33.032 32.997 33.002 32.957 32.929 32.934 32.899 32.887 32.904 32.882 32.832 32.799 32.784 32.737 32.699 32.682 32.692 32.679 32.589 32.577 32.617 32.584 32.539 32.549 32.542 32.534 32.489 32.492 32.492 32.489 32.472 32.449 32.441 32.439 32.381 32.354 32.319 32.311 32.309 32.279 32.274 32.274 32.216 32.191 32.161 32.079 32.039 32.021 32.016 31.996 31.966 31.904 31.869 31.836 31.784 31.789 31.729 31.654 31.656 31.636 31.619 31.569 31.579 31.564 31.566 31.514 31.534 31.514 31.486 31.461 31.474 31.439 31.391 31.419 31.404 31.421 31.454 31.479 31.524 31.546 31.586 31.621 31.651 31.661 31.714 31.736 31.736 31.739 31.756 31.779 31.759 31.764 31.774 31.749 31.731 31.741 31.769 31.774 31.761 31.764 31.761 31.734 31.701 31.684 31.654 31.714 31.694 31.619 31.626 31.619 31.631 31.611 31.639 31.631 31.654 31.651 31.651 31.641 31.609 31.661 31.714 31.679 31.726 31.719 31.711 31.756 31.716 31.696 31.679 31.689 31.654 31.661 31.659 31.626 31.606 31.584 31.576 31.541 31.539 31.519 31.506 31.446 31.409 31.391 31.376 31.301 31.289 31.231 31.244 31.194 31.139 31.116 31.086 31.069 31.054 31.004 30.961 30.949 30.886 30.866 30.791 30.756 30.746 30.746 30.681 30.649 30.596 30.591 30.521 30.496 30.436 30.389 30.346 30.301 30.249 30.194 30.139 30.081 30.019 29.994 29.941 29.871 29.799 29.774 29.699 29.626 29.576 29.474 29.444 29.341 29.296 29.249 29.151 29.114 29.031 28.954 28.861 28.824 28.791 28.714 28.641 28.561 28.461 28.436 28.386 28.384 28.366 28.281 28.199 28.034 27.739 27.771 27.781 27.764 27.766 27.699 27.581 27.544 27.506 27.441 27.381 27.409 27.384 27.396 27.371 27.384 27.444 27.421 27.424 27.406 27.424 27.409 27.434 27.416 27.416 27.421 27.426 27.444 27.401 27.371 27.436 27.404 27.439 27.384 27.419 27.429 27.394 27.414 27.409 27.441 27.409 27.409 27.426 27.421 27.399 27.419 27.416 27.409 27.436 27.479 27.489 27.501 27.569 27.559 27.601 27.646 27.729 27.781 27.811 27.931 28.044 28.011 27.664 27.119 26.409 26.281 26.429 27.096 27.864 28.046 28.029 27.806 27.228 26.278 26.001 26.301 26.616 27.133 27.246 27.246 27.261 27.268 27.298 27.256 27.278 27.241 27.221 27.186 27.193 27.173 27.196 27.248 27.293 27.331 27.398 27.441 27.503 27.578 27.698 27.871 28.086 28.356 28.663 28.966 29.201 29.373 29.468 29.938 30.853 31.201 31.303 31.383 31.466 31.576 31.706 31.823 31.996 32.161 32.321 32.511 32.666 32.841 32.978 33.108 33.273 33.396 33.556 33.671 33.788 33.853 33.863 33.918 33.938 33.958 33.981 34.001 34.026 34.071 34.093 34.143 34.128 34.121 34.126 34.153 34.163 34.193 34.191 34.238 34.291 34.311 34.343 34.353 34.351 34.388 34.413 34.433 34.456 34.456 34.471 34.471 34.486 34.558 34.588 34.608 34.603 34.611 34.613 34.646 34.686 34.733 34.751 34.773 34.733 34.763 34.766 34.771 34.768 34.786 34.781 34.823 34.841 34.836 34.843 34.856 34.898 34.941 34.941 34.991 35.006 35.023 35.098 35.163 35.193 35.213 35.228 35.221 35.231 35.296 35.336 35.386 35.458 35.493 35.578 35.626 35.716 35.736 35.766 35.748 35.791 35.821
33.159 33.107 33.087 33.077 33.042 33.034 33.034 33.039 32.972 32.954 32.937 32.882 32.889 32.889 32.839 32.799 32.767 32.774 32.707 32.704 32.682 32.669 32.644 32.619 32.597 32.572 32.557 32.534 32.507 32.457 32.489 32.504 32.442 32.437 32.444 32.442 32.392 32.369 32.394 32.366 32.326 32.299 32.274 32.249 32.209 32.199 32.171 32.199 32.164 32.101 32.084 31.981 31.964 31.964 31.981 31.921 31.906 31.851 31.846 31.816 31.754 31.731 31.659 31.616 31.629 31.626 31.601 31.571 31.584 31.534 31.554 31.564 31.541 31.486 31.469 31.456 31.441 31.444 31.444 31.436 31.444 31.456 31.484 31.499 31.531 31.591 31.621 31.634 31.674 31.674 31.724 31.749 31.759 31.781 31.781 31.791 31.774 31.769 31.801 31.811 31.786 31.769 31.779 31.721 31.774 31.776 31.769 31.734 31.764 31.711 31.666 31.684 31.684 31.666 31.651 31.666 31.651 31.636 31.639 31.591 31.616 31.639 31.604 31.639 31.636 31.649 31.679 31.666 31.686 31.704 31.716 31.716 31.716 31.681 31.694 31.691 31.639 31.651 31.604 31.606 31.581 31.589 31.571 31.569 31.526 31.499 31.506 31.441 31.376 31.381 31.364 31.321 31.254 31.239 31.214 31.179 31.136 31.101 31.051 31.019 31.001 30.969 30.939 30.901 30.869 30.854 30.816 30.784 30.769 30.741 30.684 30.659 30.634 30.571 30.531 30.461 30.391 30.404 30.336 30.254 30.221 30.174 30.089 30.059 29.996 29.961 29.891 29.826 29.781 29.721 29.686 29.594 29.551 29.481 29.401 29.341 29.276 29.236 29.176 29.091 29.024 28.951 28.859 28.791 28.744 28.719 28.666 28.564 28.479 28.469 28.414 28.406 28.401 28.364 28.339 28.034 27.789 27.799 27.759 27.764 27.784 27.714 27.626 27.579 27.516 27.439 27.416 27.411 27.401 27.409 27.409 27.441 27.396 27.424 27.419 27.431 27.394 27.439 27.414 27.396 27.406 27.399 27.411 27.421 27.409 27.461 27.454 27.431 27.429 27.419 27.454 27.421 27.429 27.451 27.431 27.426 27.394 27.414 27.409 27.389 27.419 27.434 27.434 27.409 27.421 27.469 27.474 27.529 27.544 27.584 27.604 27.624 27.659 27.769 27.796 27.876 27.946 28.029 27.959 27.456 26.629 26.356 26.364 26.481 27.504 28.024 28.024 27.929 27.696 27.098 26.271 26.141 26.241 26.663 27.076 27.218 27.258 27.248 27.256 27.258 27.278 27.241 27.211 27.221 27.171 27.168 27.203 27.208 27.301 27.328 27.351 27.433 27.476 27.561 27.658 27.801 28.011 28.288 28.566 28.858 29.121 29.303 29.418 29.661 30.423 30.998 31.268 31.371 31.458 31.538 31.638 31.741 31.921 32.088 32.256 32.446 32.593 32.793 32.916 33.063 33.203 33.373 33.518 33.616 33.766 33.823 33.888 33.883 33.921 33.966 33.986 34.008 34.061 34.103 34.118 34.151 34.151 34.146 34.126 34.156 34.173 34.206 34.186 34.231 34.291 34.356 34.368 34.373 34.383 34.408 34.421 34.436 34.463 34.476 34.491 34.461 34.511 34.541 34.581 34.611 34.618 34.628 34.631 34.658 34.693 34.736 34.748 34.798 34.761 34.766 34.788 34.771 34.761 34.776 34.778 34.813 34.856 34.858 34.853 34.871 34.906 34.941 34.971 34.991 35.018 35.056 35.086 35.146 35.176 35.186 35.201 35.233 35.256 35.303 35.336 35.393 35.456 35.523 35.553 35.648 35.738 35.761 35.771 35.753 35.771 35.831
33.127 33.087 33.084 33.047 33.032 33.032 33.037 33.014 32.964 32.959 32.907 32.874 32.869 32.852 32.814 32.787 32.749 32.697 32.684 32.674 32.597 32.612 32.564 32.559 32.512 32.494 32.489 32.487 32.474 32.432 32.397 32.407 32.407 32.389 32.394 32.387 32.347 32.329 32.321 32.294 32.264 32.249 32.209 32.174 32.146 32.169 32.121 32.114 32.094 32.054 31.971 31.901 31.886 31.916 31.904 31.866 31.824 31.786 31.746 31.754 31.726 31.691 31.644 31.589 31.571 31.606 31.581 31.531 31.549 31.556 31.496 31.546 31.504 31.471 31.464 31.491 31.481 31.461 31.446 31.456 31.456 31.499 31.484 31.534 31.556 31.594 31.621 31.689 31.701 31.736 31.756 31.771 31.794 31.826 31.824 31.804 31.819 31.829 31.826 31.839 31.834 31.826 31.846 31.809 31.794 31.784 31.771 31.769 31.764 31.764 31.716 31.699 31.701 31.706 31.679 31.709 31.664 31.651 31.656 31.604 31.626 31.636 31.621 31.644 31.619 31.656 31.639 31.669 31.669 31.681 31.686 31.674 31.674 31.674 31.669 31.661 31.644 31.606 31.594 31.631 31.609 31.579 31.576 31.566 31.556 31.531 31.474 31.449 31.416 31.419 31.361 31.306 31.276 31.256 31.191 31.161 31.129 31.099 31.021 31.016 30.989 30.961 30.939 30.899 30.851 30.819 30.836 30.821 30.769 30.706 30.704 30.674 30.649 30.594 30.541 30.459 30.426 30.379 30.271 30.229 30.211 30.126 30.069 30.039 29.986 29.939 29.874 29.809 29.781 29.731 29.659 29.611 29.534 29.456 29.381 29.331 29.299 29.251 29.159 29.104 29.034 28.936 28.874 28.809 28.759 28.701 28.631 28.571 28.529 28.509 28.441 28.426 28.524 28.531 28.424 28.044 27.811 27.841 27.784 27.769 27.766 27.706 27.639 27.606 27.506 27.451 27.406 27.384 27.356 27.434 27.419 27.436 27.434 27.404 27.414 27.416 27.401 27.399 27.406 27.436 27.439 27.421 27.429 27.409 27.426 27.466 27.459 27.434 27.441 27.419 27.421 27.421 27.434 27.444 27.416 27.391 27.406 27.369 27.384 27.409 27.429 27.399 27.416 27.416 27.436 27.466 27.441 27.496 27.516 27.556 27.609 27.619 27.654 27.739 27.781 27.834 27.914 27.974 28.069 27.849 27.341 26.726 26.484 26.369 26.834 27.786 27.971 28.004 27.881 27.531 26.671 26.211 26.188 26.201 26.786 27.141 27.233 27.248 27.233 27.218 27.248 27.266 27.226 27.213 27.176 27.181 27.176 27.191 27.258 27.301 27.351 27.393 27.448 27.538 27.616 27.738 27.973 28.223 28.471 28.763 29.036 29.233 29.411 29.523 30.098 30.786 31.188 31.371 31.451 31.506 31.611 31.716 31.891 32.016 32.203 32.386 32.543 32.723 32.881 33.046 33.198 33.346 33.481 33.626 33.748 33.821 33.821 33.856 33.921 33.963 33.996 34.033 34.076 34.111 34.111 34.133 34.166 34.153 34.156 34.181 34.188 34.216 34.216 34.268 34.311 34.346 34.371 34.381 34.418 34.418 34.446 34.458 34.468 34.491 34.506 34.503 34.541 34.568 34.596 34.631 34.648 34.633 34.648 34.666 34.703 34.758 34.778 34.796 34.763 34.786 34.801 34.741 34.763 34.778 34.791 34.828 34.856 34.868 34.876 34.881 34.903 34.933 34.966 34.996 35.028 35.026 35.056 35.121 35.168 35.186 35.216 35.208 35.248 35.308 35.378 35.391 35.463 35.508 35.548 35.638 35.723 35.776 35.783 35.728 35.763 35.786
33.092 33.089 33.084 33.047 33.037 33.042 33.014 32.999 32.957 32.922 32.912 32.889 32.894 32.852 32.819 32.772 32.729 32.679 32.667 32.642 32.609 32.592 32.547 32.512 32.477 32.444 32.424 32.437 32.397 32.377 32.349 32.352 32.364 32.322 32.302 32.297 32.272 32.277 32.261 32.261 32.206 32.176 32.144 32.131 32.086 32.091 32.059 32.036 32.009 31.984 31.934 31.854 31.841 31.869 31.816 31.789 31.786 31.739 31.731 31.714 31.681 31.629 31.611 31.591 31.571 31.554 31.571 31.564 31.524 31.541 31.556 31.476 31.459 31.469 31.459 31.474 31.496 31.496 31.474 31.451 31.499 31.489 31.471 31.559 31.596 31.601 31.659 31.699 31.744 31.769 31.764 31.789 31.831 31.829 31.836 31.826 31.834 31.869 31.854 31.839 31.854 31.834 31.836 31.841 31.839 31.814 31.791 31.781 31.754 31.779 31.771 31.749 31.721 31.729 31.691 31.689 31.686 31.706 31.686 31.654 31.624 31.619 31.634 31.631 31.609 31.624 31.621 31.649 31.656 31.666 31.674 31.631 31.626 31.626 31.661 31.626 31.629 31.616 31.596 31.636 31.599 31.571 31.586 31.536 31.534 31.496 31.454 31.436 31.411 31.379 31.356 31.319 31.286 31.264 31.196 31.174 31.119 31.119 31.051 30.996 30.946 30.936 30.926 30.894 30.836 30.834 30.796 30.776 30.736 30.711 30.701 30.639 30.609 30.569 30.536 30.459 30.421 30.334 30.269 30.199 30.166 30.111 30.054 30.014 29.959 29.894 29.834 29.804 29.736 29.709 29.649 29.574 29.506 29.449 29.379 29.331 29.286 29.234 29.159 29.099 29.014 28.956 28.884 28.816 28.751 28.704 28.619 28.599 28.594 28.551 28.494 28.484 28.554 28.594 28.489 28.081 27.786 27.864 27.806 27.764 27.724 27.671 27.641 27.611 27.541 27.469 27.379 27.406 27.381 27.454 27.419 27.459 27.461 27.461 27.439 27.434 27.411 27.389 27.416 27.424 27.444 27.409 27.444 27.409 27.421 27.454 27.451 27.449 27.431 27.424 27.441 27.434 27.404 27.426 27.406 27.391 27.401 27.381 27.391 27.411 27.419 27.426 27.399 27.426 27.424 27.416 27.439 27.476 27.459 27.501 27.574 27.584 27.639 27.699 27.751 27.794 27.841 27.949 28.039 28.064 27.711 27.106 26.449 26.301 26.346 27.224 27.921 27.979 27.986 27.793 27.466 26.808 25.886 26.151 26.431 26.791 27.153 27.223 27.218 27.218 27.238 27.266 27.241 27.231 27.183 27.173 27.168 27.181 27.218 27.273 27.311 27.393 27.443 27.501 27.556 27.693 27.913 28.143 28.383 28.668 28.933 29.183 29.381 29.491 29.781 30.518 31.033 31.336 31.423 31.503 31.596 31.663 31.781 31.958 32.131 32.313 32.478 32.673 32.828 33.006 33.143 33.298 33.458 33.563 33.696 33.788 33.838 33.888 33.906 33.953 33.993 34.028 34.068 34.088 34.128 34.158 34.163 34.161 34.156 34.178 34.218 34.223 34.238 34.266 34.306 34.343 34.388 34.423 34.406 34.431 34.476 34.481 34.478 34.486 34.498 34.508 34.548 34.551 34.593 34.638 34.651 34.651 34.643 34.666 34.716 34.758 34.768 34.808 34.783 34.771 34.818 34.796 34.788 34.791 34.793 34.848 34.861 34.878 34.868 34.898 34.928 34.963 34.993 34.996 35.061 35.041 35.096 35.163 35.176 35.223 35.223 35.238 35.263 35.286 35.346 35.408 35.436 35.493 35.533 35.621 35.683 35.761 35.806 35.748 35.758 35.811
33.124 33.082 33.087 33.064 33.057 33.044 32.989 32.977 32.952 32.959 32.914 32.904 32.867 32.822 32.784 32.722 32.712 32.682 32.659 32.604 32.567 32.532 32.487 32.457 32.422 32.424 32.404 32.367 32.324 32.314 32.259 32.292 32.289 32.254 32.252 32.254 32.242 32.232 32.219 32.196 32.169 32.116 32.119 32.056 32.024 31.986 31.989 31.966 31.939 31.874 31.851 31.824 31.834 31.816 31.784 31.751 31.744 31.701 31.686 31.666 31.619 31.581 31.606 31.584 31.596 31.579 31.561 31.554 31.531 31.551 31.541 31.499 31.509 31.484 31.469 31.486 31.496 31.496 31.506 31.504 31.506 31.491 31.566 31.579 31.604 31.654 31.666 31.696 31.739 31.786 31.779 31.804 31.836 31.836 31.851 31.834 31.886 31.889 31.879 31.881 31.866 31.876 31.846 31.856 31.846 31.831 31.801 31.809 31.781 31.781 31.774 31.756 31.719 31.721 31.726 31.696 31.704 31.701 31.679 31.664 31.621 31.624 31.644 31.659 31.646 31.631 31.631 31.611 31.611 31.644 31.639 31.639 31.634 31.614 31.606 31.579 31.581 31.609 31.609 31.604 31.576 31.579 31.564 31.541 31.504 31.499 31.434 31.414 31.406 31.381 31.361 31.334 31.304 31.301 31.239 31.179 31.149 31.096 31.074 31.039 30.969 30.926 30.886 30.879 30.856 30.826 30.786 30.754 30.744 30.719 30.699 30.659 30.639 30.556 30.509 30.446 30.401 30.354 30.279 30.204 30.121 30.066 30.039 29.984 29.946 29.849 29.804 29.774 29.739 29.701 29.641 29.564 29.506 29.414 29.381 29.314 29.266 29.199 29.146 29.111 29.029 28.979 28.916 28.811 28.751 28.724 28.654 28.619 28.599 28.564 28.531 28.526 28.579 28.686 28.529 28.136 27.821 27.886 27.844 27.784 27.749 27.689 27.634 27.594 27.504 27.469 27.404 27.409 27.409 27.406 27.434 27.424 27.419 27.416 27.419 27.419 27.399 27.454 27.421 27.419 27.426 27.419 27.439 27.411 27.441 27.446 27.456 27.431 27.444 27.421 27.406 27.404 27.431 27.426 27.429 27.424 27.409 27.419 27.406 27.426 27.439 27.439 27.424 27.414 27.389 27.409 27.396 27.451 27.456 27.431 27.519 27.581 27.581 27.616 27.676 27.791 27.819 27.889 28.006 28.026 27.871 27.459 26.634 26.244 26.314 26.586 27.409 27.984 28.016 27.893 27.723 27.373 26.328 26.031 26.166 26.286 26.848 27.206 27.228 27.233 27.248 27.228 27.256 27.228 27.213 27.178 27.166 27.181 27.201 27.233 27.318 27.388 27.416 27.473 27.536 27.676 27.846 28.051 28.328 28.578 28.853 29.121 29.361 29.478 29.586 30.126 30.748 31.246 31.443 31.498 31.578 31.608 31.726 31.903 32.061 32.243 32.401 32.583 32.761 32.913 33.088 33.241 33.391 33.538 33.653 33.786 33.873 33.898 33.913 33.956 33.993 34.026 34.061 34.098 34.116 34.138 34.178 34.151 34.176 34.201 34.198 34.223 34.261 34.273 34.328 34.353 34.378 34.448 34.421 34.448 34.481 34.493 34.506 34.491 34.526 34.511 34.546 34.573 34.596 34.596 34.646 34.643 34.653 34.693 34.703 34.783 34.803 34.801 34.796 34.776 34.798 34.798 34.776 34.808 34.808 34.833 34.833 34.838 34.881 34.908 34.936 34.973 35.001 35.003 35.053 35.041 35.081 35.131 35.171 35.196 35.233 35.266 35.263 35.276 35.358 35.383 35.418 35.476 35.503 35.593 35.658 35.731 35.806 35.796 35.781 35.833
33.069 33.037 33.034 33.062 33.062 33.027 32.997 32.974 32.957 32.964 32.949 32.904 32.857 32.812 32.757 32.694 32.662 32.627 32.592 32.569 32.537 32.467 32.434 32.409 32.362 32.352 32.359 32.294 32.257 32.229 32.237 32.242 32.219 32.197 32.164 32.154 32.199 32.182 32.171 32.149 32.121 32.109 32.031 32.004 31.974 31.939 31.929 31.894 31.829 31.784 31.739 31.774 31.771 31.759 31.759 31.731 31.686 31.624 31.609 31.616 31.594 31.566 31.576 31.599 31.579 31.599 31.569 31.539 31.559 31.554 31.531 31.509 31.526 31.504 31.466 31.499 31.511 31.486 31.519 31.506 31.526 31.536 31.591 31.626 31.644 31.681 31.679 31.711 31.744 31.754 31.766 31.811 31.806 31.814 31.854 31.856 31.936 31.899 31.881 31.889 31.894 31.879 31.889 31.861 31.831 31.866 31.794 31.811 31.801 31.799 31.734 31.749 31.784 31.746 31.761 31.746 31.746 31.739 31.689 31.679 31.674 31.649 31.624 31.641 31.659 31.644 31.674 31.611 31.626 31.614 31.574 31.619 31.591 31.599 31.576 31.571 31.594 31.584 31.586 31.589 31.566 31.564 31.554 31.499 31.481 31.459 31.446 31.426 31.419 31.381 31.389 31.329 31.289 31.274 31.244 31.204 31.181 31.104 31.076 31.054 30.986 30.966 30.916 30.886 30.836 30.814 30.776 30.756 30.706 30.686 30.704 30.616 30.601 30.549 30.534 30.419 30.351 30.319 30.269 30.176 30.106 30.026 29.999 29.931 29.894 29.809 29.776 29.749 29.699 29.671 29.589 29.514 29.484 29.416 29.374 29.324 29.254 29.186 29.154 29.106 29.029 28.966 28.916 28.826 28.764 28.706 28.649 28.631 28.581 28.551 28.561 28.564 28.589 28.674 28.436 28.044 27.821 27.906 27.861 27.814 27.766 27.706 27.649 27.614 27.491 27.436 27.401 27.406 27.391 27.376 27.446 27.414 27.399 27.416 27.416 27.434 27.421 27.416 27.421 27.439 27.424 27.389 27.421 27.414 27.376 27.384 27.416 27.396 27.439 27.436 27.441 27.426 27.414 27.426 27.444 27.431 27.431 27.416 27.401 27.426 27.426 27.436 27.441 27.421 27.419 27.431 27.386 27.424 27.431 27.461 27.494 27.554 27.591 27.599 27.679 27.739 27.816 27.864 27.936 27.981 27.949 27.746 27.309 26.451 26.254 26.426 26.961 27.751 28.048 27.976 27.886 27.723 27.318 26.513 26.213 26.306 26.438 27.008 27.228 27.238 27.258 27.271 27.263 27.261 27.203 27.168 27.153 27.156 27.178 27.198 27.256 27.318 27.361 27.436 27.501 27.613 27.758 27.976 28.208 28.486 28.731 29.026 29.268 29.448 29.563 29.796 30.388 31.096 31.368 31.491 31.528 31.608 31.706 31.838 32.021 32.156 32.328 32.531 32.696 32.873 33.033 33.201 33.371 33.536 33.646 33.746 33.833 33.871 33.918 33.923 33.988 34.021 34.063 34.113 34.131 34.181 34.188 34.163 34.188 34.196 34.203 34.248 34.266 34.268 34.333 34.358 34.393 34.471 34.453 34.461 34.486 34.478 34.506 34.478 34.523 34.528 34.556 34.571 34.601 34.648 34.658 34.668 34.693 34.703 34.701 34.768 34.788 34.826 34.828 34.783 34.808 34.823 34.811 34.821 34.831 34.836 34.846 34.863 34.903 34.916 34.946 34.948 35.001 35.016 35.031 35.033 35.068 35.143 35.156 35.196 35.191 35.261 35.256 35.296 35.323 35.371 35.411 35.463 35.503 35.591 35.641 35.723 35.783 35.806 35.778 35.798
33.022 32.979 33.002 33.012 33.027 33.009 33.004 32.972 32.969 32.949 32.907 32.857 32.849 32.814 32.774 32.712 32.644 32.604 32.562 32.552 32.507 32.457 32.434 32.392 32.324 32.292 32.282 32.249 32.224 32.219 32.224 32.189 32.132 32.177 32.132 32.102 32.102 32.114 32.126 32.106 32.096 32.064 32.011 31.986 31.961 31.896 31.859 31.821 31.759 31.706 31.726 31.719 31.731 31.716 31.689 31.659 31.644 31.544 31.539 31.566 31.519 31.541 31.541 31.549 31.541 31.541 31.559 31.544 31.561 31.526 31.529 31.529 31.501 31.529 31.516 31.514 31.529 31.526 31.541 31.539 31.549 31.626 31.619 31.656 31.684 31.699 31.704 31.719 31.744 31.786 31.814 31.809 31.846 31.856 31.856 31.876 31.909 31.931 31.909 31.924 31.906 31.941 31.936 31.894 31.859 31.876 31.849 31.834 31.796 31.806 31.769 31.789 31.791 31.756 31.754 31.746 31.739 31.729 31.714 31.696 31.681 31.696 31.684 31.651 31.644 31.671 31.651 31.616 31.631 31.644 31.554 31.576 31.571 31.556 31.551 31.539 31.561 31.546 31.556 31.571 31.541 31.519 31.539 31.516 31.464 31.479 31.451 31.409 31.401 31.376 31.359 31.336 31.321 31.261 31.231 31.206 31.166 31.136 31.086 31.054 30.999 30.984 30.944 30.861 30.866 30.831 30.779 30.764 30.691 30.654 30.664 30.641 30.579 30.536 30.511 30.416 30.344 30.309 30.259 30.156 30.081 30.016 29.979 29.894 29.876 29.819 29.781 29.726 29.686 29.631 29.556 29.489 29.441 29.381 29.354 29.296 29.261 29.194 29.156 29.109 29.049 28.964 28.941 28.849 28.779 28.689 28.706 28.681 28.644 28.619 28.579 28.611 28.666 28.709 28.404 27.996 27.891 27.926 27.836 27.824 27.781 27.679 27.614 27.586 27.494 27.424 27.414 27.449 27.424 27.406 27.421 27.379 27.399 27.371 27.406 27.399 27.449 27.411 27.419 27.416 27.399 27.394 27.399 27.416 27.449 27.441 27.419 27.399 27.404 27.434 27.434 27.434 27.449 27.456 27.444 27.429 27.424 27.424 27.434 27.429 27.429 27.434 27.449 27.449 27.436 27.419 27.444 27.414 27.404 27.409 27.439 27.486 27.564 27.604 27.611 27.661 27.749 27.804 27.881 27.996 28.019 27.974 27.609 26.816 26.279 26.489 26.551 26.941 27.888 28.001 27.901 27.823 27.686 27.311 26.543 26.301 26.253 26.566 27.123 27.226 27.226 27.293 27.293 27.248 27.231 27.178 27.151 27.153 27.133 27.183 27.236 27.293 27.288 27.378 27.483 27.548 27.688 27.891 28.123 28.393 28.666 28.933 29.173 29.373 29.553 29.658 30.003 30.718 31.206 31.478 31.543 31.596 31.671 31.768 31.943 32.108 32.258 32.423 32.633 32.851 32.978 33.146 33.348 33.486 33.621 33.738 33.828 33.871 33.896 33.933 33.973 34.016 34.078 34.093 34.148 34.186 34.203 34.183 34.196 34.208 34.266 34.278 34.263 34.288 34.326 34.378 34.431 34.451 34.473 34.468 34.523 34.518 34.523 34.528 34.531 34.558 34.551 34.588 34.611 34.663 34.683 34.698 34.723 34.711 34.723 34.766 34.816 34.828 34.816 34.833 34.826 34.821 34.828 34.823 34.853 34.873 34.881 34.876 34.881 34.931 34.953 34.973 34.996 35.021 35.061 35.076 35.061 35.146 35.193 35.218 35.218 35.228 35.248 35.293 35.326 35.371 35.408 35.463 35.501 35.561 35.631 35.713 35.768 35.813 35.791 35.813
33.012 32.994 33.002 32.997 33.004 32.994 32.967 32.962 32.972 32.959 32.922 32.857 32.849 32.819 32.734 32.689 32.657 32.612 32.569 32.532 32.499 32.464 32.409 32.347 32.329 32.247 32.217 32.184 32.167 32.174 32.157 32.132 32.112 32.092 32.047 32.079 32.057 32.077 32.084 32.084 32.036 32.041 32.004 31.941 31.944 31.889 31.829 31.801 31.734 31.719 31.746 31.694 31.669 31.666 31.611 31.589 31.549 31.516 31.524 31.529 31.494 31.524 31.519 31.509 31.516 31.536 31.554 31.581 31.566 31.536 31.519 31.521 31.534 31.541 31.549 31.551 31.504 31.534 31.571 31.554 31.589 31.629 31.661 31.666 31.671 31.721 31.754 31.739 31.769 31.774 31.804 31.806 31.819 31.851 31.866 31.856 31.886 31.916 31.904 31.924 31.919 31.899 31.921 31.919 31.889 31.876 31.854 31.829 31.804 31.784 31.779 31.789 31.781 31.769 31.766 31.759 31.744 31.764 31.736 31.724 31.699 31.719 31.726 31.696 31.654 31.656 31.631 31.629 31.641 31.616 31.564 31.554 31.546 31.524 31.549 31.546 31.546 31.519 31.529 31.524 31.531 31.516 31.496 31.481 31.451 31.446 31.421 31.406 31.374 31.341 31.351 31.331 31.306 31.249 31.246 31.241 31.194 31.144 31.106 31.061 31.024 31.016 30.991 30.901 30.871 30.854 30.769 30.721 30.704 30.674 30.659 30.626 30.559 30.511 30.489 30.391 30.334 30.286 30.209 30.116 30.074 30.024 29.951 29.861 29.819 29.789 29.766 29.711 29.676 29.594 29.514 29.471 29.434 29.396 29.379 29.296 29.251 29.219 29.169 29.101 29.061 29.011 28.954 28.871 28.789 28.716 28.726 28.679 28.674 28.649 28.609 28.649 28.714 28.686 28.359 27.949 27.914 27.879 27.834 27.796 27.741 27.679 27.624 27.554 27.421 27.381 27.441 27.444 27.414 27.409 27.374 27.326 27.396 27.399 27.389 27.454 27.429 27.444 27.421 27.401 27.369 27.361 27.424 27.431 27.431 27.434 27.424 27.406 27.411 27.396 27.424 27.404 27.406 27.421 27.429 27.421 27.439 27.446 27.416 27.446 27.414 27.436 27.399 27.424 27.409 27.404 27.426 27.419 27.406 27.414 27.439 27.451 27.484 27.541 27.579 27.631 27.686 27.761 27.809 27.934 28.031 28.049 27.919 27.391 26.659 26.409 26.399 26.406 27.086 27.988 27.968 27.876 27.808 27.678 27.088 26.166 26.153 26.387 26.866 27.211 27.218 27.261 27.308 27.271 27.216 27.171 27.158 27.131 27.128 27.161 27.171 27.266 27.296 27.348 27.416 27.501 27.618 27.806 28.063 28.308 28.563 28.826 29.066 29.286 29.486 29.606 29.756 30.221 30.936 31.386 31.553 31.586 31.646 31.731 31.838 31.986 32.171 32.343 32.541 32.753 32.938 33.088 33.261 33.431 33.586 33.703 33.813 33.851 33.878 33.926 33.933 34.028 34.061 34.131 34.133 34.173 34.213 34.213 34.168 34.223 34.221 34.223 34.283 34.311 34.343 34.398 34.456 34.466 34.511 34.478 34.526 34.536 34.513 34.546 34.571 34.596 34.568 34.606 34.641 34.673 34.703 34.703 34.718 34.741 34.756 34.763 34.833 34.808 34.836 34.833 34.851 34.861 34.833 34.841 34.858 34.876 34.876 34.863 34.888 34.928 34.946 34.981 35.003 35.038 35.058 35.083 35.076 35.131 35.173 35.206 35.243 35.246 35.258 35.268 35.306 35.361 35.388 35.456 35.516 35.516 35.581 35.713 35.763 35.806 35.798 35.821
32.952 32.947 32.964 32.947 32.959 32.967 32.942 32.939 32.957 32.919 32.879 32.854 32.819 32.784 32.742 32.732 32.657 32.602 32.567 32.512 32.479 32.397 32.344 32.344 32.264 32.234 32.184 32.157 32.154 32.149 32.099 32.079 32.087 32.069 31.997 32.052 32.052 32.029 32.026 32.004 31.979 31.976 31.959 31.929 31.886 31.856 31.809 31.796 31.756 31.744 31.746 31.681 31.639 31.589 31.581 31.551 31.494 31.489 31.496 31.494 31.489 31.506 31.499 31.501 31.526 31.561 31.541 31.556 31.556 31.526 31.544 31.541 31.556 31.549 31.541 31.571 31.549 31.531 31.596 31.586 31.664 31.691 31.689 31.694 31.694 31.736 31.769 31.781 31.829 31.796 31.799 31.836 31.829 31.859 31.866 31.879 31.924 31.906 31.929 31.924 31.959 31.936 31.911 31.919 31.881 31.856 31.861 31.851 31.839 31.829 31.824 31.831 31.781 31.786 31.759 31.779 31.746 31.786 31.774 31.744 31.744 31.741 31.729 31.716 31.686 31.684 31.679 31.659 31.631 31.584 31.551 31.541 31.511 31.504 31.496 31.516 31.546 31.539 31.514 31.486 31.506 31.501 31.489 31.454 31.444 31.401 31.421 31.381 31.341 31.369 31.334 31.301 31.274 31.261 31.266 31.236 31.194 31.161 31.149 31.094 31.051 31.021 30.999 30.946 30.901 30.869 30.826 30.789 30.731 30.691 30.654 30.611 30.554 30.496 30.436 30.369 30.321 30.261 30.199 30.104 30.031 29.984 29.931 29.869 29.841 29.749 29.726 29.674 29.646 29.589 29.541 29.464 29.399 29.349 29.336 29.289 29.209 29.174 29.144 29.101 29.074 29.019 28.961 28.886 28.806 28.741 28.709 28.709 28.681 28.686 28.639 28.666 28.714 28.584 28.236 27.904 27.904 27.909 27.856 27.766 27.729 27.634 27.581 27.521 27.381 27.426 27.431 27.444 27.384 27.439 27.424 27.416 27.346 27.379 27.394 27.419 27.416 27.424 27.409 27.431 27.426 27.451 27.414 27.414 27.421 27.401 27.424 27.434 27.419 27.426 27.401 27.461 27.426 27.411 27.439 27.434 27.424 27.426 27.394 27.421 27.444 27.424 27.434 27.429 27.431 27.396 27.409 27.431 27.426 27.411 27.416 27.416 27.449 27.474 27.534 27.599 27.649 27.709 27.744 27.821 27.929 28.019 28.009 27.816 27.324 26.476 26.336 26.294 26.483 27.733 27.946 27.943 27.966 27.878 27.481 26.521 26.345 26.338 26.62 27.123 27.231 27.253 27.266 27.276 27.203 27.163 27.156 27.118 27.126 27.148 27.156 27.216 27.278 27.338 27.371 27.446 27.558 27.746 27.946 28.193 28.471 28.728 28.933 29.126 29.363 29.528 29.666 29.843 30.456 31.161 31.508 31.566 31.591 31.663 31.776 31.893 32.053 32.226 32.466 32.638 32.861 33.021 33.226 33.391 33.518 33.681 33.778 33.818 33.838 33.893 33.941 34.013 34.061 34.106 34.126 34.166 34.178 34.198 34.198 34.223 34.253 34.251 34.266 34.323 34.368 34.406 34.476 34.511 34.531 34.506 34.518 34.543 34.546 34.566 34.568 34.603 34.596 34.623 34.646 34.686 34.726 34.721 34.731 34.743 34.751 34.793 34.821 34.841 34.853 34.806 34.836 34.871 34.856 34.826 34.831 34.866 34.908 34.921 34.926 34.956 34.951 34.986 34.991 35.048 35.048 35.068 35.081 35.131 35.153 35.171 35.176 35.231 35.273 35.273 35.291 35.346 35.383 35.426 35.483 35.518 35.608 35.683 35.726 35.806 35.801 35.836
32.907 32.934 32.937 32.937 32.937 32.937 32.922 32.894 32.902 32.889 32.857 32.837 32.794 32.747 32.719 32.704 32.637 32.597 32.544 32.497 32.454 32.397 32.337 32.302 32.267 32.204 32.159 32.127 32.117 32.102 32.069 32.052 32.047 32.049 31.999 32.014 32.029 32.029 31.989 31.961 31.949 31.969 31.951 31.911 31.884 31.846 31.784 31.781 31.739 31.719 31.699 31.696 31.631 31.601 31.566 31.521 31.444 31.476 31.486 31.456 31.476 31.506 31.469 31.531 31.514 31.531 31.561 31.569 31.554 31.551 31.541 31.544 31.581 31.609 31.591 31.606 31.599 31.586 31.619 31.601 31.671 31.701 31.714 31.736 31.736 31.756 31.806 31.801 31.804 31.811 31.839 31.814 31.841 31.869 31.869 31.866 31.901 31.916 31.951 31.939 31.964 31.936 31.929 31.876 31.884 31.879 31.861 31.851 31.856 31.839 31.846 31.839 31.786 31.776 31.771 31.774 31.754 31.781 31.749 31.746 31.746 31.724 31.724 31.736 31.671 31.674 31.684 31.656 31.599 31.571 31.579 31.579 31.559 31.489 31.489 31.491 31.481 31.504 31.466 31.469 31.466 31.459 31.441 31.444 31.391 31.394 31.389 31.376 31.359 31.321 31.299 31.276 31.256 31.254 31.251 31.191 31.166 31.164 31.131 31.109 31.101 31.071 31.019 30.976 30.931 30.871 30.854 30.804 30.761 30.706 30.639 30.596 30.536 30.524 30.451 30.389 30.299 30.226 30.159 30.096 30.066 29.981 29.906 29.834 29.804 29.766 29.684 29.669 29.589 29.536 29.516 29.454 29.376 29.329 29.331 29.259 29.229 29.186 29.141 29.089 29.061 28.984 28.956 28.904 28.841 28.739 28.761 28.739 28.716 28.699 28.686 28.721 28.679 28.436 28.179 27.941 27.951 27.906 27.826 27.761 27.726 27.634 27.549 27.476 27.444 27.421 27.436 27.454 27.421 27.421 27.446 27.424 27.401 27.396 27.406 27.391 27.386 27.394 27.431 27.439 27.446 27.436 27.439 27.411 27.441 27.441 27.411 27.414 27.436 27.416 27.434 27.451 27.429 27.389 27.424 27.416 27.414 27.419 27.371 27.431 27.444 27.434 27.449 27.436 27.469 27.414 27.404 27.429 27.419 27.411 27.429 27.401 27.421 27.451 27.499 27.546 27.574 27.649 27.699 27.761 27.841 27.991 28.066 27.951 27.684 27.269 26.451 26.201 26.178 26.781 27.681 27.998 28.036 27.988 27.838 27.008 26.453 26.421 26.446 27.001 27.233 27.253 27.261 27.276 27.223 27.196 27.153 27.126 27.101 27.088 27.146 27.198 27.258 27.296 27.351 27.413 27.513 27.686 27.893 28.121 28.358 28.616 28.816 29.006 29.206 29.416 29.561 29.661 29.946 30.691 31.253 31.483 31.571 31.596 31.686 31.793 31.961 32.163 32.366 32.536 32.771 32.933 33.111 33.308 33.488 33.638 33.741 33.808 33.838 33.916 33.908 33.973 34.033 34.073 34.133 34.183 34.158 34.186 34.211 34.213 34.246 34.273 34.288 34.323 34.371 34.428 34.486 34.516 34.523 34.531 34.556 34.568 34.573 34.598 34.616 34.623 34.623 34.658 34.676 34.706 34.751 34.768 34.751 34.753 34.786 34.801 34.856 34.866 34.856 34.833 34.816 34.858 34.883 34.831 34.873 34.878 34.888 34.916 34.921 34.941 34.956 34.968 34.986 35.011 35.036 35.061 35.078 35.128 35.141 35.161 35.201 35.223 35.261 35.261 35.273 35.343 35.356 35.421 35.446 35.518 35.581 35.656 35.718 35.793 35.808 35.833
32.887 32.894 32.869 32.894 32.869 32.869 32.867 32.887 32.882 32.857 32.829 32.804 32.747 32.727 32.659 32.672 32.619 32.564 32.499 32.462 32.374 32.357 32.337 32.304 32.219 32.182 32.157 32.084 32.074 32.067 32.042 32.037 32.012 31.999 32.004 31.989 31.987 31.929 31.939 31.949 31.909 31.911 31.901 31.896 31.886 31.836 31.814 31.761 31.766 31.761 31.739 31.719 31.656 31.629 31.581 31.509 31.459 31.481 31.464 31.459 31.481 31.481 31.416 31.486 31.489 31.501 31.536 31.569 31.566 31.571 31.551 31.574 31.611 31.629 31.631 31.606 31.611 31.664 31.646 31.649 31.711 31.746 31.751 31.746 31.781 31.781 31.814 31.806 31.824 31.846 31.856 31.854 31.869 31.874 31.866 31.866 31.896 31.949 31.924 31.944 31.956 31.939 31.916 31.866 31.884 31.876 31.879 31.864 31.831 31.854 31.814 31.826 31.819 31.796 31.811 31.789 31.776 31.776 31.764 31.754 31.754 31.759 31.731 31.721 31.709 31.671 31.691 31.666 31.619 31.594 31.564 31.541 31.534 31.514 31.484 31.506 31.484 31.446 31.426 31.464 31.449 31.436 31.404 31.414 31.376 31.359 31.356 31.326 31.324 31.309 31.284 31.259 31.264 31.244 31.216 31.146 31.156 31.161 31.121 31.126 31.091 31.061 31.026 30.994 30.981 30.934 30.894 30.864 30.799 30.741 30.649 30.609 30.524 30.489 30.424 30.364 30.299 30.221 30.156 30.056 30.034 29.966 29.916 29.819 29.791 29.726 29.664 29.644 29.584 29.521 29.486 29.421 29.341 29.326 29.316 29.236 29.169 29.176 29.134 29.104 29.046 29.009 28.959 28.884 28.789 28.776 28.774 28.749 28.709 28.681 28.719 28.744 28.754 28.459 28.116 27.921 27.981 27.891 27.806 27.814 27.731 27.604 27.556 27.451 27.421 27.436 27.431 27.421 27.439 27.421 27.426 27.426 27.414 27.361 27.421 27.461 27.431 27.421 27.449 27.436 27.441 27.441 27.441 27.451 27.429 27.429 27.404 27.424 27.414 27.411 27.429 27.401 27.431 27.446 27.449 27.421 27.411 27.386 27.389 27.419 27.396 27.404 27.449 27.456 27.434 27.429 27.446 27.429 27.439 27.419 27.404 27.384 27.401 27.401 27.459 27.506 27.579 27.651 27.686 27.714 27.756 27.936 28.051 28.066 27.891 27.586 26.756 26.194 26.163 26.386 27.323 27.883 28.046 28.066 27.998 27.441 26.448 26.288 26.251 26.831 27.243 27.241 27.268 27.313 27.256 27.188 27.153 27.136 27.101 27.098 27.108 27.148 27.201 27.253 27.313 27.351 27.453 27.588 27.786 28.006 28.231 28.466 28.688 28.871 29.066 29.256 29.408 29.551 29.633 30.008 30.708 31.158 31.463 31.528 31.581 31.693 31.853 32.026 32.236 32.423 32.663 32.878 33.056 33.231 33.423 33.568 33.703 33.803 33.823 33.893 33.926 33.983 34.028 34.051 34.131 34.171 34.221 34.218 34.206 34.213 34.263 34.303 34.303 34.326 34.366 34.428 34.488 34.528 34.546 34.551 34.561 34.586 34.618 34.638 34.641 34.646 34.636 34.671 34.688 34.743 34.751 34.763 34.783 34.783 34.788 34.831 34.871 34.883 34.873 34.833 34.833 34.871 34.888 34.853 34.828 34.858 34.891 34.896 34.906 34.936 34.946 34.956 34.981 35.013 35.048 35.068 35.088 35.103 35.173 35.153 35.208 35.223 35.266 35.261 35.266 35.328 35.373 35.418 35.448 35.491 35.548 35.643 35.733 35.768 35.798 35.838
32.852 32.827 32.832 32.837 32.844 32.819 32.814 32.839 32.832 32.804 32.772 32.759 32.724 32.722 32.669 32.619 32.589 32.562 32.497 32.424 32.419 32.329 32.302 32.262 32.222 32.202 32.182 32.109 32.067 32.029 32.017 32.004 31.947 31.949 31.952 31.969 31.954 31.919 31.914 31.901 31.904 31.884 31.881 31.899 31.859 31.824 31.779 31.781 31.811 31.784 31.769 31.736 31.711 31.649 31.564 31.531 31.496 31.441 31.444 31.479 31.464 31.449 31.446 31.429 31.484 31.529 31.529 31.544 31.551 31.599 31.554 31.579 31.576 31.606 31.654 31.651 31.659 31.684 31.666 31.704 31.714 31.746 31.754 31.789 31.791 31.791 31.829 31.821 31.831 31.841 31.866 31.856 31.876 31.881 31.879 31.899 31.919 31.926 31.911 31.944 31.921 31.929 31.904 31.889 31.909 31.869 31.894 31.861 31.851 31.844 31.826 31.831 31.839 31.824 31.816 31.824 31.796 31.794 31.789 31.769 31.776 31.771 31.746 31.746 31.729 31.699 31.701 31.656 31.629 31.606 31.581 31.544 31.524 31.486 31.479 31.496 31.476 31.444 31.421 31.439 31.434 31.409 31.401 31.384 31.389 31.339 31.321 31.289 31.281 31.286 31.269 31.224 31.244 31.236 31.204 31.174 31.169 31.124 31.126 31.131 31.086 31.071 31.026 31.036 30.974 30.939 30.914 30.836 30.804 30.749 30.699 30.634 30.556 30.484 30.421 30.356 30.244 30.176 30.141 30.076 29.979 29.926 29.874 29.804 29.764 29.716 29.666 29.604 29.514 29.501 29.469 29.384 29.314 29.296 29.276 29.216 29.216 29.144 29.134 29.091 29.021 28.991 28.951 28.931 28.804 28.781 28.776 28.764 28.709 28.711 28.726 28.741 28.834 28.519 28.126 27.961 27.966 27.876 27.816 27.754 27.696 27.606 27.544 27.429 27.424 27.439 27.489 27.429 27.441 27.389 27.401 27.414 27.364 27.341 27.464 27.379 27.414 27.409 27.414 27.409 27.406 27.424 27.421 27.409 27.379 27.414 27.431 27.396 27.431 27.439 27.436 27.409 27.399 27.436 27.389 27.419 27.434 27.386 27.426 27.451 27.434 27.419 27.434 27.409 27.434 27.436 27.454 27.459 27.439 27.449 27.399 27.326 27.411 27.396 27.424 27.469 27.564 27.639 27.619 27.686 27.749 27.861 27.969 28.049 28.026 27.799 27.244 26.476 26.161 26.366 26.546 27.401 27.946 28.091 28.143 27.663 26.593 26.233 26.196 26.668 27.188 27.266 27.296 27.286 27.248 27.218 27.156 27.116 27.083 27.086 27.103 27.151 27.183 27.221 27.241 27.288 27.348 27.486 27.713 27.873 28.078 28.311 28.528 28.728 28.903 29.078 29.256 29.393 29.473 29.536 29.933 30.561 31.128 31.393 31.473 31.603 31.728 31.891 32.098 32.306 32.523 32.741 32.951 33.166 33.343 33.483 33.656 33.758 33.766 33.853 33.928 33.958 34.026 34.063 34.098 34.193 34.211 34.223 34.211 34.231 34.281 34.301 34.316 34.321 34.376 34.441 34.508 34.563 34.596 34.586 34.581 34.626 34.638 34.653 34.646 34.666 34.646 34.671 34.711 34.761 34.781 34.768 34.783 34.793 34.801 34.836 34.861 34.876 34.861 34.863 34.866 34.886 34.876 34.866 34.856 34.876 34.868 34.881 34.901 34.936 34.931 34.973 34.993 35.028 35.058 35.106 35.078 35.108 35.126 35.148 35.188 35.208 35.261 35.243 35.266 35.313 35.356 35.408 35.438 35.476 35.573 35.636 35.693 35.761 35.813 35.861
32.807 32.787 32.757 32.794 32.789 32.777 32.799 32.819 32.789 32.762 32.757 32.722 32.647 32.679 32.632 32.562 32.567 32.547 32.459 32.409 32.387 32.354 32.302 32.259 32.219 32.184 32.149 32.102 32.069 32.029 32.017 31.992 31.922 31.934 31.944 31.944 31.929 31.912 31.904 31.896 31.894 31.916 31.889 31.871 31.861 31.806 31.769 31.804 31.804 31.824 31.806 31.751 31.721 31.659 31.579 31.564 31.511 31.461 31.434 31.481 31.454 31.456 31.446 31.436 31.469 31.489 31.516 31.521 31.569 31.571 31.571 31.589 31.601 31.649 31.681 31.711 31.659 31.701 31.721 31.734 31.739 31.769 31.761 31.776 31.806 31.809 31.841 31.814 31.869 31.854 31.851 31.901 31.889 31.934 31.931 31.909 31.914 31.934 31.944 31.911 31.924 31.914 31.914 31.871 31.871 31.879 31.891 31.834 31.866 31.839 31.806 31.806 31.809 31.839 31.814 31.794 31.796 31.791 31.799 31.789 31.766 31.741 31.759 31.754 31.744 31.701 31.669 31.654 31.609 31.596 31.554 31.559 31.516 31.471 31.476 31.481 31.451 31.429 31.419 31.421 31.404 31.399 31.384 31.351 31.341 31.311 31.294 31.269 31.259 31.241 31.194 31.204 31.204 31.211 31.176 31.164 31.156 31.144 31.119 31.111 31.104 31.061 31.039 31.014 30.991 30.966 30.934 30.874 30.831 30.794 30.726 30.644 30.559 30.484 30.416 30.359 30.261 30.184 30.141 30.074 29.986 29.896 29.881 29.809 29.749 29.696 29.646 29.584 29.534 29.454 29.441 29.394 29.339 29.279 29.229 29.186 29.174 29.134 29.104 29.104 29.029 29.004 28.956 28.931 28.786 28.776 28.834 28.774 28.764 28.756 28.749 28.799 28.874 28.534 28.064 27.991 27.981 27.911 27.836 27.736 27.674 27.611 27.521 27.426 27.424 27.419 27.461 27.464 27.456 27.411 27.396 27.406 27.429 27.416 27.446 27.394 27.321 27.371 27.419 27.404 27.409 27.424 27.459 27.409 27.396 27.376 27.414 27.436 27.414 27.446 27.424 27.399 27.429 27.431 27.406 27.379 27.426 27.431 27.394 27.444 27.449 27.439 27.416 27.429 27.449 27.459 27.441 27.451 27.421 27.426 27.339 27.296 27.364 27.394 27.394 27.431 27.521 27.604 27.589 27.661 27.699 27.766 27.934 28.016 28.009 27.969 27.704 27.116 26.296 26.196 26.241 26.813 27.763 28.041 28.211 27.913 26.806 26.086 26.046 26.436 27.136 27.306 27.316 27.308 27.273 27.238 27.176 27.143 27.098 27.078 27.083 27.098 27.171 27.218 27.221 27.233 27.281 27.383 27.548 27.751 27.976 28.173 28.376 28.566 28.743 28.913 29.061 29.183 29.288 29.303 29.366 29.821 30.356 30.891 31.346 31.491 31.586 31.748 31.928 32.161 32.393 32.628 32.843 33.071 33.246 33.428 33.588 33.741 33.801 33.833 33.903 33.973 34.028 34.053 34.108 34.166 34.203 34.218 34.223 34.243 34.271 34.323 34.351 34.361 34.386 34.476 34.546 34.596 34.603 34.603 34.623 34.651 34.658 34.678 34.653 34.688 34.668 34.698 34.753 34.761 34.793 34.813 34.808 34.793 34.793 34.816 34.881 34.901 34.876 34.883 34.848 34.873 34.901 34.873 34.868 34.886 34.873 34.896 34.883 34.878 34.926 34.958 34.991 35.023 35.041 35.068 35.076 35.091 35.123 35.161 35.198 35.216 35.248 35.256 35.278 35.303 35.358 35.396 35.446 35.491 35.573 35.633 35.703 35.791 35.811 35.881
32.737 32.707 32.734 32.739 32.727 32.734 32.739 32.749 32.732 32.704 32.692 32.677 32.627 32.609 32.579 32.554 32.547 32.527 32.434 32.404 32.364 32.319 32.269 32.229 32.209 32.147 32.114 32.107 32.047 32.037 31.992 31.964 31.939 31.944 31.919 31.914 31.942 31.937 31.904 31.864 31.851 31.891 31.891 31.871 31.861 31.789 31.789 31.844 31.814 31.846 31.789 31.776 31.724 31.641 31.616 31.609 31.539 31.504 31.511 31.496 31.444 31.451 31.479 31.504 31.476 31.474 31.479 31.486 31.564 31.564 31.601 31.604 31.621 31.629 31.694 31.689 31.689 31.671 31.754 31.739 31.784 31.791 31.791 31.829 31.839 31.844 31.849 31.844 31.861 31.871 31.879 31.921 31.889 31.916 31.939 31.939 31.941 31.941 31.966 31.941 31.919 31.921 31.929 31.914 31.896 31.886 31.871 31.854 31.841 31.849 31.839 31.811 31.824 31.809 31.839 31.816 31.819 31.794 31.799 31.784 31.774 31.761 31.769 31.724 31.736 31.716 31.669 31.616 31.626 31.599 31.549 31.561 31.526 31.499 31.501 31.471 31.466 31.441 31.434 31.434 31.406 31.359 31.359 31.344 31.309 31.296 31.306 31.266 31.231 31.229 31.221 31.201 31.191 31.176 31.154 31.129 31.126 31.086 31.089 31.084 31.084 31.081 31.069 31.031 31.001 31.001 30.981 30.921 30.849 30.801 30.754 30.654 30.591 30.516 30.429 30.366 30.281 30.224 30.116 30.056 29.989 29.904 29.881 29.804 29.734 29.701 29.606 29.559 29.516 29.436 29.401 29.369 29.326 29.276 29.194 29.181 29.146 29.094 29.074 29.059 29.031 28.996 28.954 28.919 28.784 28.781 28.809 28.801 28.781 28.769 28.749 28.804 28.749 28.464 28.091 28.074 28.041 27.911 27.836 27.734 27.626 27.576 27.471 27.359 27.381 27.421 27.444 27.456 27.441 27.436 27.396 27.444 27.409 27.389 27.399 27.344 27.409 27.476 27.449 27.439 27.439 27.426 27.431 27.401 27.424 27.419 27.416 27.459 27.411 27.436 27.419 27.391 27.416 27.429 27.411 27.446 27.414 27.419 27.389 27.426 27.419 27.401 27.396 27.409 27.441 27.444 27.349 27.341 27.391 27.364 27.339 27.289 27.321 27.354 27.424 27.406 27.484 27.586 27.569 27.676 27.676 27.764 27.866 27.939 28.034 27.999 27.939 27.584 26.546 26.111 26.106 26.278 27.443 27.981 28.211 28.063 27.151 26.388 26.246 26.473 27.113 27.333 27.346 27.368 27.333 27.226 27.161 27.151 27.076 27.066 27.078 27.083 27.126 27.191 27.191 27.203 27.241 27.296 27.451 27.641 27.841 28.018 28.186 28.373 28.548 28.691 28.823 28.958 29.063 29.113 29.146 29.251 29.706 30.336 30.911 31.356 31.476 31.598 31.738 31.998 32.278 32.503 32.748 32.978 33.178 33.368 33.548 33.701 33.788 33.833 33.881 33.953 34.031 34.073 34.138 34.196 34.231 34.218 34.241 34.271 34.303 34.366 34.373 34.398 34.426 34.453 34.576 34.611 34.611 34.623 34.631 34.671 34.678 34.706 34.678 34.696 34.693 34.703 34.731 34.741 34.821 34.821 34.801 34.786 34.793 34.821 34.876 34.903 34.911 34.883 34.853 34.858 34.878 34.883 34.873 34.881 34.881 34.878 34.908 34.918 34.931 34.938 34.978 35.021 35.038 35.053 35.056 35.088 35.121 35.158 35.181 35.208 35.211 35.258 35.276 35.308 35.368 35.413 35.458 35.511 35.586 35.636 35.723 35.756 35.826 35.908
32.647 32.642 32.664 32.642 32.669 32.684 32.694 32.682 32.687 32.672 32.634 32.624 32.602 32.577 32.559 32.519 32.484 32.452 32.409 32.384 32.362 32.294 32.252 32.229 32.212 32.134 32.119 32.087 32.054 32.029 31.972 31.962 31.957 31.942 31.944 31.914 31.927 31.904 31.904 31.874 31.851 31.864 31.841 31.854 31.816 31.774 31.816 31.846 31.829 31.819 31.794 31.749 31.744 31.689 31.599 31.606 31.529 31.516 31.504 31.486 31.474 31.446 31.474 31.481 31.471 31.464 31.471 31.501 31.504 31.544 31.569 31.554 31.614 31.611 31.679 31.714 31.691 31.751 31.801 31.814 31.851 31.806 31.861 31.891 31.864 31.869 31.879 31.889 31.881 31.921 31.936 31.894 31.911 31.931 31.956 31.956 31.971 31.969 31.966 31.951 31.936 31.909 31.909 31.914 31.871 31.874 31.899 31.844 31.839 31.859 31.834 31.856 31.861 31.831 31.824 31.801 31.796 31.804 31.796 31.799 31.776 31.784 31.766 31.719 31.741 31.696 31.674 31.634 31.639 31.586 31.541 31.564 31.539 31.509 31.501 31.451 31.449 31.429 31.429 31.426 31.399 31.379 31.354 31.359 31.321 31.291 31.271 31.241 31.229 31.189 31.194 31.159 31.144 31.166 31.129 31.106 31.076 31.084 31.091 31.111 31.086 31.066 31.069 31.054 31.044 30.991 30.979 30.964 30.896 30.814 30.759 30.699 30.634 30.526 30.486 30.369 30.271 30.194 30.124 30.061 29.974 29.924 29.861 29.794 29.751 29.694 29.614 29.544 29.491 29.446 29.384 29.349 29.324 29.249 29.191 29.166 29.149 29.106 29.074 29.014 28.991 28.976 28.936 28.874 28.784 28.776 28.791 28.779 28.769 28.731 28.761 28.796 28.689 28.421 28.071 28.084 28.019 27.896 27.816 27.761 27.616 27.544 27.426 27.399 27.434 27.456 27.431 27.444 27.421 27.449 27.369 27.414 27.454 27.389 27.411 27.281 27.394 27.414 27.444 27.421 27.434 27.406 27.401 27.416 27.411 27.414 27.441 27.434 27.454 27.429 27.409 27.414 27.416 27.424 27.431 27.366 27.429 27.451 27.469 27.399 27.376 27.416 27.439 27.424 27.411 27.314 27.071 27.201 27.379 27.414 27.354 27.294 27.331 27.374 27.421 27.446 27.456 27.564 27.581 27.636 27.696 27.759 27.814 27.896 28.016 28.116 28.086 27.814 26.903 26.058 26.011 26.131 27.078 27.826 28.153 28.111 27.426 26.338 26.123 26.393 27.061 27.361 27.381 27.343 27.328 27.273 27.186 27.141 27.108 27.053 27.056 27.066 27.101 27.176 27.161 27.166 27.181 27.243 27.328 27.541 27.681 27.853 27.991 28.158 28.306 28.473 28.621 28.733 28.843 28.931 28.946 28.956 29.201 29.763 30.488 31.103 31.328 31.436 31.601 31.841 32.103 32.381 32.603 32.863 33.081 33.311 33.498 33.653 33.781 33.828 33.911 33.941 34.028 34.068 34.133 34.178 34.231 34.278 34.278 34.286 34.311 34.333 34.363 34.431 34.443 34.481 34.553 34.626 34.631 34.668 34.673 34.668 34.691 34.721 34.706 34.718 34.711 34.696 34.728 34.766 34.793 34.821 34.816 34.786 34.808 34.826 34.878 34.896 34.913 34.901 34.851 34.846 34.861 34.868 34.886 34.868 34.881 34.863 34.911 34.923 34.933 34.931 34.948 34.988 35.043 35.068 35.056 35.103 35.126 35.166 35.203 35.226 35.261 35.261 35.306 35.301 35.388 35.416 35.461 35.511 35.548 35.631 35.731 35.808 35.833 35.891
32.592 32.582 32.602 32.599 32.607 32.644 32.637 32.604 32.634 32.614 32.597 32.577 32.587 32.544 32.482 32.494 32.477 32.422 32.394 32.364 32.319 32.264 32.262 32.214 32.159 32.147 32.089 32.082 32.047 32.027 31.982 31.982 31.954 31.942 31.949 31.924 31.929 31.854 31.879 31.866 31.866 31.834 31.819 31.826 31.799 31.746 31.841 31.874 31.849 31.824 31.824 31.769 31.746 31.716 31.649 31.614 31.556 31.541 31.544 31.494 31.511 31.509 31.486 31.451 31.434 31.464 31.476 31.494 31.471 31.504 31.556 31.554 31.586 31.601 31.686 31.709 31.724 31.784 31.814 31.846 31.869 31.846 31.854 31.876 31.884 31.866 31.884 31.894 31.904 31.914 31.949 31.946 31.924 31.934 31.939 31.954 31.964 31.976 31.991 31.956 31.954 31.914 31.924 31.931 31.896 31.889 31.899 31.851 31.849 31.871 31.854 31.839 31.819 31.839 31.814 31.806 31.831 31.801 31.784 31.796 31.794 31.776 31.751 31.696 31.724 31.681 31.644 31.639 31.619 31.589 31.569 31.566 31.549 31.551 31.524 31.461 31.466 31.431 31.429 31.424 31.386 31.374 31.346 31.346 31.289 31.306 31.239 31.216 31.231 31.189 31.191 31.149 31.164 31.139 31.099 31.111 31.084 31.069 31.079 31.069 31.064 31.051 31.061 31.041 31.024 31.014 30.979 30.941 30.916 30.879 30.819 30.741 30.684 30.584 30.504 30.389 30.301 30.234 30.159 30.096 29.996 29.919 29.859 29.804 29.746 29.676 29.594 29.541 29.499 29.424 29.381 29.326 29.284 29.201 29.179 29.131 29.086 29.081 29.051 29.009 28.971 28.969 28.909 28.836 28.786 28.771 28.756 28.764 28.744 28.729 28.719 28.871 28.679 28.356 27.999 28.066 28.006 27.906 27.819 27.684 27.576 27.561 27.459 27.344 27.289 27.326 27.426 27.409 27.436 27.406 27.429 27.461 27.436 27.441 27.381 27.361 27.419 27.401 27.439 27.441 27.409 27.374 27.416 27.386 27.429 27.416 27.454 27.424 27.419 27.386 27.401 27.419 27.416 27.376 27.404 27.471 27.449 27.431 27.446 27.411 27.421 27.409 27.406 27.409 27.406 27.321 27.219 27.349 27.479 27.404 27.376 27.384 27.386 27.396 27.406 27.419 27.466 27.541 27.611 27.661 27.674 27.726 27.781 27.841 27.984 28.131 28.149 27.956 27.451 26.313 26.153 26.168 26.766 27.658 28.106 28.148 27.531 26.236 26.023 26.236 26.943 27.381 27.413 27.391 27.348 27.313 27.223 27.151 27.118 27.056 27.053 27.051 27.088 27.108 27.131 27.138 27.163 27.163 27.256 27.411 27.558 27.716 27.818 27.948 28.128 28.246 28.361 28.498 28.628 28.756 28.813 28.833 28.828 29.321 29.936 30.598 31.116 31.333 31.468 31.688 31.946 32.241 32.461 32.731 32.981 33.228 33.453 33.631 33.718 33.813 33.896 33.968 34.036 34.078 34.173 34.221 34.256 34.303 34.316 34.313 34.346 34.376 34.403 34.448 34.461 34.496 34.573 34.658 34.678 34.651 34.693 34.718 34.703 34.683 34.733 34.723 34.726 34.711 34.738 34.773 34.801 34.816 34.828 34.811 34.816 34.808 34.861 34.923 34.918 34.888 34.851 34.848 34.873 34.871 34.873 34.866 34.901 34.896 34.886 34.933 34.936 34.931 34.958 35.013 35.048 35.058 35.071 35.106 35.141 35.168 35.213 35.231 35.261 35.263 35.303 35.311 35.371 35.463 35.486 35.538 35.581 35.658 35.738 35.808 35.856 35.881
32.517 32.504 32.534 32.527 32.584 32.597 32.582 32.594 32.577 32.567 32.539 32.527 32.517 32.494 32.459 32.444 32.409 32.399 32.357 32.332 32.322 32.259 32.244 32.207 32.184 32.097 32.084 32.044 32.037 32.039 31.989 31.947 31.934 31.969 31.952 31.929 31.914 31.854 31.831 31.841 31.854 31.849 31.826 31.816 31.786 31.784 31.849 31.861 31.834 31.826 31.814 31.796 31.736 31.719 31.671 31.649 31.614 31.574 31.559 31.546 31.531 31.514 31.524 31.466 31.414 31.396 31.486 31.474 31.509 31.506 31.529 31.554 31.546 31.584 31.636 31.706 31.756 31.784 31.829 31.846 31.874 31.889 31.914 31.906 31.894 31.884 31.901 31.929 31.936 31.931 31.979 31.931 31.956 31.944 31.949 31.964 31.949 31.976 31.981 31.954 31.936 31.921 31.944 31.921 31.906 31.906 31.891 31.904 31.864 31.856 31.871 31.836 31.829 31.856 31.829 31.804 31.841 31.809 31.796 31.804 31.799 31.779 31.741 31.726 31.716 31.699 31.639 31.624 31.614 31.589 31.581 31.571 31.526 31.524 31.526 31.494 31.444 31.456 31.426 31.411 31.391 31.356 31.339 31.306 31.289 31.261 31.246 31.226 31.196 31.186 31.189 31.141 31.151 31.126 31.104 31.084 31.094 31.106 31.061 31.069 31.069 31.061 31.044 31.029 31.046 31.019 30.999 30.959 30.916 30.901 30.844 30.779 30.709 30.629 30.511 30.429 30.344 30.271 30.194 30.084 30.031 29.956 29.884 29.804 29.731 29.661 29.604 29.521 29.441 29.394 29.356 29.284 29.256 29.214 29.156 29.101 29.101 29.036 29.011 28.951 28.934 28.899 28.884 28.774 28.789 28.774 28.726 28.746 28.729 28.721 28.749 28.939 28.629 28.224 28.029 28.064 27.969 27.869 27.801 27.694 27.609 27.569 27.466 27.406 27.394 27.414 27.469 27.436 27.444 27.441 27.406 27.414 27.451 27.454 27.466 27.441 27.394 27.331 27.381 27.449 27.389 27.314 27.404 27.366 27.374 27.414 27.449 27.429 27.424 27.384 27.381 27.434 27.426 27.401 27.396 27.456 27.419 27.411 27.434 27.456 27.426 27.414 27.411 27.389 27.386 27.406 27.401 27.354 27.356 27.379 27.369 27.429 27.401 27.421 27.434 27.404 27.441 27.499 27.569 27.649 27.669 27.681 27.741 27.784 27.954 28.089 28.161 28.101 27.638 26.496 26.238 26.188 26.386 27.473 27.966 28.151 27.681 26.433 26.121 26.218 26.768 27.403 27.436 27.396 27.376 27.346 27.253 27.161 27.131 27.071 27.056 27.051 27.081 27.103 27.088 27.108 27.108 27.153 27.206 27.311 27.431 27.573 27.693 27.793 27.886 28.053 28.136 28.246 28.398 28.513 28.606 28.668 28.688 28.871 29.478 30.158 30.956 31.278 31.346 31.541 31.808 32.128 32.368 32.651 32.938 33.151 33.373 33.581 33.716 33.813 33.886 33.961 34.038 34.103 34.183 34.223 34.288 34.326 34.348 34.321 34.366 34.408 34.453 34.478 34.483 34.516 34.556 34.641 34.671 34.668 34.633 34.716 34.708 34.693 34.733 34.741 34.748 34.723 34.743 34.791 34.836 34.833 34.828 34.831 34.833 34.828 34.851 34.901 34.923 34.921 34.886 34.851 34.848 34.876 34.871 34.858 34.911 34.911 34.921 34.936 34.941 34.971 34.953 35.018 35.058 35.078 35.098 35.103 35.166 35.188 35.233 35.246 35.278 35.318 35.333 35.356 35.396 35.456 35.521 35.571 35.601 35.648 35.723 35.803 35.873 35.903
32.462 32.457 32.469 32.499 32.529 32.527 32.542 32.537 32.524 32.492 32.502 32.517 32.497 32.454 32.412 32.387 32.367 32.344 32.319 32.294 32.272 32.272 32.192 32.172 32.172 32.132 32.099 32.042 32.049 32.014 31.977 31.959 31.954 31.977 31.954 31.932 31.882 31.834 31.821 31.846 31.874 31.844 31.839 31.786 31.799 31.859 31.881 31.861 31.864 31.839 31.809 31.804 31.749 31.719 31.676 31.659 31.634 31.616 31.571 31.564 31.574 31.574 31.519 31.511 31.436 31.416 31.446 31.441 31.431 31.471 31.481 31.544 31.574 31.606 31.664 31.709 31.781 31.786 31.831 31.861 31.869 31.896 31.964 31.961 31.936 31.926 31.919 31.924 31.939 31.931 31.961 31.939 31.994 31.986 31.966 31.989 31.991 32.009 31.999 31.996 31.951 31.946 31.946 31.961 31.926 31.924 31.909 31.906 31.904 31.861 31.866 31.856 31.849 31.846 31.834 31.834 31.836 31.829 31.829 31.809 31.789 31.774 31.756 31.736 31.709 31.664 31.659 31.631 31.574 31.569 31.584 31.571 31.549 31.534 31.554 31.524 31.486 31.464 31.469 31.401 31.384 31.344 31.349 31.304 31.279 31.231 31.201 31.191 31.159 31.176 31.149 31.136 31.109 31.104 31.071 31.076 31.061 31.074 31.079 31.046 31.034 31.061 31.049 30.996 31.036 31.011 31.009 30.966 30.939 30.886 30.831 30.764 30.729 30.656 30.561 30.474 30.384 30.311 30.226 30.124 30.034 29.971 29.889 29.824 29.736 29.664 29.604 29.519 29.424 29.399 29.384 29.294 29.236 29.174 29.164 29.094 29.051 29.031 28.996 28.924 28.861 28.849 28.826 28.736 28.769 28.736 28.714 28.719 28.701 28.716 28.734 28.849 28.539 28.086 28.054 28.061 27.966 27.816 27.771 27.651 27.621 27.521 27.441 27.384 27.416 27.409 27.391 27.366 27.409 27.414 27.411 27.449 27.411 27.456 27.426 27.401 27.336 27.411 27.471 27.429 27.394 27.344 27.444 27.409 27.426 27.431 27.426 27.376 27.434 27.436 27.379 27.394 27.396 27.414 27.411 27.431 27.434 27.429 27.456 27.446 27.429 27.434 27.429 27.409 27.421 27.381 27.426 27.389 27.336 27.349 27.344 27.421 27.356 27.389 27.431 27.424 27.446 27.504 27.596 27.629 27.661 27.711 27.756 27.794 27.884 28.044 28.144 28.171 27.848 26.811 26.243 26.193 26.206 27.196 27.863 28.141 27.883 26.763 26.223 26.281 26.488 27.293 27.416 27.376 27.383 27.326 27.226 27.163 27.143 27.096 27.036 27.048 27.056 27.103 27.098 27.098 27.088 27.098 27.126 27.213 27.333 27.443 27.538 27.616 27.748 27.841 27.941 28.056 28.191 28.308 28.391 28.458 28.521 28.563 28.993 29.706 30.726 31.233 31.233 31.378 31.663 31.938 32.248 32.536 32.851 33.093 33.321 33.541 33.711 33.831 33.891 33.951 34.041 34.123 34.191 34.266 34.303 34.358 34.348 34.341 34.381 34.421 34.476 34.486 34.523 34.526 34.578 34.631 34.691 34.688 34.666 34.726 34.726 34.708 34.713 34.751 34.778 34.743 34.746 34.813 34.843 34.843 34.836 34.831 34.823 34.813 34.848 34.898 34.906 34.896 34.881 34.846 34.873 34.876 34.876 34.868 34.901 34.901 34.896 34.933 34.958 34.961 34.986 35.048 35.071 35.106 35.118 35.118 35.176 35.208 35.238 35.268 35.273 35.316 35.343 35.376 35.418 35.463 35.546 35.583 35.611 35.676 35.758 35.811 35.886 35.881
32.427 32.429 32.424 32.442 32.464 32.482 32.484 32.499 32.507 32.464 32.472 32.482 32.447 32.459 32.419 32.372 32.334 32.317 32.274 32.267 32.237 32.224 32.152 32.149 32.157 32.129 32.072 32.022 32.017 32.024 31.967 31.972 31.969 31.972 31.944 31.912 31.902 31.874 31.856 31.854 31.839 31.836 31.804 31.784 31.829 31.884 31.886 31.864 31.856 31.829 31.819 31.766 31.776 31.736 31.684 31.689 31.644 31.659 31.576 31.584 31.589 31.581 31.519 31.544 31.484 31.474 31.459 31.459 31.476 31.446 31.486 31.521 31.584 31.609 31.646 31.686 31.731 31.759 31.819 31.889 31.891 31.914 31.949 31.946 31.961 31.964 31.921 31.946 31.939 31.946 31.956 31.959 31.999 31.979 31.984 32.001 31.996 32.014 31.994 31.999 31.986 31.969 31.971 31.991 31.939 31.941 31.914 31.921 31.911 31.896 31.884 31.851 31.861 31.851 31.849 31.886 31.841 31.819 31.834 31.821 31.794 31.781 31.754 31.739 31.704 31.651 31.619 31.584 31.559 31.586 31.589 31.574 31.549 31.539 31.546 31.534 31.481 31.479 31.459 31.409 31.389 31.356 31.326 31.294 31.284 31.239 31.241 31.204 31.154 31.119 31.129 31.136 31.096 31.099 31.091 31.079 31.066 31.046 31.069 31.066 31.064 31.044 31.044 31.029 31.004 31.019 30.994 30.956 30.949 30.904 30.844 30.794 30.771 30.691 30.591 30.499 30.434 30.386 30.246 30.166 30.101 30.034 29.939 29.841 29.744 29.676 29.576 29.486 29.431 29.374 29.326 29.284 29.209 29.174 29.144 29.071 29.029 28.981 28.946 28.906 28.841 28.831 28.776 28.686 28.711 28.724 28.686 28.674 28.679 28.701 28.661 28.556 28.269 28.041 28.054 28.031 27.934 27.841 27.786 27.679 27.619 27.484 27.466 27.401 27.426 27.444 27.396 27.361 27.399 27.434 27.396 27.476 27.404 27.354 27.406 27.401 27.389 27.426 27.451 27.421 27.434 27.474 27.421 27.424 27.459 27.459 27.431 27.424 27.444 27.446 27.404 27.381 27.419 27.409 27.441 27.434 27.411 27.384 27.429 27.459 27.411 27.366 27.406 27.351 27.414 27.371 27.331 27.459 27.459 27.411 27.384 27.394 27.421 27.459 27.454 27.474 27.451 27.499 27.549 27.601 27.656 27.699 27.709 27.766 27.826 27.941 28.151 28.206 27.888 27.091 26.216 26.156 26.198 26.873 27.811 28.121 27.811 27.201 26.338 26.198 26.348 27.238 27.426 27.386 27.393 27.343 27.243 27.176 27.161 27.076 27.073 27.056 27.056 27.093 27.113 27.106 27.073 27.073 27.061 27.093 27.193 27.313 27.413 27.493 27.583 27.706 27.801 27.911 27.988 28.066 28.178 28.271 28.353 28.396 28.656 29.356 30.176 31.003 31.156 31.291 31.531 31.836 32.156 32.466 32.766 33.061 33.273 33.486 33.693 33.813 33.918 33.983 34.076 34.136 34.211 34.293 34.303 34.378 34.393 34.388 34.383 34.423 34.473 34.513 34.558 34.538 34.608 34.686 34.721 34.716 34.733 34.731 34.723 34.741 34.743 34.758 34.756 34.753 34.743 34.771 34.826 34.861 34.846 34.823 34.838 34.828 34.863 34.886 34.908 34.911 34.891 34.876 34.888 34.911 34.896 34.876 34.916 34.921 34.928 34.953 34.971 34.986 35.008 35.033 35.061 35.133 35.138 35.141 35.201 35.243 35.258 35.298 35.311 35.326 35.368 35.393 35.431 35.486 35.553 35.626 35.653 35.708 35.776 35.803 35.858 35.926
32.377 32.387 32.389 32.404 32.422 32.439 32.454 32.439 32.404 32.417 32.412 32.437 32.404 32.394 32.397 32.342 32.289 32.272 32.262 32.239 32.217 32.187 32.169 32.164 32.184 32.112 32.069 32.034 31.999 32.014 31.967 31.964 31.962 31.949 31.932 31.917 31.899 31.874 31.869 31.854 31.831 31.836 31.791 31.809 31.859 31.881 31.866 31.839 31.841 31.806 31.816 31.781 31.789 31.751 31.724 31.726 31.691 31.674 31.646 31.611 31.621 31.609 31.599 31.554 31.536 31.521 31.464 31.489 31.516 31.481 31.484 31.521 31.564 31.601 31.629 31.706 31.701 31.764 31.816 31.864 31.899 31.924 31.931 31.931 31.946 31.971 31.954 31.934 31.991 32.004 31.976 31.974 32.019 31.981 32.031 32.021 32.011 32.004 31.986 31.966 31.989 31.989 31.974 31.984 31.971 31.964 31.934 31.944 31.939 31.946 31.926 31.904 31.881 31.846 31.876 31.866 31.854 31.821 31.819 31.831 31.804 31.786 31.754 31.709 31.686 31.669 31.619 31.586 31.599 31.589 31.599 31.521 31.546 31.526 31.536 31.521 31.499 31.489 31.449 31.424 31.426 31.389 31.306 31.306 31.271 31.274 31.226 31.216 31.184 31.139 31.129 31.129 31.096 31.054 31.066 31.064 31.074 31.066 31.064 31.044 31.056 31.049 31.024 31.054 31.019 31.009 30.991 30.946 30.926 30.904 30.869 30.796 30.766 30.676 30.609 30.554 30.484 30.399 30.266 30.174 30.119 30.036 29.961 29.876 29.769 29.661 29.599 29.496 29.429 29.379 29.316 29.256 29.201 29.191 29.139 29.101 29.016 28.974 28.916 28.921 28.841 28.829 28.714 28.679 28.714 28.716 28.674 28.669 28.649 28.696 28.681 28.481 28.174 28.029 28.074 28.014 27.931 27.821 27.786 27.634 27.599 27.499 27.464 27.391 27.384 27.419 27.401 27.414 27.389 27.416 27.451 27.421 27.411 27.429 27.424 27.451 27.384 27.419 27.424 27.351 27.271 27.429 27.419 27.374 27.414 27.424 27.414 27.416 27.414 27.461 27.449 27.429 27.416 27.414 27.439 27.414 27.404 27.416 27.394 27.389 27.471 27.359 27.409 27.284 27.224 27.316 27.359 27.374 27.404 27.364 27.384 27.421 27.451 27.459 27.499 27.489 27.479 27.501 27.546 27.601 27.676 27.649 27.681 27.769 27.791 27.854 28.041 28.156 28.011 27.168 26.256 26.096 26.163 26.766 27.701 28.118 27.938 27.421 26.581 26.138 26.351 26.938 27.441 27.426 27.351 27.323 27.256 27.193 27.156 27.106 27.066 27.043 27.041 27.056 27.093 27.118 27.076 27.046 27.051 27.071 27.123 27.206 27.311 27.406 27.486 27.591 27.688 27.761 27.841 27.901 28.013 28.131 28.211 28.266 28.346 28.941 29.671 30.683 31.053 31.206 31.418 31.718 32.058 32.376 32.668 32.966 33.243 33.476 33.683 33.828 33.906 33.991 34.098 34.168 34.201 34.278 34.333 34.393 34.421 34.423 34.438 34.451 34.476 34.533 34.571 34.558 34.593 34.681 34.746 34.738 34.746 34.738 34.756 34.756 34.753 34.781 34.771 34.766 34.746 34.778 34.831 34.873 34.871 34.828 34.821 34.841 34.853 34.883 34.908 34.903 34.883 34.876 34.873 34.916 34.901 34.866 34.898 34.926 34.938 34.956 34.986 34.996 35.021 35.036 35.088 35.153 35.143 35.156 35.211 35.243 35.281 35.318 35.353 35.373 35.406 35.433 35.478 35.523 35.581 35.671 35.686 35.698 35.748 35.816 35.878 35.933
32.329 32.339 32.387 32.354 32.369 32.397 32.417 32.387 32.394 32.412 32.412 32.407 32.347 32.344 32.342 32.314 32.292 32.252 32.227 32.222 32.162 32.152 32.147 32.154 32.134 32.084 32.062 32.042 31.994 31.987 32.002 31.979 31.974 31.932 31.934 31.927 31.914 31.894 31.871 31.879 31.854 31.849 31.824 31.859 31.904 31.891 31.871 31.851 31.851 31.811 31.811 31.781 31.784 31.751 31.739 31.731 31.741 31.729 31.691 31.656 31.684 31.649 31.629 31.606 31.566 31.536 31.526 31.494 31.481 31.511 31.476 31.504 31.524 31.576 31.606 31.684 31.744 31.799 31.824 31.839 31.886 31.949 31.936 31.949 32.006 31.989 32.009 31.966 31.966 31.996 32.014 32.041 32.026 32.011 32.039 32.016 32.036 32.029 31.996 31.996 31.994 31.989 31.969 31.964 31.979 31.991 31.949 31.951 31.954 31.931 31.951 31.914 31.899 31.884 31.911 31.879 31.864 31.854 31.849 31.831 31.801 31.794 31.754 31.734 31.704 31.671 31.644 31.626 31.599 31.594 31.574 31.536 31.524 31.509 31.509 31.496 31.496 31.464 31.454 31.429 31.404 31.344 31.334 31.299 31.304 31.266 31.216 31.206 31.154 31.149 31.129 31.109 31.096 31.084 31.071 31.081 31.089 31.074 31.064 31.019 31.014 31.024 31.041 31.009 31.001 31.006 31.004 30.934 30.931 30.899 30.826 30.779 30.771 30.691 30.624 30.549 30.536 30.426 30.316 30.254 30.144 30.069 29.981 29.906 29.831 29.699 29.589 29.479 29.449 29.389 29.334 29.266 29.216 29.176 29.114 29.089 29.031 28.951 28.944 28.926 28.846 28.804 28.709 28.686 28.676 28.674 28.651 28.651 28.634 28.664 28.716 28.594 28.174 28.106 28.104 28.006 27.934 27.861 27.794 27.684 27.681 27.564 27.461 27.436 27.431 27.379 27.296 27.386 27.399 27.394 27.409 27.411 27.449 27.421 27.409 27.446 27.411 27.399 27.446 27.401 27.169 27.419 27.459 27.384 27.376 27.456 27.439 27.409 27.449 27.414 27.464 27.426 27.424 27.434 27.436 27.411 27.389 27.399 27.411 27.439 27.454 27.404 27.414 27.314 27.269 27.346 27.401 27.384 27.386 27.369 27.431 27.431 27.441 27.484 27.514 27.489 27.484 27.499 27.571 27.624 27.664 27.659 27.669 27.744 27.784 27.866 27.964 28.091 28.011 27.376 26.381 26.178 26.188 26.726 27.628 28.113 28.161 27.606 26.643 25.936 25.768 26.308 27.118 27.406 27.353 27.323 27.266 27.226 27.178 27.113 27.048 27.031 27.018 27.051 27.088 27.103 27.073 27.033 27.023 27.066 27.086 27.136 27.236 27.298 27.403 27.511 27.596 27.663 27.713 27.773 27.841 27.976 28.098 28.141 28.203 28.683 29.418 30.231 30.948 31.146 31.371 31.641 31.983 32.336 32.626 32.916 33.201 33.441 33.663 33.833 33.938 34.018 34.116 34.171 34.236 34.288 34.351 34.373 34.426 34.448 34.456 34.453 34.503 34.523 34.561 34.578 34.611 34.708 34.768 34.776 34.763 34.763 34.753 34.751 34.771 34.771 34.786 34.758 34.751 34.783 34.796 34.851 34.853 34.841 34.841 34.836 34.846 34.898 34.923 34.921 34.878 34.896 34.876 34.918 34.913 34.898 34.896 34.936 34.953 34.971 34.963 34.981 35.041 35.078 35.111 35.153 35.168 35.186 35.241 35.278 35.281 35.296 35.361 35.418 35.438 35.468 35.483 35.543 35.593 35.621 35.688 35.713 35.796 35.846 35.906 35.921
32.292 32.294 32.349 32.334 32.342 32.364 32.372 32.392 32.399 32.402 32.414 32.359 32.337 32.334 32.304 32.282 32.239 32.254 32.219 32.192 32.172 32.137 32.132 32.137 32.107 32.097 32.052 32.029 31.992 31.994 31.977 31.977 31.959 31.959 31.932 31.942 31.917 31.909 31.896 31.909 31.881 31.864 31.846 31.906 31.931 31.916 31.891 31.859 31.866 31.841 31.829 31.786 31.779 31.799 31.799 31.764 31.736 31.741 31.719 31.704 31.701 31.721 31.649 31.624 31.554 31.526 31.544 31.524 31.454 31.481 31.481 31.486 31.524 31.556 31.586 31.649 31.719 31.779 31.831 31.839 31.844 31.926 31.909 31.949 32.004 32.001 32.031 31.994 32.026 32.064 32.039 32.089 32.049 32.049 32.051 32.059 32.051 32.041 32.006 32.016 31.994 31.996 31.996 31.971 31.984 31.986 31.976 31.979 31.979 31.974 31.946 31.929 31.921 31.929 31.911 31.896 31.879 31.866 31.876 31.846 31.834 31.799 31.761 31.734 31.686 31.669 31.664 31.624 31.606 31.616 31.594 31.546 31.544 31.539 31.524 31.474 31.484 31.461 31.456 31.429 31.414 31.339 31.311 31.304 31.296 31.249 31.214 31.189 31.164 31.154 31.134 31.119 31.086 31.081 31.086 31.101 31.076 31.046 31.021 31.051 31.001 31.004 31.001 30.974 31.001 30.996 30.996 30.971 30.921 30.899 30.831 30.799 30.774 30.699 30.636 30.564 30.514 30.441 30.331 30.279 30.191 30.111 30.004 29.946 29.821 29.729 29.641 29.509 29.466 29.409 29.331 29.261 29.196 29.169 29.124 29.094 29.041 28.981 28.921 28.889 28.839 28.791 28.679 28.674 28.681 28.669 28.694 28.651 28.699 28.659 28.669 28.546 28.251 28.156 28.139 28.061 27.976 27.934 27.819 27.729 27.709 27.626 27.544 27.469 27.439 27.426 27.379 27.409 27.414 27.439 27.441 27.426 27.431 27.434 27.441 27.449 27.446 27.461 27.444 27.454 27.349 27.459 27.416 27.384 27.421 27.469 27.431 27.416 27.464 27.431 27.409 27.461 27.409 27.421 27.424 27.401 27.409 27.406 27.414 27.446 27.429 27.384 27.386 27.379 27.379 27.416 27.389 27.386 27.384 27.386 27.419 27.449 27.454 27.494 27.474 27.501 27.519 27.491 27.574 27.566 27.639 27.674 27.684 27.746 27.801 27.834 27.949 28.081 28.116 27.658 26.448 26.118 26.176 26.701 27.523 28.131 28.206 27.786 26.506 25.666 25.446 25.868 26.773 27.351 27.338 27.321 27.318 27.233 27.201 27.146 27.081 27.053 27.013 27.031 27.071 27.086 27.058 27.033 27.001 27.011 27.043 27.091 27.133 27.196 27.331 27.446 27.498 27.586 27.626 27.683 27.741 27.846 27.973 28.046 28.138 28.388 29.098 29.828 30.771 31.106 31.291 31.578 31.871 32.246 32.581 32.908 33.168 33.411 33.656 33.836 33.916 34.031 34.128 34.201 34.261 34.331 34.376 34.411 34.458 34.448 34.473 34.493 34.521 34.548 34.573 34.601 34.618 34.683 34.778 34.781 34.776 34.758 34.761 34.768 34.776 34.793 34.781 34.776 34.783 34.786 34.798 34.841 34.838 34.831 34.841 34.858 34.848 34.893 34.921 34.916 34.888 34.886 34.888 34.918 34.928 34.903 34.903 34.936 34.971 34.986 35.003 35.018 35.071 35.111 35.158 35.171 35.201 35.211 35.236 35.261 35.298 35.348 35.393 35.453 35.436 35.451 35.508 35.583 35.593 35.658 35.708 35.718 35.808 35.841 35.866 35.906
32.272 32.287 32.332 32.309 32.339 32.319 32.339 32.362 32.364 32.337 32.344 32.347 32.307 32.299 32.279 32.242 32.239 32.219 32.167 32.159 32.139 32.117 32.127 32.109 32.064 32.079 32.062 32.022 32.017 31.982 31.977 31.989 31.972 31.954 31.947 31.957 31.932 31.929 31.934 31.901 31.884 31.866 31.906 31.939 31.934 31.946 31.921 31.899 31.901 31.904 31.869 31.811 31.809 31.801 31.819 31.801 31.771 31.786 31.749 31.756 31.736 31.751 31.696 31.674 31.626 31.609 31.566 31.534 31.504 31.481 31.506 31.514 31.521 31.536 31.559 31.629 31.676 31.759 31.764 31.846 31.861 31.901 31.926 31.949 31.979 32.001 32.041 32.046 32.071 32.081 32.061 32.104 32.081 32.109 32.106 32.094 32.056 32.049 32.014 32.041 32.021 32.016 31.999 31.974 32.009 31.981 31.991 31.974 31.986 31.954 31.956 31.944 31.941 31.934 31.921 31.901 31.896 31.906 31.874 31.854 31.844 31.821 31.781 31.771 31.734 31.701 31.674 31.619 31.604 31.611 31.601 31.564 31.571 31.551 31.539 31.489 31.459 31.449 31.439 31.414 31.389 31.364 31.334 31.309 31.264 31.246 31.256 31.211 31.191 31.191 31.124 31.119 31.131 31.089 31.084 31.079 31.074 31.056 31.041 31.039 31.046 31.039 31.019 30.994 30.996 30.979 30.994 30.981 30.919 30.891 30.864 30.814 30.769 30.694 30.614 30.566 30.506 30.434 30.359 30.296 30.209 30.116 30.031 29.979 29.869 29.771 29.679 29.574 29.451 29.399 29.329 29.271 29.239 29.174 29.154 29.091 29.046 28.974 28.921 28.916 28.839 28.766 28.691 28.719 28.706 28.686 28.661 28.676 28.704 28.706 28.699 28.564 28.286 28.211 28.226 28.146 28.076 28.001 27.909 27.776 27.741 27.671 27.569 27.481 27.416 27.426 27.451 27.406 27.411 27.441 27.421 27.436 27.409 27.441 27.441 27.431 27.444 27.461 27.406 27.401 27.376 27.441 27.429 27.461 27.449 27.449 27.431 27.411 27.406 27.379 27.401 27.406 27.369 27.416 27.431 27.431 27.389 27.374 27.429 27.441 27.406 27.426 27.401 27.409 27.374 27.434 27.381 27.381 27.399 27.431 27.459 27.499 27.501 27.531 27.501 27.531 27.511 27.514 27.569 27.541 27.584 27.671 27.694 27.731 27.814 27.841 27.981 28.139 28.173 27.776 26.491 26.156 26.203 26.698 27.528 28.068 28.231 27.941 26.868 25.991 25.748 25.871 26.536 27.256 27.353 27.363 27.353 27.283 27.216 27.166 27.063 27.036 27.001 27.048 27.056 27.073 27.096 27.038 27.016 26.991 27.036 27.063 27.096 27.173 27.271 27.358 27.426 27.486 27.541 27.601 27.651 27.756 27.888 27.948 28.053 28.213 28.828 29.616 30.546 31.106 31.293 31.523 31.831 32.238 32.526 32.826 33.171 33.393 33.626 33.826 33.943 34.071 34.161 34.218 34.263 34.348 34.408 34.441 34.463 34.488 34.503 34.528 34.548 34.583 34.593 34.618 34.646 34.706 34.771 34.798 34.781 34.763 34.741 34.763 34.771 34.791 34.778 34.766 34.776 34.806 34.808 34.856 34.866 34.876 34.868 34.871 34.858 34.886 34.918 34.896 34.903 34.908 34.893 34.916 34.943 34.903 34.936 34.948 34.961 34.966 35.006 35.028 35.096 35.126 35.196 35.201 35.218 35.233 35.273 35.308 35.346 35.373 35.411 35.461 35.471 35.511 35.523 35.573 35.603 35.681 35.701 35.711 35.778 35.816 35.866 35.861
32.257 32.257 32.282 32.284 32.294 32.274 32.309 32.312 32.319 32.317 32.304 32.312 32.299 32.292 32.272 32.252 32.224 32.207 32.172 32.169 32.137 32.124 32.079 32.079 32.062 32.039 32.037 31.999 31.992 32.022 32.012 31.977 31.964 31.974 31.972 31.974 31.962 31.942 31.939 31.919 31.914 31.936 31.979 31.959 31.969 31.951 31.941 31.916 31.904 31.901 31.871 31.874 31.834 31.829 31.819 31.844 31.806 31.816 31.816 31.836 31.829 31.764 31.711 31.709 31.649 31.601 31.599 31.551 31.549 31.519 31.506 31.494 31.511 31.574 31.564 31.586 31.644 31.741 31.756 31.844 31.881 31.894 31.926 31.979 31.979 32.021 32.034 32.084 32.081 32.101 32.126 32.121 32.141 32.154 32.124 32.121 32.109 32.109 32.104 32.066 32.046 32.051 32.024 32.019 32.001 32.014 32.011 31.991 31.984 31.989 31.976 31.994 31.954 31.986 31.939 31.921 31.944 31.916 31.891 31.884 31.861 31.849 31.834 31.786 31.741 31.721 31.691 31.661 31.654 31.631 31.589 31.581 31.571 31.536 31.554 31.496 31.456 31.471 31.454 31.421 31.354 31.326 31.331 31.326 31.279 31.224 31.244 31.204 31.196 31.196 31.131 31.109 31.136 31.109 31.104 31.109 31.079 31.049 31.059 31.039 31.034 31.044 31.029 31.016 31.016 30.979 30.971 30.926 30.914 30.896 30.871 30.799 30.739 30.711 30.636 30.584 30.511 30.411 30.379 30.304 30.229 30.136 30.074 29.976 29.871 29.771 29.681 29.564 29.496 29.396 29.354 29.274 29.236 29.144 29.126 29.081 29.084 29.009 28.946 28.924 28.871 28.726 28.691 28.711 28.719 28.721 28.701 28.719 28.749 28.744 28.859 28.621 28.319 28.359 28.299 28.196 28.169 28.079 27.961 27.876 27.811 27.716 27.574 27.476 27.424 27.424 27.444 27.441 27.454 27.406 27.366 27.401 27.459 27.446 27.359 27.364 27.406 27.436 27.411 27.379 27.429 27.436 27.409 27.394 27.399 27.456 27.471 27.444 27.411 27.414 27.371 27.394 27.424 27.426 27.424 27.409 27.399 27.411 27.404 27.416 27.409 27.469 27.426 27.386 27.291 27.364 27.396 27.394 27.421 27.456 27.491 27.496 27.506 27.521 27.534 27.529 27.504 27.486 27.521 27.541 27.576 27.659 27.704 27.769 27.809 27.834 28.004 28.134 28.213 27.876 26.861 26.303 26.203 26.751 27.656 28.038 28.288 28.046 27.231 26.271 26.103 26.066 26.411 27.218 27.366 27.358 27.361 27.301 27.236 27.201 27.111 27.041 27.018 27.046 27.083 27.091 27.078 27.051 26.998 26.988 27.026 27.038 27.078 27.138 27.211 27.291 27.388 27.413 27.486 27.553 27.601 27.688 27.823 27.938 27.986 28.091 28.553 29.386 30.318 31.098 31.283 31.511 31.796 32.196 32.506 32.803 33.156 33.403 33.616 33.836 33.961 34.093 34.168 34.228 34.288 34.353 34.428 34.461 34.478 34.503 34.523 34.533 34.561 34.571 34.588 34.636 34.683 34.708 34.786 34.808 34.791 34.791 34.778 34.778 34.776 34.786 34.778 34.778 34.796 34.828 34.841 34.863 34.886 34.923 34.878 34.863 34.873 34.883 34.913 34.916 34.891 34.901 34.913 34.906 34.946 34.928 34.946 34.948 35.001 34.998 35.031 35.071 35.096 35.131 35.218 35.238 35.256 35.291 35.303 35.338 35.393 35.418 35.468 35.466 35.483 35.523 35.563 35.586 35.616 35.693 35.696 35.693 35.713 35.768 35.786 35.823
32.232 32.272 32.259 32.237 32.279 32.287 32.264 32.269 32.279 32.307 32.314 32.302 32.279 32.247 32.277 32.257 32.247 32.207 32.157 32.162 32.147 32.102 32.074 32.087 32.027 31.999 32.037 31.994 32.012 31.992 32.007 32.007 32.024 32.017 31.994 31.974 32.019 31.957 31.989 31.966 31.936 31.999 32.026 31.986 31.986 31.974 31.959 31.929 31.926 31.926 31.884 31.894 31.894 31.876 31.879 31.866 31.861 31.841 31.846 31.876 31.826 31.791 31.741 31.719 31.676 31.639 31.604 31.586 31.564 31.546 31.536 31.519 31.479 31.549 31.591 31.586 31.614 31.699 31.744 31.781 31.824 31.859 31.911 31.966 31.994 32.019 32.061 32.104 32.111 32.164 32.179 32.171 32.181 32.174 32.159 32.144 32.149 32.129 32.106 32.101 32.084 32.039 32.021 32.056 32.044 32.011 32.036 32.019 32.009 31.994 31.979 32.011 31.976 31.996 31.974 31.981 31.951 31.954 31.931 31.911 31.849 31.841 31.814 31.799 31.746 31.739 31.756 31.721 31.649 31.651 31.589 31.584 31.589 31.541 31.556 31.521 31.481 31.481 31.451 31.399 31.369 31.346 31.336 31.294 31.274 31.249 31.251 31.234 31.179 31.166 31.136 31.144 31.131 31.129 31.129 31.094 31.064 31.056 31.079 31.031 31.039 31.034 31.046 31.021 31.014 30.976 30.944 30.936 30.921 30.899 30.874 30.824 30.734 30.696 30.641 30.574 30.531 30.471 30.389 30.321 30.239 30.151 30.096 29.986 29.904 29.791 29.716 29.624 29.539 29.431 29.349 29.301 29.256 29.189 29.129 29.116 29.099 29.044 28.986 28.929 28.874 28.759 28.716 28.744 28.781 28.744 28.754 28.751 28.764 28.809 28.911 28.649 28.401 28.446 28.404 28.306 28.254 28.134 28.009 27.931 27.834 27.739 27.629 27.496 27.429 27.404 27.386 27.421 27.441 27.366 27.414 27.401 27.429 27.424 27.419 27.444 27.441 27.439 27.451 27.406 27.394 27.424 27.409 27.404 27.386 27.436 27.416 27.431 27.429 27.419 27.374 27.371 27.421 27.421 27.419 27.421 27.406 27.409 27.376 27.361 27.391 27.439 27.389 27.311 27.344 27.416 27.406 27.426 27.454 27.456 27.494 27.481 27.521 27.534 27.511 27.536 27.539 27.499 27.536 27.569 27.579 27.611 27.674 27.769 27.794 27.839 27.969 28.094 28.171 27.926 26.846 26.266 26.201 26.656 27.631 28.131 28.323 28.203 27.488 26.341 26.131 26.068 26.408 27.226 27.411 27.403 27.396 27.353 27.266 27.228 27.136 27.071 27.043 27.021 27.066 27.046 27.068 27.073 27.028 26.986 26.988 27.021 27.038 27.116 27.153 27.248 27.328 27.396 27.453 27.526 27.606 27.713 27.823 27.946 27.998 28.073 28.383 29.213 30.001 30.863 31.271 31.508 31.783 32.168 32.518 32.798 33.121 33.388 33.606 33.851 33.983 34.053 34.171 34.238 34.291 34.348 34.428 34.471 34.491 34.511 34.526 34.563 34.571 34.611 34.623 34.656 34.673 34.713 34.791 34.806 34.808 34.783 34.766 34.786 34.803 34.778 34.788 34.773 34.778 34.798 34.843 34.878 34.891 34.893 34.896 34.873 34.868 34.876 34.918 34.923 34.913 34.923 34.923 34.906 34.938 34.906 34.913 34.971 34.996 35.028 35.058 35.076 35.123 35.181 35.196 35.273 35.278 35.321 35.328 35.376 35.446 35.426 35.463 35.463 35.496 35.518 35.528 35.596 35.631 35.648 35.666 35.663 35.708 35.726 35.741 35.771
32.232 32.249 32.239 32.257 32.219 32.242 32.277 32.254 32.262 32.279 32.249 32.247 32.257 32.252 32.252 32.234 32.239 32.197 32.154 32.147 32.112 32.094 32.087 32.079 32.042 31.999 32.002 32.032 32.032 32.019 32.032 32.012 32.027 32.019 31.997 32.022 32.024 32.012 31.974 31.971 32.004 32.034 32.076 32.059 32.029 31.989 31.974 31.931 31.961 31.954 31.926 31.899 31.936 31.924 31.904 31.896 31.911 31.914 31.919 31.904 31.836 31.844 31.741 31.716 31.726 31.679 31.604 31.604 31.599 31.579 31.544 31.531 31.521 31.519 31.551 31.594 31.634 31.714 31.749 31.786 31.844 31.891 31.931 31.956 32.019 32.044 32.104 32.131 32.149 32.194 32.224 32.219 32.224 32.201 32.219 32.224 32.196 32.179 32.149 32.144 32.119 32.099 32.089 32.084 32.044 32.021 32.014 32.009 32.016 32.011 32.014 31.999 32.034 32.016 32.004 31.999 31.946 31.949 31.949 31.899 31.864 31.869 31.826 31.819 31.756 31.751 31.764 31.746 31.694 31.689 31.644 31.616 31.596 31.564 31.594 31.531 31.509 31.476 31.451 31.396 31.379 31.359 31.336 31.279 31.281 31.241 31.239 31.239 31.204 31.159 31.144 31.146 31.159 31.159 31.134 31.119 31.079 31.044 31.066 31.044 31.049 31.006 30.986 31.009 31.021 30.971 30.966 30.934 30.894 30.874 30.844 30.836 30.766 30.716 30.639 30.524 30.486 30.461 30.376 30.311 30.209 30.161 30.101 30.006 29.904 29.809 29.716 29.624 29.546 29.449 29.396 29.316 29.304 29.224 29.181 29.121 29.091 29.054 29.016 28.966 28.906 28.796 28.769 28.799 28.796 28.779 28.791 28.839 28.821 28.886 28.924 28.664 28.494 28.566 28.501 28.386 28.301 28.201 28.056 27.944 27.796 27.716 27.644 27.554 27.464 27.391 27.424 27.451 27.431 27.436 27.451 27.421 27.414 27.434 27.411 27.459 27.389 27.389 27.416 27.399 27.371 27.384 27.431 27.396 27.396 27.441 27.399 27.406 27.414 27.429 27.391 27.364 27.416 27.431 27.421 27.406 27.434 27.454 27.434 27.401 27.371 27.389 27.356 27.384 27.394 27.391 27.409 27.434 27.441 27.441 27.466 27.486 27.529 27.506 27.506 27.489 27.476 27.464 27.546 27.594 27.604 27.644 27.634 27.709 27.761 27.819 27.931 28.106 28.186 27.958 26.738 26.196 26.218 26.573 27.528 28.106 28.301 28.326 27.828 26.511 26.186 26.206 26.531 27.321 27.466 27.428 27.421 27.388 27.278 27.236 27.168 27.111 27.068 27.023 27.033 27.086 27.121 27.113 27.028 27.008 27.011 26.996 27.016 27.113 27.168 27.248 27.308 27.366 27.446 27.541 27.651 27.758 27.863 27.933 28.051 28.121 28.246 28.978 29.848 30.873 31.336 31.543 31.778 32.128 32.496 32.786 33.091 33.418 33.613 33.868 34.003 34.088 34.171 34.256 34.316 34.356 34.423 34.456 34.513 34.546 34.568 34.581 34.593 34.596 34.646 34.671 34.671 34.698 34.801 34.811 34.798 34.798 34.798 34.786 34.801 34.818 34.806 34.806 34.806 34.816 34.848 34.868 34.901 34.913 34.901 34.876 34.873 34.916 34.928 34.948 34.921 34.918 34.916 34.918 34.961 34.938 34.918 34.956 35.006 35.041 35.051 35.123 35.151 35.226 35.211 35.283 35.318 35.328 35.361 35.388 35.418 35.441 35.438 35.448 35.488 35.501 35.508 35.546 35.573 35.598 35.631 35.626 35.651 35.686 35.713 35.726
32.239 32.229 32.217 32.214 32.212 32.197 32.227 32.234 32.249 32.249 32.249 32.254 32.247 32.262 32.247 32.262 32.209 32.182 32.159 32.157 32.104 32.104 32.089 32.062 32.057 32.009 32.022 32.054 32.059 32.049 32.044 32.032 32.002 32.029 32.019 32.039 32.032 32.019 32.014 32.034 32.064 32.096 32.081 32.059 32.069 32.034 31.989 31.984 31.991 31.999 31.956 31.969 31.959 31.929 31.934 31.911 31.964 31.989 31.984 31.951 31.866 31.856 31.839 31.774 31.756 31.704 31.676 31.639 31.609 31.586 31.546 31.511 31.549 31.564 31.554 31.586 31.621 31.661 31.726 31.759 31.841 31.891 31.936 31.941 32.004 32.061 32.119 32.141 32.204 32.214 32.236 32.256 32.256 32.256 32.251 32.281 32.231 32.206 32.209 32.139 32.121 32.116 32.099 32.081 32.069 32.071 32.069 32.044 32.039 32.014 32.019 32.039 32.039 32.019 32.009 32.016 31.994 31.981 31.951 31.931 31.891 31.869 31.854 31.821 31.771 31.781 31.766 31.754 31.736 31.704 31.686 31.639 31.581 31.591 31.596 31.569 31.521 31.489 31.461 31.414 31.344 31.351 31.324 31.299 31.274 31.279 31.251 31.209 31.191 31.171 31.161 31.161 31.179 31.161 31.144 31.129 31.094 31.054 31.064 31.036 31.039 31.011 30.984 31.001 31.006 30.971 30.959 30.941 30.904 30.854 30.836 30.819 30.741 30.711 30.626 30.571 30.509 30.439 30.386 30.296 30.229 30.156 30.069 29.981 29.901 29.829 29.729 29.624 29.559 29.486 29.401 29.351 29.314 29.251 29.206 29.154 29.121 29.081 29.036 29.006 28.901 28.839 28.849 28.844 28.846 28.864 28.854 28.911 28.894 28.984 28.936 28.671 28.619 28.669 28.561 28.456 28.339 28.246 28.066 27.936 27.846 27.751 27.651 27.544 27.456 27.374 27.389 27.404 27.411 27.424 27.441 27.414 27.409 27.424 27.416 27.424 27.399 27.394 27.411 27.436 27.421 27.376 27.364 27.331 27.401 27.446 27.399 27.396 27.424 27.434 27.401 27.401 27.401 27.411 27.431 27.439 27.439 27.429 27.371 27.374 27.401 27.411 27.356 27.404 27.421 27.379 27.436 27.444 27.436 27.444 27.471 27.506 27.529 27.489 27.489 27.516 27.471 27.451 27.526 27.481 27.561 27.594 27.656 27.739 27.751 27.811 27.874 28.054 28.168 27.993 27.051 26.321 26.251 26.581 27.551 28.138 28.303 28.323 27.908 26.793 26.241 26.443 26.706 27.338 27.508 27.473 27.443 27.413 27.321 27.266 27.203 27.173 27.113 27.041 27.051 27.076 27.121 27.088 27.048 27.026 27.003 27.008 27.033 27.103 27.166 27.238 27.283 27.366 27.453 27.583 27.696 27.823 27.893 27.978 28.068 28.178 28.316 28.898 29.773 30.563 31.261 31.568 31.796 32.141 32.501 32.811 33.103 33.388 33.588 33.853 33.993 34.083 34.166 34.248 34.318 34.368 34.423 34.471 34.496 34.541 34.541 34.596 34.593 34.633 34.668 34.643 34.678 34.701 34.756 34.803 34.818 34.786 34.773 34.801 34.818 34.821 34.796 34.816 34.806 34.798 34.816 34.861 34.913 34.893 34.881 34.901 34.886 34.896 34.926 34.946 34.936 34.931 34.931 34.923 34.951 34.996 34.928 34.991 35.013 35.053 35.093 35.151 35.173 35.236 35.248 35.283 35.346 35.353 35.373 35.381 35.408 35.428 35.416 35.443 35.476 35.486 35.483 35.536 35.536 35.553 35.596 35.578 35.641 35.658 35.663 35.681
32.259 32.204 32.222 32.207 32.204 32.197 32.217 32.222 32.212 32.217 32.222 32.207 32.212 32.222 32.244 32.229 32.192 32.164 32.167 32.162 32.139 32.124 32.079 32.064 32.064 32.067 32.064 32.049 32.042 32.067 32.067 32.049 32.029 32.037 32.064 32.084 32.047 32.037 32.064 32.099 32.119 32.106 32.121 32.094 32.071 32.034 32.034 32.056 32.021 32.006 31.991 31.996 31.991 32.006 31.981 31.984 32.026 31.996 31.986 31.951 31.869 31.879 31.864 31.851 31.779 31.726 31.711 31.646 31.631 31.611 31.569 31.531 31.566 31.584 31.574 31.596 31.606 31.684 31.721 31.786 31.886 31.929 31.981 31.999 32.036 32.116 32.186 32.179 32.211 32.259 32.289 32.306 32.291 32.306 32.289 32.296 32.264 32.244 32.251 32.196 32.169 32.161 32.134 32.114 32.114 32.106 32.079 32.074 32.049 32.019 32.039 32.054 32.041 32.031 32.019 32.031 32.026 32.029 31.986 31.941 31.906 31.884 31.864 31.811 31.804 31.816 31.776 31.756 31.764 31.726 31.694 31.681 31.654 31.619 31.579 31.561 31.534 31.511 31.464 31.406 31.359 31.349 31.346 31.291 31.269 31.239 31.241 31.209 31.201 31.171 31.161 31.176 31.169 31.154 31.139 31.089 31.094 31.079 31.081 31.059 31.039 31.011 30.991 30.989 30.971 30.979 30.956 30.926 30.919 30.849 30.809 30.781 30.741 30.694 30.611 30.566 30.489 30.441 30.366 30.301 30.221 30.154 30.069 29.991 29.906 29.806 29.724 29.654 29.594 29.516 29.459 29.399 29.336 29.299 29.259 29.206 29.179 29.124 29.071 29.021 28.936 28.876 28.889 28.906 28.924 28.914 28.929 28.959 28.969 29.046 28.951 28.734 28.714 28.671 28.594 28.491 28.374 28.276 28.091 27.969 27.864 27.754 27.621 27.504 27.436 27.406 27.361 27.431 27.414 27.426 27.419 27.386 27.406 27.419 27.364 27.204 27.329 27.326 27.436 27.411 27.369 27.344 27.454 27.401 27.376 27.374 27.351 27.354 27.444 27.434 27.409 27.426 27.419 27.431 27.411 27.441 27.469 27.439 27.419 27.409 27.389 27.404 27.409 27.401 27.411 27.369 27.416 27.471 27.439 27.444 27.464 27.494 27.504 27.499 27.494 27.479 27.491 27.466 27.496 27.549 27.551 27.566 27.624 27.714 27.804 27.826 27.889 28.049 28.151 28.021 27.241 26.391 26.233 26.408 27.408 28.131 28.276 28.291 27.951 27.038 26.168 26.373 26.698 27.366 27.563 27.503 27.446 27.431 27.326 27.276 27.243 27.216 27.131 27.048 27.091 27.071 27.113 27.108 27.073 27.076 27.038 27.068 27.063 27.116 27.186 27.273 27.298 27.393 27.508 27.631 27.731 27.831 27.918 28.013 28.126 28.283 28.393 28.786 29.618 30.446 31.286 31.656 31.853 32.151 32.486 32.833 33.081 33.371 33.578 33.821 34.001 34.106 34.153 34.256 34.323 34.353 34.416 34.501 34.501 34.538 34.551 34.593 34.583 34.628 34.636 34.636 34.663 34.683 34.716 34.793 34.803 34.796 34.788 34.801 34.796 34.801 34.791 34.786 34.821 34.821 34.821 34.856 34.891 34.891 34.873 34.888 34.886 34.888 34.908 34.963 34.943 34.953 34.911 34.926 34.956 34.981 34.943 34.973 35.028 35.096 35.121 35.161 35.193 35.248 35.258 35.301 35.328 35.351 35.388 35.413 35.411 35.423 35.423 35.443 35.448 35.441 35.458 35.458 35.503 35.531 35.541 35.538 35.553 35.588 35.606 35.626
