ncols 431
nrows 31
xllcorner    428128
yllcorner    486788
cellsize     2
NODATA_value -9999
30.249 30.274 30.384 30.444 30.387 30.304 30.304 30.347 30.324 30.269 30.309 30.202 30.197 30.232 30.247 30.239 30.197 30.137 30.117 30.102 30.174 30.192 30.232 30.257 30.302 30.299 30.289 30.242 30.187 29.999 29.862 29.884 29.892 29.907 29.989 30.002 30.004 30.004 30.019 30.012 29.944 29.917 29.922 29.934 29.904 29.899 29.902 29.857 29.859 29.797 29.722 29.662 29.552 29.482 29.379 29.322 29.277 29.189 29.109 29.047 28.997 28.927 28.889 28.869 28.842 28.824 28.797 28.812 28.787 28.772 28.794 28.799 28.832 28.837 28.779 28.782 28.749 28.739 28.739 28.712 28.719 28.764 28.769 28.809 28.852 28.882 28.874 28.914 28.947 28.939 29.014 29.029 29.079 29.122 29.134 29.152 29.207 29.229 29.207 29.207 29.199 29.209 29.259 29.277 29.309 29.354 29.374 29.384 29.407 29.454 29.399 29.369 29.337 29.354 29.329 29.334 29.359 29.367 29.347 29.309 29.262 29.294 29.267 29.224 29.217 29.139 29.132 29.137 29.127 29.062 29.052 29.022 29.009 28.954 28.922 28.892 28.909 28.882 28.847 28.849 28.844 28.887 28.907 28.887 28.914 28.934 28.907 28.917 28.904 28.859 28.849 28.767 28.814 28.752 28.712 28.677 28.639 28.567 28.482 28.417 28.409 28.359 28.327 28.269 28.209 28.137 28.127 28.094 28.037 28.044 28.039 28.029 28.039 28.047 28.077 28.084 28.059 28.062 28.057 28.082 28.067 28.082 28.147 28.119 28.112 28.087 28.116 28.071 27.979 27.926 27.894 27.871 27.804 27.736 27.734 27.664 27.636 27.596 27.591 27.544 27.524 27.519 27.524 27.536 27.521 27.509 27.479 27.494 27.499 27.486 27.489 27.516 27.499 27.496 27.511 27.534 27.564 27.574 27.576 27.571 27.606 27.596 27.644 27.664 27.661 27.719 27.701 27.699 27.711 27.711 27.714 27.744 27.749 27.774 27.801 27.874 27.941 28.011 28.081 28.164 28.204 28.324 28.339 28.229 28.154 27.951 27.429 26.799 27.026 27.976 28.626 28.701 28.749 28.694 28.609 28.511 28.449 28.374 28.316 28.294 28.286 28.314 28.329 28.376 28.396 28.429 28.441 28.466 28.499 28.494 28.506 28.514 28.524 28.531 28.509 28.554 28.559 28.569 28.604 28.611 28.641 28.689 28.716 28.751 28.794 28.846 28.874 28.916 28.969 29.014 29.054 29.061 29.074 29.079 29.086 29.081 29.054 29.024 29.036 29.029 29.019 28.964 28.974 28.969 28.959 28.946 28.929 28.941 28.941 28.924 28.911 28.914 28.904 28.939 28.944 28.941 28.946 28.954 28.936 28.936 28.946 28.936 28.911 28.916 28.899 28.896 28.886 28.901 28.921 28.921 28.921 28.934 28.944 28.889 28.889 28.944 29.009 28.949 28.924 28.894 28.959 28.989 29.049 29.029 28.991 29.021 29.029 28.964 28.929 28.916 28.926 28.916 28.971 29.059 29.127 29.164 29.213 29.301 29.387 29.402 29.459 29.511 29.513 29.49 29.533 29.594 29.65 29.663 29.691 29.769 29.957 30.053 30.072 30.153 30.209 30.261 30.248 30.191 30.224 30.266 30.343 30.419 30.471 30.529 30.581 30.596 30.586 30.494 30.484 30.491 30.579 30.606 30.629 30.664 30.709 30.729 30.729 30.754 30.739 30.764 30.784 30.806 30.829 30.874 30.914 30.929 30.971 30.989 30.989 31.014 31.021 31.021 31.059 31.081 31.101 31.126 31.144 31.186 31.184 31.189 31.276 31.351 31.441 31.559 31.511 31.459 31.419 31.386 31.416 31.441 31.451
30.387 30.472 30.487 30.514 30.432 30.364 30.327 30.369 30.387 30.344 30.359 30.454 30.472 30.474 30.424 30.344 30.257 30.182 30.149 30.184 30.269 30.297 30.322 30.327 30.349 30.347 30.377 30.364 30.219 30.119 29.997 30.004 30.002 30.012 30.047 30.074 30.067 30.104 30.052 30.057 30.007 29.944 29.934 29.929 29.912 29.914 29.904 29.909 29.834 29.782 29.712 29.607 29.509 29.477 29.369 29.297 29.247 29.189 29.124 29.069 29.022 28.989 28.914 28.882 28.872 28.844 28.827 28.824 28.784 28.834 28.842 28.842 28.869 28.892 28.862 28.809 28.812 28.779 28.802 28.762 28.792 28.784 28.807 28.822 28.814 28.849 28.862 28.889 28.914 28.934 28.947 28.992 29.052 29.079 29.062 29.079 29.159 29.214 29.137 29.112 29.114 29.129 29.204 29.219 29.222 29.289 29.292 29.319 29.327 29.354 29.319 29.277 29.272 29.267 29.284 29.282 29.272 29.254 29.264 29.257 29.222 29.234 29.187 29.207 29.147 29.122 29.074 29.094 29.057 29.019 29.007 28.994 28.949 28.927 28.889 28.872 28.849 28.827 28.824 28.824 28.852 28.894 28.907 28.889 28.922 28.919 28.929 28.922 28.932 28.907 28.894 28.839 28.874 28.812 28.777 28.732 28.692 28.647 28.559 28.489 28.454 28.409 28.367 28.302 28.222 28.142 28.127 28.067 28.042 27.992 28.017 28.027 28.039 28.014 28.039 28.042 28.024 28.007 28.014 28.012 28.052 28.042 28.049 28.034 28.029 28.004 27.989 27.931 27.904 27.846 27.839 27.764 27.701 27.676 27.651 27.621 27.576 27.566 27.561 27.529 27.554 27.544 27.519 27.541 27.544 27.496 27.499 27.521 27.509 27.496 27.516 27.541 27.544 27.541 27.559 27.584 27.599 27.611 27.581 27.614 27.634 27.654 27.691 27.686 27.741 27.791 27.771 27.794 27.804 27.819 27.814 27.821 27.821 27.816 27.859 27.916 27.949 28.004 28.066 28.139 28.186 28.296 28.314 28.214 28.179 28.061 27.406 26.639 26.969 27.936 28.556 28.679 28.744 28.679 28.604 28.559 28.489 28.426 28.354 28.306 28.309 28.336 28.321 28.351 28.374 28.376 28.399 28.429 28.474 28.476 28.479 28.476 28.466 28.451 28.466 28.496 28.529 28.544 28.554 28.569 28.619 28.639 28.654 28.656 28.729 28.779 28.836 28.871 28.904 28.944 28.979 29.021 29.021 29.026 29.031 29.024 29.004 29.026 29.024 28.991 28.956 28.941 28.949 28.954 28.924 28.924 28.889 28.884 28.874 28.864 28.864 28.871 28.859 28.874 28.891 28.879 28.869 28.899 28.904 28.879 28.874 28.879 28.854 28.854 28.851 28.826 28.854 28.856 28.866 28.894 28.846 28.899 28.896 28.891 28.831 28.839 28.906 28.919 28.911 28.849 28.876 28.901 28.894 28.889 28.896 28.959 28.929 28.961 28.914 28.876 28.924 28.946 28.97 29.034 29.093 29.171 29.235 29.296 29.349 29.42 29.518 29.639 29.54 29.55 29.535 29.599 29.634 29.659 29.674 29.732 29.859 30.056 30.139 30.154 30.201 30.211 30.276 30.157 30.256 30.302 30.324 30.331 30.394 30.474 30.536 30.416 30.479 30.501 30.524 30.534 30.576 30.619 30.609 30.669 30.696 30.711 30.734 30.736 30.736 30.731 30.759 30.789 30.824 30.884 30.919 30.939 30.946 30.956 30.959 30.996 31.016 31.034 31.046 31.046 31.074 31.109 31.136 31.171 31.164 31.149 31.186 31.246 31.364 31.439 31.451 31.404 31.389 31.411 31.416 31.416 31.434
30.449 30.477 30.499 30.539 30.467 30.404 30.372 30.389 30.429 30.399 30.397 30.547 30.667 30.517 30.427 30.347 30.262 30.202 30.257 30.319 30.359 30.384 30.392 30.362 30.384 30.394 30.384 30.372 30.282 30.187 30.067 30.132 30.099 30.132 30.124 30.097 30.134 30.159 30.104 30.079 30.059 29.977 29.957 29.939 29.924 29.909 29.884 29.902 29.824 29.759 29.669 29.592 29.514 29.434 29.369 29.277 29.217 29.194 29.144 29.067 29.027 28.987 28.947 28.909 28.887 28.844 28.857 28.847 28.847 28.862 28.889 28.884 28.912 28.929 28.904 28.852 28.837 28.802 28.787 28.812 28.839 28.837 28.827 28.817 28.827 28.847 28.872 28.914 28.904 28.922 28.949 28.974 29.014 29.032 29.042 29.074 29.107 29.137 29.077 29.079 29.087 29.077 29.152 29.142 29.152 29.189 29.217 29.252 29.237 29.264 29.234 29.209 29.217 29.179 29.199 29.169 29.167 29.177 29.202 29.212 29.202 29.179 29.167 29.154 29.079 29.052 29.032 29.047 29.007 28.989 28.972 28.954 28.894 28.874 28.862 28.814 28.827 28.789 28.822 28.819 28.819 28.814 28.857 28.882 28.897 28.929 28.924 28.942 28.969 28.944 28.942 28.909 28.909 28.862 28.867 28.774 28.754 28.712 28.659 28.554 28.529 28.417 28.367 28.307 28.247 28.177 28.142 28.112 28.044 27.987 27.989 27.999 27.987 27.984 28.004 27.989 27.957 27.972 27.947 27.942 27.977 27.967 27.972 27.922 27.889 27.919 27.869 27.839 27.789 27.764 27.751 27.719 27.679 27.634 27.644 27.611 27.581 27.569 27.541 27.519 27.544 27.541 27.504 27.501 27.494 27.504 27.521 27.511 27.529 27.529 27.556 27.559 27.566 27.569 27.624 27.631 27.636 27.619 27.664 27.699 27.739 27.764 27.779 27.811 27.826 27.879 27.889 27.891 27.886 27.899 27.911 27.899 27.876 27.904 27.904 27.946 27.996 28.039 28.104 28.169 28.239 28.324 28.314 28.166 28.166 27.916 27.411 26.799 27.066 27.976 28.609 28.684 28.729 28.674 28.656 28.551 28.519 28.441 28.399 28.356 28.349 28.344 28.356 28.369 28.369 28.379 28.401 28.439 28.414 28.456 28.446 28.411 28.429 28.401 28.421 28.454 28.464 28.486 28.499 28.536 28.536 28.599 28.609 28.626 28.654 28.734 28.776 28.794 28.854 28.864 28.909 28.936 28.954 28.966 28.986 28.976 28.951 28.946 28.974 28.956 28.941 28.896 28.889 28.884 28.889 28.866 28.864 28.846 28.826 28.829 28.794 28.799 28.824 28.816 28.834 28.824 28.839 28.839 28.836 28.846 28.844 28.824 28.811 28.814 28.806 28.784 28.794 28.809 28.801 28.816 28.814 28.854 28.876 28.859 28.789 28.779 28.829 28.876 28.846 28.831 28.816 28.821 28.831 28.849 28.876 28.894 28.901 28.941 28.951 28.896 28.949 28.943 28.971 29.01 29.079 29.164 29.257 29.293 29.319 29.383 29.612 29.739 29.631 29.561 29.548 29.605 29.643 29.655 29.667 29.7 29.798 30.025 30.151 30.155 30.211 30.154 30.137 30.09 30.151 30.191 30.196 30.261 30.329 30.389 30.451 30.499 30.504 30.519 30.529 30.526 30.524 30.559 30.606 30.696 30.686 30.696 30.711 30.716 30.724 30.729 30.749 30.799 30.829 30.874 30.914 30.931 30.936 30.944 30.939 30.964 30.996 31.029 31.016 31.026 31.044 31.076 31.091 31.119 31.146 31.156 31.131 31.169 31.234 31.236 31.361 31.371 31.374 31.366 31.374 31.374 31.399
30.514 30.489 30.472 30.469 30.434 30.414 30.474 30.482 30.489 30.459 30.432 30.537 30.569 30.454 30.342 30.329 30.342 30.347 30.337 30.337 30.399 30.427 30.419 30.374 30.402 30.447 30.422 30.407 30.334 30.262 30.212 30.174 30.234 30.234 30.237 30.297 30.212 30.177 30.142 30.117 30.062 29.992 29.969 29.902 29.902 29.894 29.867 29.839 29.777 29.724 29.642 29.567 29.477 29.397 29.334 29.279 29.209 29.174 29.132 29.079 29.039 29.012 28.987 28.949 28.917 28.897 28.899 28.874 28.879 28.877 28.912 28.944 28.967 28.972 28.944 28.907 28.904 28.859 28.824 28.812 28.842 28.839 28.847 28.839 28.847 28.852 28.869 28.877 28.887 28.897 28.929 28.937 28.967 29.009 29.039 29.044 29.057 29.084 29.024 29.024 29.019 29.019 29.064 29.084 29.077 29.134 29.162 29.137 29.189 29.182 29.174 29.172 29.182 29.119 29.129 29.117 29.132 29.129 29.134 29.149 29.142 29.137 29.104 29.104 29.064 29.052 29.014 29.009 28.969 28.934 28.927 28.874 28.849 28.819 28.807 28.752 28.747 28.764 28.787 28.752 28.759 28.767 28.807 28.822 28.854 28.919 28.929 28.944 28.967 28.952 28.934 28.934 28.912 28.889 28.884 28.844 28.787 28.732 28.682 28.632 28.542 28.449 28.369 28.322 28.279 28.222 28.179 28.074 28.022 27.984 27.972 27.959 27.947 27.924 27.932 27.897 27.932 27.904 27.919 27.909 27.884 27.887 27.857 27.842 27.847 27.842 27.804 27.731 27.669 27.696 27.631 27.644 27.606 27.596 27.579 27.584 27.576 27.559 27.536 27.536 27.534 27.524 27.509 27.491 27.521 27.514 27.546 27.541 27.539 27.554 27.596 27.594 27.616 27.621 27.646 27.651 27.631 27.646 27.719 27.769 27.819 27.839 27.894 27.911 27.949 28.004 28.009 27.989 27.979 28.014 28.034 27.981 27.951 28.011 28.004 28.009 28.056 28.089 28.109 28.146 28.214 28.271 28.271 28.159 28.224 27.884 27.344 26.781 27.104 28.101 28.566 28.694 28.736 28.671 28.629 28.559 28.519 28.451 28.404 28.371 28.351 28.351 28.381 28.396 28.371 28.386 28.404 28.386 28.406 28.404 28.369 28.391 28.384 28.376 28.384 28.386 28.414 28.416 28.464 28.496 28.501 28.554 28.571 28.599 28.614 28.679 28.684 28.719 28.794 28.814 28.869 28.874 28.891 28.916 28.934 28.914 28.929 28.894 28.914 28.901 28.899 28.881 28.861 28.799 28.836 28.831 28.801 28.796 28.781 28.764 28.739 28.756 28.751 28.766 28.789 28.779 28.764 28.776 28.779 28.799 28.784 28.741 28.776 28.776 28.784 28.764 28.754 28.749 28.741 28.786 28.771 28.774 28.806 28.789 28.759 28.731 28.759 28.819 28.831 28.809 28.786 28.774 28.804 28.871 28.909 28.876 28.936 28.934 28.974 28.907 28.949 28.918 28.965 29.029 29.071 29.171 29.215 29.262 29.319 29.409 29.616 29.787 29.706 29.572 29.537 29.556 29.654 29.686 29.713 29.689 29.732 29.915 30.08 30.089 30.013 30.015 30.036 30.046 30.074 30.066 30.126 30.189 30.256 30.324 30.389 30.484 30.521 30.511 30.516 30.491 30.494 30.491 30.596 30.674 30.681 30.669 30.681 30.691 30.699 30.714 30.739 30.784 30.814 30.849 30.886 30.906 30.926 30.914 30.921 30.944 30.969 30.989 31.004 31.009 31.036 31.074 31.091 31.104 31.121 31.114 31.106 31.114 31.159 31.156 31.241 31.316 31.296 31.281 31.299 31.359 31.419
30.527 30.469 30.444 30.469 30.499 30.487 30.564 30.572 30.554 30.517 30.484 30.492 30.432 30.367 30.389 30.399 30.389 30.407 30.394 30.404 30.427 30.432 30.434 30.412 30.409 30.419 30.414 30.399 30.379 30.349 30.342 30.264 30.319 30.339 30.379 30.409 30.327 30.237 30.199 30.139 30.054 29.984 29.949 29.889 29.862 29.857 29.817 29.769 29.729 29.694 29.612 29.527 29.462 29.347 29.297 29.264 29.239 29.194 29.142 29.069 29.034 28.997 28.967 28.964 28.954 28.937 28.922 28.927 28.932 28.932 28.957 28.979 29.002 28.997 28.984 28.939 28.917 28.897 28.882 28.877 28.859 28.859 28.877 28.862 28.869 28.862 28.867 28.879 28.899 28.907 28.907 28.944 28.974 29.012 28.999 29.019 29.029 29.082 29.012 28.994 29.004 28.984 29.004 29.019 29.034 29.092 29.092 29.092 29.139 29.122 29.107 29.104 29.114 29.087 29.087 29.067 29.049 29.069 29.104 29.077 29.094 29.077 29.067 29.062 29.032 28.992 28.957 28.937 28.912 28.874 28.844 28.807 28.754 28.712 28.719 28.697 28.694 28.709 28.677 28.672 28.682 28.734 28.754 28.797 28.847 28.859 28.902 28.912 28.939 28.942 28.944 28.947 28.959 28.949 28.914 28.864 28.852 28.789 28.734 28.687 28.579 28.517 28.429 28.377 28.314 28.234 28.174 28.094 28.059 28.042 27.997 27.967 27.894 27.879 27.857 27.874 27.859 27.847 27.849 27.834 27.842 27.809 27.779 27.762 27.747 27.737 27.726 27.709 27.684 27.661 27.601 27.576 27.611 27.589 27.561 27.536 27.524 27.544 27.539 27.529 27.541 27.559 27.514 27.494 27.541 27.534 27.561 27.566 27.564 27.581 27.594 27.619 27.634 27.659 27.681 27.694 27.699 27.741 27.794 27.826 27.906 27.901 27.984 27.989 28.011 28.059 28.074 28.101 28.129 28.066 28.094 28.059 28.061 28.114 28.106 28.121 28.141 28.164 28.149 28.201 28.256 28.296 28.211 28.199 28.351 27.989 27.256 26.779 27.196 28.091 28.604 28.701 28.734 28.716 28.644 28.574 28.469 28.431 28.394 28.376 28.376 28.361 28.384 28.394 28.366 28.371 28.386 28.354 28.361 28.376 28.364 28.364 28.346 28.346 28.364 28.364 28.369 28.411 28.429 28.456 28.489 28.514 28.544 28.556 28.604 28.606 28.621 28.706 28.734 28.766 28.784 28.826 28.844 28.856 28.861 28.866 28.884 28.844 28.836 28.826 28.841 28.819 28.824 28.779 28.771 28.764 28.749 28.721 28.724 28.691 28.684 28.671 28.701 28.711 28.719 28.699 28.726 28.744 28.754 28.769 28.744 28.729 28.739 28.736 28.699 28.721 28.714 28.706 28.694 28.694 28.714 28.721 28.741 28.741 28.731 28.691 28.709 28.754 28.784 28.774 28.779 28.751 28.864 28.964 28.919 28.916 28.916 28.941 28.941 28.953 28.959 28.926 28.974 29.009 29.074 29.158 29.22 29.263 29.317 29.386 29.522 29.62 29.667 29.61 29.545 29.532 29.656 29.696 29.726 29.668 29.689 29.821 30.007 29.994 29.985 30.041 30.066 30.159 30.104 30.054 30.129 30.194 30.264 30.329 30.396 30.471 30.521 30.499 30.426 30.444 30.466 30.474 30.571 30.626 30.661 30.661 30.681 30.696 30.696 30.721 30.744 30.761 30.811 30.816 30.851 30.869 30.876 30.896 30.899 30.936 30.939 30.971 30.981 30.974 30.999 31.014 31.056 31.074 31.111 31.089 31.089 31.101 31.104 31.154 31.201 31.176 31.191 31.254 31.314 31.371 31.426
30.492 30.399 30.432 30.534 30.569 30.519 30.502 30.527 30.539 30.507 30.449 30.454 30.444 30.479 30.464 30.457 30.419 30.419 30.384 30.397 30.414 30.394 30.427 30.459 30.392 30.359 30.412 30.402 30.424 30.432 30.427 30.342 30.407 30.434 30.397 30.417 30.307 30.259 30.187 30.127 30.072 30.004 29.917 29.872 29.824 29.794 29.749 29.727 29.724 29.652 29.587 29.482 29.442 29.319 29.282 29.244 29.217 29.199 29.147 29.104 29.074 29.037 29.012 28.999 28.992 28.987 28.947 28.952 28.977 28.989 29.017 29.024 29.009 29.029 29.007 28.984 28.982 28.942 28.924 28.902 28.884 28.867 28.874 28.859 28.887 28.864 28.884 28.909 28.924 28.912 28.914 28.929 28.952 28.984 29.004 29.004 29.007 29.027 28.997 28.949 28.952 28.947 28.987 29.007 29.014 29.022 29.034 29.037 29.052 29.069 29.052 29.054 29.019 29.032 29.022 29.012 29.014 28.997 29.047 29.032 29.017 29.012 29.029 29.002 28.994 28.942 28.924 28.894 28.854 28.834 28.787 28.742 28.679 28.672 28.649 28.609 28.614 28.602 28.592 28.614 28.622 28.674 28.709 28.764 28.797 28.829 28.872 28.894 28.907 28.907 28.934 28.947 28.972 28.994 28.949 28.897 28.892 28.809 28.789 28.752 28.652 28.572 28.474 28.417 28.337 28.257 28.199 28.142 28.084 28.034 27.997 27.952 27.877 27.854 27.859 27.847 27.814 27.749 27.777 27.792 27.757 27.747 27.717 27.712 27.694 27.692 27.661 27.676 27.659 27.656 27.604 27.556 27.549 27.544 27.549 27.541 27.549 27.569 27.551 27.576 27.599 27.556 27.536 27.496 27.536 27.551 27.561 27.606 27.631 27.619 27.641 27.661 27.679 27.749 27.726 27.771 27.801 27.876 27.879 27.946 27.984 28.036 28.051 28.116 28.151 28.149 28.194 28.204 28.239 28.214 28.194 28.161 28.204 28.199 28.244 28.219 28.239 28.246 28.281 28.261 28.314 28.316 28.236 28.229 28.191 27.786 26.974 26.881 27.444 28.306 28.676 28.744 28.714 28.684 28.614 28.531 28.491 28.426 28.379 28.389 28.399 28.376 28.394 28.389 28.379 28.384 28.349 28.339 28.339 28.341 28.336 28.336 28.306 28.299 28.316 28.324 28.329 28.359 28.421 28.451 28.459 28.499 28.531 28.561 28.576 28.574 28.621 28.646 28.674 28.684 28.699 28.724 28.769 28.756 28.766 28.811 28.789 28.781 28.784 28.774 28.756 28.779 28.751 28.729 28.716 28.696 28.704 28.664 28.671 28.639 28.649 28.649 28.666 28.656 28.681 28.664 28.646 28.689 28.704 28.724 28.706 28.711 28.676 28.671 28.664 28.674 28.684 28.669 28.651 28.674 28.669 28.666 28.679 28.691 28.686 28.654 28.636 28.634 28.764 28.781 28.766 28.746 28.816 28.941 29.001 28.914 28.87 28.942 28.966 28.944 28.949 28.948 28.988 29.011 29.077 29.136 29.206 29.253 29.251 29.3 29.382 29.498 29.638 29.626 29.537 29.536 29.563 29.654 29.669 29.648 29.679 29.749 29.922 29.954 29.961 29.994 30.129 30.231 30.131 30.039 30.149 30.221 30.279 30.349 30.399 30.461 30.479 30.414 30.346 30.379 30.416 30.446 30.526 30.594 30.641 30.646 30.649 30.666 30.674 30.689 30.709 30.726 30.759 30.799 30.844 30.846 30.859 30.889 30.919 30.929 30.931 30.964 30.949 30.956 30.976 30.994 31.026 31.039 31.081 31.076 31.051 31.066 31.121 31.194 31.239 31.156 31.204 31.264 31.321 31.374 31.389
30.577 30.449 30.469 30.457 30.494 30.477 30.437 30.437 30.387 30.397 30.452 30.449 30.454 30.467 30.464 30.464 30.437 30.364 30.339 30.357 30.369 30.374 30.434 30.452 30.392 30.317 30.347 30.412 30.417 30.412 30.407 30.424 30.477 30.454 30.357 30.302 30.312 30.237 30.184 30.089 30.052 29.964 29.887 29.842 29.777 29.729 29.712 29.707 29.652 29.574 29.519 29.427 29.389 29.309 29.249 29.247 29.214 29.174 29.149 29.124 29.112 29.094 29.074 29.047 28.994 29.009 28.982 28.999 29.019 29.014 29.039 29.054 29.042 29.064 29.052 29.059 29.052 29.017 28.974 28.934 28.909 28.887 28.879 28.872 28.879 28.877 28.857 28.887 28.919 28.919 28.934 28.934 28.944 28.982 29.002 28.992 28.982 29.002 28.977 28.962 28.954 28.927 28.962 29.014 28.977 28.997 28.994 28.987 29.029 29.042 29.044 28.994 28.964 28.962 28.949 28.949 28.924 28.947 28.964 28.944 28.944 28.939 28.957 28.924 28.924 28.902 28.872 28.832 28.797 28.762 28.714 28.664 28.607 28.592 28.549 28.527 28.514 28.544 28.544 28.537 28.584 28.617 28.669 28.687 28.749 28.802 28.817 28.892 28.877 28.939 28.954 28.944 28.959 28.977 28.984 28.964 28.957 28.879 28.882 28.782 28.697 28.634 28.549 28.464 28.399 28.304 28.227 28.167 28.102 28.029 27.987 27.964 27.889 27.847 27.847 27.804 27.784 27.729 27.694 27.722 27.697 27.702 27.709 27.689 27.674 27.664 27.666 27.676 27.639 27.614 27.579 27.556 27.554 27.536 27.574 27.559 27.591 27.586 27.581 27.604 27.599 27.591 27.546 27.591 27.561 27.586 27.594 27.626 27.641 27.654 27.689 27.724 27.749 27.776 27.784 27.876 27.889 27.941 27.974 28.024 28.116 28.139 28.156 28.169 28.244 28.249 28.271 28.296 28.336 28.314 28.321 28.301 28.289 28.304 28.324 28.334 28.381 28.331 28.366 28.374 28.369 28.271 28.139 28.016 27.706 27.219 26.639 26.856 27.686 28.504 28.681 28.731 28.706 28.651 28.574 28.519 28.459 28.406 28.369 28.381 28.394 28.369 28.386 28.359 28.329 28.341 28.341 28.299 28.299 28.254 28.274 28.269 28.286 28.284 28.284 28.289 28.294 28.336 28.409 28.429 28.459 28.481 28.509 28.541 28.559 28.559 28.584 28.619 28.629 28.624 28.629 28.671 28.674 28.679 28.689 28.689 28.686 28.741 28.704 28.694 28.696 28.686 28.669 28.631 28.649 28.664 28.609 28.629 28.614 28.606 28.581 28.606 28.604 28.609 28.624 28.624 28.641 28.641 28.644 28.654 28.634 28.664 28.644 28.649 28.644 28.614 28.624 28.596 28.614 28.599 28.601 28.601 28.636 28.661 28.644 28.606 28.591 28.604 28.726 28.714 28.681 28.706 28.716 28.864 28.934 28.857 28.854 28.891 28.944 28.96 28.955 28.965 28.982 29.017 29.072 29.117 29.175 29.234 29.273 29.323 29.339 29.38 29.505 29.509 29.511 29.523 29.509 29.553 29.6 29.627 29.658 29.736 29.851 29.889 29.834 29.966 30.086 30.191 30.151 30.049 30.104 30.271 30.316 30.369 30.379 30.394 30.396 30.379 30.359 30.399 30.451 30.466 30.509 30.609 30.649 30.616 30.579 30.621 30.671 30.684 30.701 30.724 30.731 30.794 30.814 30.836 30.879 30.889 30.914 30.926 30.906 30.941 30.946 30.946 30.929 30.966 31.001 31.016 31.034 31.036 31.029 31.061 31.151 31.189 31.189 31.196 31.214 31.274 31.286 31.266 31.246
30.484 30.397 30.412 30.364 30.364 30.364 30.354 30.362 30.369 30.409 30.429 30.499 30.457 30.452 30.447 30.444 30.419 30.402 30.364 30.377 30.387 30.397 30.409 30.387 30.357 30.284 30.282 30.367 30.429 30.372 30.324 30.337 30.389 30.437 30.359 30.314 30.327 30.217 30.152 30.064 30.012 29.952 29.857 29.807 29.742 29.682 29.674 29.659 29.629 29.569 29.474 29.444 29.364 29.314 29.259 29.252 29.219 29.194 29.179 29.134 29.117 29.084 29.079 29.079 29.069 29.052 29.004 28.997 29.032 29.047 29.062 29.067 29.114 29.117 29.094 29.097 29.074 29.012 28.997 28.969 28.914 28.914 28.899 28.877 28.887 28.897 28.889 28.902 28.922 28.919 28.957 28.959 28.957 28.982 28.977 28.987 28.962 29.012 28.974 28.954 28.954 28.899 28.934 28.949 28.937 28.934 28.929 28.957 28.972 28.957 28.954 28.927 28.914 28.879 28.849 28.874 28.884 28.904 28.892 28.874 28.877 28.894 28.887 28.832 28.817 28.827 28.804 28.739 28.699 28.654 28.639 28.589 28.544 28.479 28.462 28.427 28.454 28.424 28.444 28.437 28.477 28.549 28.604 28.634 28.699 28.734 28.789 28.827 28.847 28.912 28.952 28.992 29.004 29.012 29.027 29.017 28.982 28.924 28.899 28.854 28.777 28.659 28.584 28.482 28.422 28.329 28.214 28.172 28.099 28.034 27.967 27.937 27.879 27.827 27.792 27.764 27.734 27.687 27.669 27.669 27.647 27.684 27.652 27.672 27.689 27.639 27.656 27.664 27.634 27.579 27.581 27.576 27.566 27.561 27.614 27.599 27.579 27.594 27.629 27.614 27.589 27.581 27.591 27.646 27.631 27.601 27.671 27.701 27.704 27.714 27.741 27.779 27.794 27.871 27.829 27.901 27.936 27.974 28.041 28.096 28.176 28.214 28.216 28.299 28.326 28.326 28.374 28.414 28.434 28.429 28.429 28.411 28.461 28.451 28.441 28.459 28.499 28.434 28.441 28.421 28.316 28.179 27.799 27.341 26.851 26.724 26.706 26.964 28.054 28.596 28.679 28.731 28.691 28.634 28.544 28.461 28.411 28.356 28.376 28.341 28.391 28.361 28.346 28.354 28.306 28.299 28.286 28.274 28.261 28.269 28.259 28.266 28.279 28.274 28.269 28.281 28.296 28.319 28.369 28.421 28.459 28.471 28.494 28.524 28.539 28.549 28.549 28.569 28.554 28.559 28.581 28.584 28.594 28.624 28.604 28.599 28.629 28.631 28.621 28.596 28.619 28.604 28.614 28.596 28.576 28.586 28.564 28.561 28.549 28.546 28.539 28.531 28.551 28.541 28.536 28.559 28.576 28.586 28.586 28.596 28.606 28.616 28.616 28.614 28.604 28.586 28.571 28.574 28.564 28.551 28.556 28.569 28.591 28.616 28.616 28.586 28.566 28.569 28.651 28.701 28.674 28.684 28.711 28.758 28.902 28.89 28.913 28.931 28.947 28.96 28.961 28.993 28.988 28.99 29.045 29.125 29.197 29.268 29.312 29.317 29.351 29.369 29.432 29.47 29.492 29.493 29.504 29.526 29.562 29.591 29.634 29.699 29.764 29.846 29.864 29.894 29.964 30.096 30.161 30.069 30.051 30.229 30.384 30.346 30.311 30.316 30.386 30.381 30.399 30.441 30.456 30.449 30.496 30.531 30.581 30.569 30.534 30.531 30.591 30.631 30.686 30.696 30.719 30.751 30.771 30.806 30.836 30.869 30.894 30.909 30.891 30.894 30.906 30.896 30.904 30.939 30.981 31.006 31.024 31.034 31.029 31.029 31.096 31.171 31.196 31.199 31.189 31.164 31.141 31.141 31.161
30.347 30.334 30.294 30.242 30.267 30.277 30.294 30.342 30.357 30.367 30.384 30.427 30.384 30.357 30.392 30.394 30.402 30.397 30.352 30.359 30.357 30.377 30.384 30.354 30.334 30.299 30.237 30.312 30.337 30.322 30.257 30.247 30.284 30.402 30.372 30.257 30.194 30.154 30.124 30.034 29.929 29.902 29.859 29.799 29.704 29.664 29.649 29.612 29.584 29.552 29.494 29.437 29.377 29.309 29.247 29.222 29.209 29.202 29.194 29.184 29.154 29.162 29.104 29.097 29.084 29.069 29.067 29.037 29.054 29.064 29.097 29.112 29.122 29.114 29.139 29.139 29.079 29.054 29.012 28.922 28.924 28.917 28.907 28.907 28.902 28.917 28.902 28.939 28.932 28.927 28.962 28.957 28.987 29.009 28.987 28.979 28.984 28.992 28.992 28.934 28.922 28.894 28.889 28.902 28.914 28.904 28.914 28.894 28.919 28.897 28.882 28.872 28.844 28.807 28.814 28.774 28.804 28.812 28.787 28.812 28.819 28.819 28.817 28.789 28.749 28.727 28.707 28.627 28.602 28.572 28.559 28.472 28.452 28.379 28.344 28.354 28.379 28.362 28.387 28.414 28.459 28.494 28.522 28.609 28.652 28.702 28.742 28.804 28.879 28.929 28.959 28.989 29.007 29.029 29.072 29.067 29.044 28.994 28.899 28.864 28.792 28.697 28.622 28.529 28.454 28.339 28.272 28.164 28.107 28.024 27.952 27.902 27.847 27.792 27.782 27.742 27.729 27.649 27.687 27.677 27.674 27.684 27.679 27.659 27.644 27.649 27.646 27.654 27.651 27.596 27.609 27.589 27.601 27.606 27.624 27.596 27.611 27.609 27.609 27.616 27.649 27.614 27.634 27.649 27.654 27.669 27.694 27.689 27.691 27.749 27.804 27.789 27.809 27.889 27.904 27.959 28.011 28.056 28.144 28.211 28.224 28.244 28.286 28.364 28.384 28.399 28.451 28.456 28.491 28.494 28.494 28.526 28.554 28.546 28.529 28.556 28.546 28.489 28.469 28.169 27.776 27.324 26.899 26.486 26.539 26.644 26.779 27.289 28.329 28.674 28.684 28.691 28.651 28.601 28.516 28.421 28.371 28.329 28.319 28.324 28.336 28.321 28.284 28.304 28.309 28.274 28.249 28.234 28.241 28.244 28.246 28.234 28.249 28.259 28.264 28.261 28.311 28.321 28.339 28.391 28.421 28.469 28.461 28.469 28.496 28.506 28.516 28.501 28.526 28.539 28.539 28.511 28.539 28.564 28.541 28.566 28.566 28.544 28.559 28.526 28.536 28.524 28.511 28.494 28.496 28.486 28.474 28.494 28.474 28.504 28.519 28.516 28.526 28.521 28.496 28.536 28.541 28.551 28.564 28.556 28.541 28.571 28.591 28.574 28.566 28.551 28.561 28.544 28.554 28.529 28.531 28.559 28.566 28.581 28.579 28.561 28.521 28.524 28.604 28.656 28.664 28.669 28.694 28.702 28.834 28.888 28.915 28.907 28.925 28.951 28.977 29 29.021 29.03 29.03 29.092 29.164 29.209 29.29 29.314 29.344 29.371 29.401 29.441 29.457 29.503 29.524 29.531 29.55 29.581 29.616 29.669 29.721 29.811 29.861 29.779 29.854 29.989 30.116 30.081 30.031 30.201 30.269 30.271 30.286 30.286 30.344 30.389 30.394 30.434 30.431 30.431 30.444 30.476 30.549 30.599 30.536 30.529 30.556 30.616 30.636 30.679 30.679 30.709 30.751 30.779 30.821 30.864 30.894 30.886 30.884 30.871 30.881 30.866 30.869 30.899 30.949 30.986 31.009 31.006 31.011 31.001 31.044 31.126 31.206 31.271 31.139 31.066 31.099 31.139 31.179
30.227 30.197 30.174 30.182 30.237 30.252 30.239 30.267 30.279 30.304 30.314 30.319 30.314 30.312 30.329 30.337 30.367 30.342 30.327 30.314 30.299 30.292 30.314 30.314 30.332 30.284 30.212 30.232 30.297 30.282 30.212 30.212 30.242 30.292 30.319 30.209 30.112 30.119 30.102 29.999 29.932 29.849 29.827 29.762 29.689 29.629 29.604 29.589 29.547 29.539 29.499 29.427 29.372 29.294 29.247 29.227 29.194 29.194 29.192 29.192 29.189 29.182 29.134 29.104 29.089 29.067 29.067 29.057 29.082 29.064 29.087 29.124 29.144 29.164 29.159 29.144 29.104 29.069 29.029 28.942 28.939 28.957 28.919 28.914 28.942 28.942 28.939 28.947 28.962 28.997 29.004 28.972 28.987 29.019 29.004 28.969 28.962 28.969 29.012 28.914 28.889 28.877 28.852 28.872 28.877 28.869 28.852 28.869 28.852 28.859 28.834 28.814 28.799 28.757 28.759 28.747 28.752 28.709 28.714 28.714 28.734 28.754 28.734 28.719 28.694 28.687 28.597 28.609 28.532 28.482 28.444 28.379 28.344 28.294 28.297 28.327 28.342 28.317 28.329 28.372 28.394 28.434 28.487 28.562 28.609 28.664 28.759 28.834 28.872 28.887 28.947 28.949 29.022 29.072 29.094 29.057 29.062 28.992 28.934 28.892 28.802 28.717 28.607 28.557 28.457 28.364 28.272 28.159 28.082 27.982 27.927 27.894 27.834 27.812 27.757 27.727 27.752 27.702 27.707 27.682 27.704 27.662 27.659 27.644 27.632 27.679 27.604 27.611 27.614 27.614 27.606 27.589 27.574 27.586 27.636 27.614 27.611 27.614 27.609 27.636 27.666 27.664 27.674 27.664 27.679 27.734 27.744 27.734 27.784 27.784 27.869 27.831 27.846 27.914 27.966 28.006 28.066 28.111 28.176 28.249 28.269 28.309 28.326 28.381 28.421 28.441 28.516 28.521 28.551 28.599 28.629 28.649 28.641 28.674 28.624 28.596 28.544 28.176 27.939 27.144 26.774 26.704 26.499 26.341 26.316 26.489 26.754 27.521 28.471 28.646 28.644 28.651 28.609 28.531 28.456 28.401 28.341 28.296 28.274 28.271 28.291 28.291 28.261 28.274 28.241 28.236 28.219 28.196 28.179 28.206 28.204 28.214 28.246 28.266 28.251 28.274 28.284 28.291 28.336 28.384 28.369 28.454 28.459 28.481 28.496 28.494 28.481 28.464 28.484 28.506 28.464 28.464 28.471 28.489 28.476 28.476 28.491 28.484 28.484 28.461 28.446 28.449 28.434 28.426 28.409 28.419 28.431 28.434 28.426 28.419 28.466 28.471 28.489 28.471 28.486 28.494 28.506 28.499 28.514 28.514 28.519 28.536 28.529 28.514 28.521 28.531 28.531 28.546 28.524 28.521 28.501 28.516 28.536 28.549 28.566 28.549 28.529 28.511 28.539 28.584 28.679 28.711 28.69 28.711 28.798 28.926 28.92 28.867 28.888 28.955 28.992 29.004 29.026 29.069 29.044 29.068 29.123 29.213 29.294 29.319 29.348 29.358 29.378 29.42 29.441 29.481 29.519 29.539 29.539 29.571 29.596 29.626 29.699 29.754 29.854 29.829 29.801 29.916 30.046 30.101 30.126 30.189 30.244 30.254 30.256 30.249 30.269 30.299 30.356 30.391 30.424 30.449 30.429 30.481 30.496 30.509 30.581 30.641 30.654 30.669 30.681 30.681 30.674 30.689 30.736 30.786 30.821 30.854 30.881 30.869 30.854 30.829 30.851 30.866 30.839 30.891 30.959 30.979 31.001 31.001 31.001 30.996 31.001 31.066 31.241 31.324 31.209 31.141 31.121 31.166 31.209
30.117 30.122 30.139 30.162 30.182 30.149 30.164 30.179 30.189 30.202 30.219 30.214 30.247 30.252 30.274 30.284 30.294 30.284 30.254 30.282 30.262 30.264 30.237 30.242 30.254 30.249 30.169 30.157 30.192 30.197 30.214 30.169 30.167 30.209 30.294 30.244 30.047 30.017 30.052 29.979 29.899 29.834 29.764 29.734 29.664 29.617 29.582 29.547 29.544 29.499 29.424 29.389 29.312 29.282 29.239 29.214 29.172 29.172 29.177 29.184 29.167 29.157 29.104 29.107 29.097 29.069 29.057 29.039 29.077 29.084 29.084 29.119 29.152 29.169 29.154 29.149 29.114 29.047 29.019 28.954 28.982 28.964 28.942 28.957 28.942 28.959 28.932 28.962 28.972 28.994 29.037 29.019 29.037 29.049 29.034 28.974 28.984 28.982 29.007 28.937 28.889 28.872 28.829 28.864 28.854 28.859 28.824 28.809 28.839 28.822 28.767 28.759 28.714 28.687 28.684 28.682 28.672 28.659 28.657 28.684 28.669 28.674 28.687 28.639 28.649 28.599 28.522 28.522 28.462 28.462 28.397 28.332 28.317 28.262 28.254 28.244 28.269 28.272 28.297 28.307 28.382 28.432 28.467 28.544 28.589 28.674 28.749 28.777 28.842 28.907 28.967 28.999 29.037 29.049 29.072 29.049 29.064 29.027 28.984 28.904 28.839 28.749 28.644 28.567 28.447 28.372 28.239 28.167 28.039 27.972 27.887 27.859 27.834 27.799 27.767 27.739 27.722 27.702 27.682 27.684 27.694 27.639 27.664 27.639 27.619 27.642 27.651 27.644 27.636 27.611 27.614 27.611 27.591 27.614 27.626 27.624 27.656 27.621 27.686 27.664 27.666 27.691 27.704 27.709 27.716 27.779 27.816 27.834 27.844 27.871 27.839 27.891 27.929 27.971 27.986 28.056 28.129 28.186 28.231 28.244 28.311 28.339 28.409 28.416 28.486 28.494 28.539 28.564 28.594 28.649 28.704 28.689 28.714 28.689 28.581 28.296 27.829 27.296 26.696 26.521 26.859 27.169 27.054 26.771 26.484 26.251 26.531 27.621 28.494 28.604 28.616 28.609 28.556 28.504 28.424 28.336 28.296 28.274 28.251 28.226 28.219 28.254 28.229 28.236 28.191 28.174 28.184 28.161 28.161 28.184 28.194 28.211 28.241 28.264 28.244 28.249 28.254 28.286 28.301 28.349 28.384 28.414 28.436 28.434 28.481 28.466 28.444 28.466 28.461 28.471 28.451 28.436 28.434 28.424 28.439 28.411 28.411 28.404 28.416 28.409 28.396 28.376 28.384 28.379 28.356 28.364 28.374 28.364 28.354 28.376 28.381 28.391 28.431 28.444 28.446 28.454 28.441 28.454 28.471 28.491 28.506 28.531 28.506 28.506 28.511 28.516 28.524 28.521 28.504 28.509 28.476 28.479 28.496 28.501 28.536 28.541 28.544 28.524 28.526 28.574 28.618 28.704 28.699 28.721 28.765 28.943 28.939 28.905 28.898 28.957 28.991 28.996 29.024 29.042 29.066 29.113 29.16 29.223 29.281 29.292 29.332 29.369 29.384 29.397 29.479 29.497 29.499 29.519 29.539 29.576 29.586 29.601 29.661 29.721 29.819 29.864 29.886 29.974 30.026 30.076 30.124 30.181 30.239 30.229 30.201 30.241 30.274 30.306 30.334 30.359 30.411 30.451 30.436 30.464 30.516 30.554 30.546 30.509 30.644 30.714 30.711 30.741 30.686 30.626 30.676 30.746 30.794 30.821 30.841 30.879 30.866 30.844 30.856 30.846 30.841 30.881 30.931 30.971 30.986 30.986 30.961 30.971 31.011 31.041 31.169 31.234 31.221 31.216 31.184 31.179 31.216
30.077 30.062 30.067 30.112 30.099 30.069 30.047 30.047 30.049 30.082 30.097 30.102 30.097 30.112 30.162 30.169 30.214 30.244 30.212 30.212 30.182 30.182 30.192 30.184 30.174 30.142 30.147 30.124 30.152 30.159 30.192 30.099 30.064 30.142 30.247 30.242 30.102 29.954 29.994 29.937 29.839 29.809 29.744 29.699 29.637 29.579 29.564 29.537 29.494 29.469 29.417 29.367 29.312 29.287 29.237 29.174 29.152 29.182 29.184 29.177 29.174 29.147 29.124 29.117 29.099 29.082 29.052 29.029 29.037 29.062 29.082 29.099 29.144 29.189 29.179 29.142 29.137 29.079 29.047 28.987 28.964 28.952 28.934 28.957 28.969 28.957 28.947 28.977 28.979 29.022 29.034 29.052 29.054 29.067 29.054 29.012 28.992 28.987 29.004 28.942 28.867 28.854 28.809 28.854 28.832 28.834 28.822 28.769 28.769 28.767 28.729 28.737 28.684 28.672 28.659 28.654 28.634 28.617 28.609 28.629 28.634 28.627 28.664 28.604 28.574 28.499 28.452 28.437 28.424 28.349 28.339 28.302 28.229 28.224 28.232 28.189 28.179 28.199 28.239 28.307 28.372 28.379 28.444 28.502 28.554 28.662 28.699 28.779 28.834 28.909 28.937 28.994 29.032 29.087 29.087 29.062 29.069 29.029 28.974 28.927 28.852 28.759 28.612 28.522 28.424 28.349 28.202 28.132 27.982 27.897 27.857 27.774 27.762 27.752 27.732 27.724 27.694 27.719 27.687 27.692 27.664 27.682 27.642 27.649 27.637 27.659 27.661 27.644 27.621 27.609 27.621 27.599 27.634 27.634 27.651 27.659 27.709 27.706 27.724 27.734 27.721 27.759 27.746 27.741 27.761 27.839 27.824 27.879 27.881 27.901 27.906 27.901 27.976 28.019 28.076 28.111 28.149 28.199 28.251 28.279 28.344 28.364 28.406 28.484 28.509 28.531 28.574 28.621 28.679 28.721 28.739 28.724 28.701 28.421 28.034 27.494 27.581 27.589 27.134 27.091 27.279 27.649 27.656 27.384 26.979 26.436 26.616 27.666 28.536 28.576 28.601 28.601 28.544 28.444 28.361 28.286 28.256 28.229 28.209 28.194 28.199 28.206 28.199 28.151 28.154 28.154 28.124 28.126 28.141 28.164 28.196 28.201 28.209 28.226 28.234 28.246 28.256 28.269 28.276 28.326 28.329 28.374 28.381 28.414 28.431 28.461 28.439 28.419 28.464 28.444 28.434 28.406 28.404 28.404 28.406 28.396 28.384 28.359 28.371 28.379 28.361 28.349 28.346 28.331 28.329 28.311 28.299 28.314 28.309 28.324 28.356 28.344 28.394 28.389 28.419 28.449 28.459 28.454 28.454 28.454 28.449 28.454 28.476 28.491 28.504 28.506 28.501 28.484 28.479 28.451 28.466 28.464 28.486 28.516 28.501 28.526 28.544 28.53 28.518 28.552 28.608 28.665 28.665 28.701 28.736 28.884 28.974 28.938 28.875 28.896 28.96 28.991 29.029 29.068 29.103 29.162 29.209 29.242 29.274 29.29 29.291 29.322 29.36 29.368 29.439 29.489 29.476 29.494 29.529 29.549 29.586 29.586 29.599 29.646 29.719 29.771 29.796 29.856 29.951 30.041 30.069 30.136 30.186 30.199 30.239 30.251 30.256 30.286 30.336 30.381 30.424 30.436 30.439 30.491 30.494 30.481 30.356 30.369 30.561 30.631 30.601 30.689 30.666 30.604 30.566 30.749 30.779 30.816 30.844 30.864 30.871 30.886 30.876 30.856 30.834 30.911 30.939 30.956 30.976 31.004 30.984 31.021 31.016 31.021 31.061 31.099 31.179 31.191 31.149 31.156 31.156
29.999 30.004 29.989 29.992 29.987 29.939 29.964 29.914 29.939 29.947 29.964 29.959 29.977 30.007 30.029 30.082 30.094 30.159 30.159 30.124 30.097 30.104 30.102 30.112 30.117 30.099 30.047 30.022 30.059 30.117 30.152 30.092 30.024 30.082 30.149 30.157 30.079 29.852 29.869 29.869 29.812 29.792 29.712 29.654 29.579 29.562 29.537 29.509 29.467 29.419 29.369 29.354 29.294 29.269 29.229 29.157 29.159 29.182 29.179 29.167 29.199 29.169 29.139 29.087 29.059 29.089 29.054 29.047 29.062 29.072 29.104 29.114 29.139 29.162 29.199 29.164 29.144 29.119 29.057 29.024 28.987 28.964 28.964 28.959 28.972 28.977 28.962 28.969 29.024 29.047 29.064 29.064 29.074 29.069 29.049 29.027 29.014 28.972 28.984 28.927 28.874 28.847 28.797 28.812 28.809 28.819 28.789 28.762 28.747 28.762 28.704 28.667 28.639 28.649 28.627 28.584 28.557 28.569 28.572 28.587 28.594 28.574 28.617 28.522 28.494 28.444 28.422 28.364 28.394 28.312 28.284 28.252 28.187 28.214 28.164 28.137 28.127 28.177 28.194 28.252 28.322 28.342 28.397 28.489 28.529 28.629 28.674 28.762 28.824 28.872 28.914 28.944 28.994 29.044 29.079 29.059 29.049 29.014 28.982 28.922 28.819 28.719 28.627 28.532 28.422 28.284 28.187 28.102 27.969 27.887 27.827 27.799 27.759 27.767 27.744 27.747 27.697 27.704 27.684 27.659 27.672 27.629 27.604 27.654 27.654 27.662 27.651 27.666 27.634 27.621 27.639 27.639 27.649 27.671 27.701 27.666 27.686 27.736 27.756 27.801 27.781 27.794 27.804 27.824 27.879 27.874 27.871 27.891 27.889 27.904 27.946 27.961 28.046 28.056 28.106 28.151 28.194 28.196 28.234 28.286 28.334 28.376 28.424 28.461 28.489 28.539 28.591 28.649 28.679 28.701 28.631 28.411 28.084 27.346 27.064 27.474 28.261 28.341 27.859 27.684 27.831 28.069 28.186 27.766 27.114 26.579 26.729 27.544 28.539 28.586 28.569 28.549 28.479 28.381 28.314 28.264 28.206 28.169 28.161 28.159 28.169 28.154 28.144 28.116 28.096 28.091 28.079 28.069 28.106 28.146 28.156 28.219 28.199 28.226 28.251 28.241 28.246 28.266 28.289 28.316 28.349 28.339 28.381 28.391 28.404 28.399 28.439 28.434 28.424 28.444 28.404 28.394 28.409 28.391 28.386 28.374 28.364 28.334 28.351 28.359 28.354 28.376 28.346 28.334 28.311 28.279 28.274 28.279 28.274 28.284 28.326 28.314 28.329 28.346 28.371 28.409 28.439 28.406 28.416 28.449 28.436 28.419 28.454 28.464 28.489 28.469 28.466 28.484 28.429 28.444 28.431 28.439 28.459 28.499 28.526 28.549 28.558 28.539 28.513 28.524 28.603 28.619 28.629 28.668 28.684 28.746 28.875 28.9 28.872 28.883 28.936 28.984 29.002 29.061 29.109 29.145 29.19 29.221 29.239 29.256 29.241 29.28 29.335 29.339 29.356 29.446 29.471 29.454 29.486 29.539 29.569 29.569 29.601 29.641 29.684 29.681 29.734 29.811 29.909 29.991 30.054 30.099 30.144 30.169 30.186 30.234 30.249 30.264 30.329 30.361 30.396 30.429 30.436 30.484 30.509 30.489 30.341 30.351 30.529 30.596 30.594 30.634 30.619 30.589 30.584 30.719 30.706 30.734 30.791 30.789 30.824 30.881 30.901 30.841 30.864 30.959 30.924 30.994 30.999 30.994 30.961 30.974 30.981 31.046 31.066 31.079 31.059 31.079 31.054 31.079 31.071
29.927 29.889 29.894 29.909 29.844 29.824 29.832 29.829 29.842 29.814 29.832 29.842 29.854 29.922 29.944 29.987 30.029 30.019 30.022 30.009 30.014 30.032 30.042 30.052 30.037 30.037 29.972 29.979 29.979 30.044 30.077 30.029 29.974 29.997 30.069 30.099 30.072 29.839 29.802 29.804 29.764 29.762 29.694 29.617 29.564 29.504 29.487 29.462 29.432 29.409 29.367 29.334 29.287 29.257 29.219 29.179 29.194 29.194 29.167 29.177 29.192 29.152 29.152 29.134 29.119 29.104 29.074 29.069 29.062 29.084 29.117 29.144 29.189 29.184 29.177 29.172 29.162 29.134 29.089 29.049 29.007 28.984 28.987 29.004 29.022 29.032 29.022 29.019 29.047 29.099 29.122 29.104 29.107 29.124 29.044 29.024 29.022 28.979 28.969 28.902 28.852 28.857 28.804 28.794 28.787 28.807 28.787 28.747 28.767 28.774 28.732 28.664 28.622 28.604 28.594 28.557 28.567 28.527 28.552 28.534 28.532 28.522 28.502 28.492 28.457 28.457 28.409 28.369 28.312 28.307 28.267 28.202 28.179 28.167 28.117 28.142 28.127 28.182 28.179 28.232 28.247 28.337 28.354 28.464 28.514 28.582 28.657 28.719 28.809 28.869 28.899 28.922 28.979 29.054 29.072 29.072 29.047 29.024 28.954 28.889 28.802 28.722 28.622 28.477 28.359 28.272 28.154 28.082 27.919 27.839 27.807 27.754 27.727 27.729 27.744 27.769 27.704 27.687 27.672 27.629 27.669 27.642 27.639 27.702 27.669 27.662 27.696 27.701 27.671 27.701 27.686 27.684 27.736 27.716 27.744 27.754 27.774 27.784 27.809 27.824 27.809 27.796 27.856 27.896 27.869 27.899 27.939 27.941 27.936 27.951 27.959 27.959 28.046 28.064 28.119 28.184 28.179 28.191 28.244 28.329 28.336 28.354 28.401 28.439 28.474 28.514 28.586 28.576 28.511 28.296 27.764 27.671 27.804 27.346 27.631 28.019 28.569 28.854 28.614 28.311 28.359 28.321 28.269 28.026 27.376 26.724 26.659 27.421 28.554 28.551 28.549 28.476 28.439 28.379 28.281 28.206 28.161 28.096 28.106 28.096 28.104 28.089 28.084 28.079 28.046 28.059 28.056 28.069 28.091 28.126 28.169 28.209 28.226 28.241 28.244 28.251 28.269 28.274 28.284 28.306 28.326 28.346 28.369 28.404 28.431 28.406 28.399 28.414 28.431 28.419 28.414 28.419 28.421 28.406 28.389 28.371 28.364 28.339 28.334 28.339 28.334 28.331 28.324 28.319 28.281 28.301 28.309 28.291 28.281 28.286 28.299 28.286 28.299 28.316 28.329 28.344 28.359 28.364 28.371 28.371 28.391 28.399 28.416 28.424 28.454 28.456 28.436 28.441 28.436 28.426 28.431 28.431 28.456 28.486 28.513 28.591 28.583 28.531 28.491 28.497 28.549 28.622 28.589 28.638 28.65 28.684 28.763 28.84 28.896 28.883 28.93 28.952 28.977 29.034 29.081 29.107 29.11 29.145 29.172 29.185 29.242 29.266 29.291 29.286 29.309 29.346 29.426 29.441 29.449 29.474 29.514 29.544 29.566 29.604 29.661 29.656 29.681 29.774 29.876 29.934 29.984 30.059 30.086 30.144 30.226 30.224 30.256 30.286 30.319 30.336 30.369 30.416 30.496 30.551 30.529 30.514 30.581 30.526 30.519 30.581 30.569 30.579 30.579 30.584 30.596 30.666 30.646 30.636 30.681 30.689 30.756 30.829 30.849 30.759 30.834 30.871 30.881 30.959 30.976 30.944 30.914 30.876 30.951 31.064 31.156 31.099 31.029 31.044 31.029 31.006 31.021
29.799 29.774 29.784 29.744 29.729 29.717 29.709 29.689 29.687 29.689 29.699 29.729 29.754 29.792 29.802 29.809 29.869 29.917 29.907 29.899 29.932 29.927 29.952 29.967 29.947 29.929 29.922 29.902 29.877 29.919 29.977 29.979 29.907 29.909 29.944 29.987 30.012 29.872 29.752 29.774 29.749 29.722 29.689 29.599 29.512 29.457 29.422 29.417 29.367 29.364 29.344 29.312 29.267 29.222 29.209 29.174 29.197 29.187 29.189 29.154 29.182 29.154 29.154 29.124 29.134 29.094 29.092 29.072 29.052 29.074 29.107 29.154 29.182 29.219 29.219 29.182 29.192 29.157 29.122 29.087 29.052 29.022 29.027 29.039 29.042 29.062 29.057 29.082 29.074 29.117 29.132 29.122 29.119 29.127 29.082 29.047 29.037 28.972 28.969 28.907 28.847 28.842 28.772 28.729 28.787 28.769 28.732 28.739 28.734 28.747 28.679 28.642 28.637 28.609 28.552 28.549 28.537 28.559 28.537 28.499 28.499 28.497 28.474 28.459 28.452 28.422 28.359 28.334 28.287 28.272 28.204 28.189 28.182 28.149 28.119 28.084 28.112 28.144 28.194 28.229 28.277 28.352 28.407 28.457 28.532 28.614 28.669 28.722 28.762 28.817 28.859 28.899 28.947 29.024 29.042 29.044 29.017 28.982 28.947 28.824 28.774 28.674 28.612 28.432 28.359 28.242 28.097 28.034 27.902 27.822 27.757 27.702 27.722 27.727 27.739 27.727 27.674 27.684 27.654 27.639 27.674 27.667 27.682 27.699 27.657 27.682 27.736 27.749 27.724 27.746 27.754 27.766 27.796 27.796 27.809 27.839 27.874 27.891 27.871 27.891 27.914 27.921 27.951 27.944 27.919 27.919 27.969 27.961 27.916 27.941 27.996 28.029 28.039 28.071 28.116 28.164 28.184 28.219 28.264 28.309 28.294 28.319 28.371 28.431 28.459 28.459 28.386 28.174 27.561 27.116 27.011 27.506 28.179 28.201 28.476 28.621 28.656 28.836 28.684 28.501 28.334 28.179 28.084 28.081 27.599 26.794 26.521 27.189 28.256 28.509 28.486 28.429 28.411 28.374 28.264 28.171 28.104 28.086 28.046 28.024 28.036 28.056 28.051 28.036 28.024 28.041 28.056 28.041 28.079 28.161 28.176 28.229 28.271 28.259 28.251 28.269 28.279 28.266 28.306 28.294 28.329 28.364 28.356 28.374 28.384 28.424 28.419 28.404 28.424 28.424 28.411 28.414 28.429 28.411 28.409 28.386 28.371 28.354 28.349 28.321 28.311 28.279 28.299 28.301 28.306 28.309 28.314 28.301 28.286 28.264 28.264 28.286 28.274 28.294 28.279 28.306 28.296 28.304 28.334 28.359 28.359 28.361 28.379 28.406 28.426 28.431 28.416 28.414 28.421 28.424 28.394 28.421 28.415 28.45 28.442 28.471 28.515 28.497 28.443 28.458 28.472 28.551 28.588 28.603 28.658 28.673 28.738 28.845 28.885 28.866 28.864 28.888 28.921 28.962 28.99 29.027 29.07 29.108 29.135 29.159 29.206 29.199 29.246 29.266 29.276 29.299 29.376 29.374 29.409 29.441 29.481 29.506 29.536 29.571 29.651 29.641 29.649 29.739 29.911 29.886 29.919 29.979 30.069 30.159 30.214 30.216 30.269 30.291 30.346 30.449 30.499 30.529 30.531 30.539 30.534 30.514 30.524 30.521 30.544 30.549 30.541 30.529 30.546 30.566 30.586 30.614 30.599 30.584 30.621 30.636 30.706 30.771 30.801 30.679 30.791 30.794 30.834 30.896 30.911 30.884 30.871 30.846 30.916 31.044 31.081 30.979 30.929 30.949 30.974 30.954 30.961
29.694 29.657 29.689 29.607 29.632 29.622 29.634 29.597 29.577 29.617 29.597 29.614 29.639 29.657 29.652 29.692 29.769 29.814 29.842 29.842 29.854 29.857 29.884 29.864 29.874 29.829 29.822 29.839 29.809 29.849 29.862 29.842 29.814 29.802 29.842 29.817 29.884 29.812 29.654 29.689 29.702 29.644 29.592 29.527 29.492 29.432 29.382 29.394 29.364 29.337 29.317 29.289 29.264 29.214 29.209 29.192 29.172 29.177 29.202 29.179 29.197 29.167 29.162 29.117 29.104 29.097 29.089 29.072 29.069 29.099 29.114 29.159 29.199 29.244 29.234 29.217 29.224 29.184 29.172 29.137 29.092 29.082 29.052 29.047 29.049 29.079 29.084 29.102 29.099 29.127 29.169 29.149 29.139 29.139 29.114 29.057 29.024 28.984 28.979 28.917 28.877 28.844 28.779 28.767 28.787 28.804 28.767 28.714 28.742 28.717 28.694 28.652 28.659 28.624 28.542 28.522 28.537 28.514 28.527 28.484 28.524 28.522 28.482 28.452 28.427 28.389 28.314 28.322 28.264 28.212 28.222 28.162 28.162 28.132 28.124 28.109 28.147 28.162 28.172 28.227 28.317 28.369 28.404 28.449 28.544 28.597 28.617 28.764 28.777 28.814 28.872 28.909 28.947 28.989 29.022 28.989 28.967 28.934 28.897 28.767 28.707 28.617 28.559 28.452 28.294 28.199 28.094 27.957 27.857 27.769 27.742 27.694 27.712 27.709 27.709 27.674 27.684 27.694 27.689 27.672 27.682 27.687 27.672 27.677 27.714 27.742 27.741 27.769 27.781 27.781 27.781 27.826 27.864 27.866 27.921 27.909 27.924 27.959 27.954 27.944 27.974 27.964 27.974 27.996 27.971 27.979 27.989 27.981 27.969 27.996 28.049 28.099 28.096 28.111 28.151 28.154 28.234 28.236 28.241 28.266 28.294 28.321 28.361 28.429 28.354 27.979 27.474 27.489 27.279 27.234 27.444 27.839 28.409 28.511 28.541 28.539 28.584 28.564 28.406 28.226 28.111 27.984 27.974 28.056 28.121 27.029 26.399 26.839 27.789 28.486 28.466 28.434 28.426 28.364 28.229 28.154 28.079 28.046 28.019 27.981 27.974 27.991 28.006 28.004 27.999 28.014 28.039 28.059 28.074 28.154 28.176 28.244 28.279 28.279 28.294 28.276 28.269 28.309 28.319 28.274 28.319 28.351 28.376 28.361 28.394 28.421 28.434 28.421 28.421 28.426 28.411 28.416 28.416 28.416 28.419 28.396 28.369 28.339 28.346 28.324 28.321 28.311 28.304 28.301 28.309 28.304 28.286 28.256 28.281 28.254 28.246 28.259 28.269 28.271 28.286 28.274 28.276 28.286 28.304 28.311 28.314 28.326 28.341 28.361 28.376 28.381 28.374 28.376 28.366 28.366 28.391 28.367 28.403 28.451 28.441 28.451 28.48 28.494 28.478 28.433 28.432 28.487 28.585 28.593 28.628 28.632 28.69 28.762 28.774 28.78 28.824 28.831 28.851 28.883 28.907 28.952 29.02 29.075 29.091 29.124 29.164 29.181 29.206 29.256 29.249 29.274 29.331 29.394 29.419 29.469 29.504 29.539 29.554 29.584 29.604 29.604 29.641 29.694 29.756 29.814 29.854 29.944 30.041 30.116 30.171 30.194 30.279 30.504 30.556 30.551 30.546 30.536 30.546 30.506 30.524 30.484 30.506 30.486 30.501 30.536 30.566 30.566 30.576 30.576 30.596 30.614 30.619 30.644 30.664 30.681 30.734 30.734 30.756 30.666 30.751 30.769 30.779 30.834 30.844 30.819 30.836 30.819 30.869 31.029 30.989 30.859 30.809 30.836 30.911 30.914 30.964
29.624 29.619 29.587 29.567 29.529 29.539 29.529 29.512 29.492 29.499 29.512 29.509 29.534 29.554 29.587 29.609 29.664 29.709 29.744 29.737 29.737 29.739 29.787 29.762 29.782 29.764 29.764 29.757 29.732 29.749 29.807 29.777 29.747 29.692 29.767 29.797 29.817 29.772 29.492 29.549 29.609 29.582 29.532 29.499 29.464 29.372 29.327 29.327 29.324 29.324 29.294 29.267 29.257 29.227 29.212 29.202 29.202 29.202 29.197 29.194 29.229 29.207 29.189 29.149 29.109 29.124 29.089 29.077 29.092 29.099 29.119 29.177 29.174 29.212 29.249 29.254 29.247 29.214 29.187 29.154 29.154 29.097 29.089 29.077 29.082 29.097 29.127 29.144 29.139 29.132 29.154 29.157 29.152 29.112 29.067 29.039 29.024 28.959 28.992 28.964 28.872 28.844 28.782 28.772 28.794 28.774 28.734 28.727 28.734 28.704 28.684 28.634 28.634 28.542 28.539 28.512 28.527 28.487 28.459 28.454 28.489 28.474 28.462 28.422 28.404 28.359 28.349 28.324 28.289 28.259 28.239 28.187 28.169 28.144 28.142 28.164 28.169 28.174 28.242 28.277 28.294 28.334 28.422 28.489 28.549 28.627 28.637 28.707 28.792 28.824 28.869 28.859 28.932 28.944 28.974 28.932 28.924 28.907 28.859 28.789 28.724 28.597 28.502 28.384 28.274 28.129 28.034 27.862 27.834 27.772 27.729 27.684 27.669 27.707 27.684 27.677 27.684 27.689 27.664 27.714 27.712 27.682 27.714 27.704 27.749 27.804 27.831 27.809 27.846 27.869 27.854 27.896 27.934 27.951 27.986 27.974 27.966 28.001 28.054 28.074 28.061 28.046 28.079 28.079 28.019 28.024 28.029 28.004 27.994 28.009 28.016 28.061 28.094 28.106 28.139 28.191 28.196 28.199 28.224 28.241 28.221 28.054 27.886 27.771 27.196 27.014 26.949 27.429 27.794 27.921 28.001 28.226 28.384 28.279 28.294 28.414 28.449 28.334 28.126 28.031 27.906 27.834 27.924 28.101 28.229 27.426 26.514 26.704 28.021 28.471 28.471 28.446 28.446 28.349 28.226 28.146 28.019 28.004 27.969 27.946 27.944 27.946 27.939 27.966 27.969 27.969 28.021 28.014 28.086 28.144 28.181 28.229 28.281 28.276 28.281 28.284 28.299 28.264 28.271 28.281 28.346 28.344 28.369 28.391 28.424 28.436 28.416 28.436 28.431 28.444 28.444 28.434 28.436 28.436 28.401 28.406 28.379 28.346 28.334 28.304 28.316 28.291 28.279 28.264 28.264 28.254 28.271 28.274 28.271 28.259 28.256 28.259 28.276 28.266 28.261 28.236 28.254 28.259 28.256 28.299 28.321 28.309 28.331 28.336 28.339 28.354 28.351 28.346 28.336 28.344 28.334 28.324 28.37 28.395 28.427 28.43 28.45 28.47 28.444 28.416 28.387 28.426 28.545 28.56 28.559 28.577 28.624 28.664 28.687 28.688 28.739 28.768 28.793 28.839 28.863 28.931 29.011 29.039 29.059 29.104 29.141 29.164 29.209 29.216 29.254 29.271 29.289 29.359 29.396 29.436 29.491 29.524 29.546 29.564 29.561 29.561 29.621 29.649 29.706 29.746 29.774 29.826 29.969 30.081 30.146 30.204 30.456 30.549 30.551 30.521 30.519 30.516 30.514 30.514 30.526 30.389 30.416 30.384 30.464 30.504 30.564 30.584 30.594 30.606 30.611 30.626 30.659 30.689 30.729 30.771 30.726 30.739 30.751 30.746 30.741 30.724 30.726 30.779 30.794 30.776 30.784 30.791 30.824 30.901 30.884 30.741 30.731 30.821 30.891 30.914 30.971
29.537 29.527 29.527 29.492 29.474 29.459 29.452 29.429 29.402 29.429 29.424 29.442 29.469 29.482 29.487 29.499 29.547 29.634 29.652 29.619 29.652 29.697 29.702 29.702 29.709 29.659 29.652 29.679 29.667 29.654 29.694 29.699 29.719 29.622 29.607 29.697 29.749 29.729 29.482 29.459 29.567 29.557 29.492 29.432 29.384 29.339 29.297 29.274 29.282 29.302 29.319 29.299 29.274 29.257 29.234 29.212 29.212 29.229 29.224 29.197 29.227 29.224 29.224 29.187 29.149 29.149 29.127 29.137 29.149 29.142 29.167 29.172 29.189 29.219 29.262 29.269 29.292 29.242 29.234 29.189 29.172 29.147 29.074 29.059 29.092 29.124 29.147 29.152 29.162 29.172 29.169 29.169 29.147 29.104 29.069 29.047 29.012 28.969 28.977 28.982 28.892 28.844 28.837 28.742 28.764 28.737 28.709 28.734 28.727 28.672 28.664 28.642 28.587 28.569 28.552 28.504 28.482 28.449 28.462 28.464 28.442 28.469 28.449 28.409 28.387 28.394 28.362 28.317 28.304 28.282 28.262 28.244 28.227 28.222 28.217 28.217 28.179 28.199 28.249 28.297 28.314 28.379 28.464 28.512 28.557 28.624 28.702 28.737 28.789 28.794 28.827 28.857 28.902 28.927 28.902 28.924 28.917 28.869 28.792 28.727 28.619 28.524 28.424 28.309 28.192 28.114 27.969 27.907 27.799 27.749 27.724 27.692 27.662 27.699 27.687 27.712 27.684 27.704 27.737 27.737 27.739 27.749 27.757 27.769 27.817 27.889 27.906 27.906 27.939 27.946 27.999 28.006 28.019 28.016 28.069 28.091 28.076 28.084 28.119 28.124 28.146 28.119 28.116 28.071 28.056 28.081 28.034 28.034 28.034 28.024 28.044 28.099 28.126 28.151 28.171 28.169 28.174 28.169 28.121 27.961 27.709 27.316 26.939 26.839 27.069 26.931 27.106 27.756 27.936 27.991 28.264 28.296 28.181 28.109 28.149 28.201 28.256 28.176 27.989 27.884 27.809 27.821 27.884 28.066 28.296 27.934 26.641 26.666 27.776 28.464 28.489 28.471 28.456 28.369 28.259 28.151 28.059 27.984 27.921 27.909 27.924 27.911 27.929 27.946 27.951 27.984 28.006 28.039 28.086 28.134 28.169 28.241 28.274 28.261 28.276 28.269 28.261 28.264 28.281 28.326 28.344 28.366 28.404 28.406 28.416 28.424 28.444 28.444 28.446 28.466 28.464 28.444 28.426 28.424 28.421 28.384 28.371 28.326 28.326 28.299 28.294 28.284 28.271 28.251 28.224 28.226 28.246 28.246 28.274 28.286 28.274 28.254 28.244 28.239 28.244 28.231 28.236 28.239 28.229 28.244 28.284 28.284 28.309 28.311 28.329 28.339 28.341 28.334 28.333 28.308 28.29 28.264 28.283 28.336 28.367 28.394 28.374 28.393 28.406 28.372 28.367 28.373 28.474 28.488 28.493 28.513 28.571 28.597 28.627 28.672 28.706 28.767 28.805 28.824 28.865 28.909 28.944 28.969 29.006 29.039 29.091 29.119 29.169 29.199 29.239 29.241 29.249 29.314 29.366 29.386 29.449 29.481 29.494 29.509 29.496 29.534 29.576 29.606 29.669 29.736 29.771 29.804 29.889 30.076 30.106 30.174 30.444 30.526 30.536 30.494 30.481 30.506 30.516 30.521 30.524 30.469 30.419 30.369 30.354 30.491 30.549 30.576 30.604 30.609 30.614 30.626 30.686 30.731 30.766 30.774 30.716 30.781 30.751 30.731 30.729 30.741 30.741 30.744 30.739 30.739 30.751 30.759 30.809 30.786 30.744 30.641 30.764 30.849 30.871 30.959 30.966
29.509 29.474 29.472 29.432 29.439 29.427 29.402 29.409 29.387 29.367 29.334 29.409 29.432 29.432 29.429 29.452 29.489 29.557 29.582 29.607 29.582 29.604 29.587 29.617 29.624 29.612 29.547 29.554 29.594 29.577 29.609 29.614 29.604 29.547 29.482 29.602 29.679 29.684 29.504 29.357 29.467 29.484 29.464 29.389 29.332 29.319 29.279 29.282 29.262 29.269 29.277 29.274 29.274 29.289 29.262 29.237 29.237 29.244 29.262 29.247 29.249 29.249 29.219 29.219 29.172 29.174 29.169 29.144 29.119 29.162 29.182 29.214 29.237 29.274 29.292 29.317 29.317 29.277 29.272 29.262 29.184 29.157 29.099 29.099 29.114 29.147 29.157 29.157 29.174 29.157 29.207 29.184 29.132 29.117 29.099 29.054 29.002 28.977 28.979 28.987 28.877 28.809 28.799 28.722 28.699 28.722 28.722 28.712 28.669 28.667 28.637 28.627 28.572 28.527 28.527 28.474 28.482 28.459 28.494 28.469 28.429 28.449 28.477 28.429 28.399 28.377 28.342 28.327 28.317 28.292 28.264 28.287 28.237 28.237 28.232 28.209 28.222 28.249 28.289 28.327 28.372 28.412 28.517 28.557 28.592 28.634 28.712 28.722 28.742 28.802 28.804 28.854 28.872 28.859 28.824 28.862 28.822 28.772 28.719 28.649 28.537 28.452 28.364 28.284 28.167 28.039 27.922 27.882 27.784 27.727 27.677 27.699 27.652 27.694 27.687 27.719 27.742 27.759 27.754 27.764 27.767 27.799 27.819 27.877 27.924 27.942 27.979 27.979 28.034 28.014 28.059 28.089 28.109 28.114 28.149 28.176 28.184 28.174 28.236 28.204 28.189 28.206 28.186 28.196 28.129 28.126 28.089 28.064 28.069 28.119 28.134 28.136 28.166 28.169 28.169 28.119 27.936 27.654 27.124 26.964 26.814 27.126 27.314 27.441 27.606 27.346 27.429 27.781 27.764 27.666 27.876 28.019 27.894 27.959 28.019 28.031 28.006 27.881 27.886 27.779 27.746 27.836 27.884 27.981 28.281 28.169 26.879 26.574 27.249 28.401 28.489 28.461 28.449 28.356 28.286 28.171 28.061 27.976 27.916 27.926 27.879 27.866 27.921 27.916 27.924 27.956 27.971 28.024 28.066 28.109 28.181 28.199 28.249 28.274 28.264 28.231 28.241 28.274 28.286 28.311 28.326 28.354 28.394 28.381 28.416 28.441 28.446 28.424 28.439 28.466 28.434 28.436 28.426 28.409 28.389 28.384 28.344 28.299 28.284 28.276 28.246 28.226 28.221 28.211 28.199 28.196 28.191 28.231 28.236 28.241 28.244 28.249 28.229 28.224 28.206 28.191 28.199 28.231 28.224 28.236 28.271 28.266 28.301 28.301 28.299 28.331 28.342 28.326 28.289 28.311 28.268 28.244 28.248 28.285 28.32 28.324 28.321 28.359 28.397 28.352 28.328 28.324 28.367 28.423 28.449 28.465 28.523 28.582 28.612 28.669 28.701 28.759 28.806 28.796 28.821 28.881 28.906 28.954 28.946 29.009 29.041 29.066 29.114 29.141 29.179 29.184 29.204 29.221 29.316 29.339 29.384 29.424 29.449 29.461 29.436 29.489 29.559 29.609 29.676 29.749 29.766 29.806 29.814 30.001 30.084 30.146 30.394 30.519 30.506 30.504 30.494 30.506 30.519 30.514 30.491 30.474 30.421 30.369 30.319 30.421 30.551 30.556 30.596 30.596 30.611 30.626 30.661 30.711 30.744 30.746 30.741 30.751 30.714 30.706 30.694 30.679 30.689 30.699 30.696 30.716 30.724 30.709 30.719 30.739 30.776 30.834 30.889 30.879 30.939 31.001 31.026
29.462 29.394 29.417 29.354 29.354 29.352 29.362 29.349 29.307 29.314 29.309 29.342 29.362 29.379 29.392 29.422 29.462 29.499 29.524 29.509 29.552 29.534 29.504 29.552 29.534 29.522 29.479 29.494 29.534 29.504 29.489 29.567 29.552 29.527 29.392 29.492 29.594 29.647 29.559 29.382 29.394 29.454 29.467 29.362 29.317 29.304 29.227 29.234 29.257 29.282 29.294 29.284 29.307 29.289 29.294 29.294 29.267 29.264 29.289 29.289 29.292 29.292 29.267 29.232 29.219 29.219 29.184 29.174 29.149 29.177 29.199 29.257 29.282 29.304 29.322 29.354 29.347 29.337 29.314 29.299 29.264 29.217 29.154 29.142 29.144 29.184 29.194 29.194 29.194 29.174 29.202 29.167 29.154 29.134 29.102 29.079 29.049 29.014 28.992 28.989 28.894 28.809 28.764 28.719 28.737 28.724 28.697 28.709 28.654 28.612 28.597 28.587 28.599 28.537 28.509 28.469 28.482 28.464 28.467 28.474 28.469 28.477 28.454 28.427 28.397 28.389 28.372 28.332 28.349 28.312 28.304 28.264 28.287 28.242 28.237 28.237 28.282 28.304 28.322 28.367 28.417 28.467 28.502 28.582 28.619 28.622 28.672 28.747 28.722 28.764 28.779 28.807 28.802 28.802 28.819 28.787 28.772 28.744 28.694 28.594 28.524 28.399 28.299 28.224 28.114 28.027 27.924 27.859 27.807 27.727 27.647 27.669 27.674 27.692 27.714 27.727 27.759 27.784 27.804 27.837 27.797 27.864 27.919 27.962 27.992 28.049 28.079 28.071 28.129 28.141 28.154 28.156 28.181 28.216 28.224 28.254 28.279 28.309 28.296 28.301 28.264 28.281 28.269 28.251 28.214 28.189 28.184 28.134 28.104 28.164 28.171 28.156 28.189 28.149 27.969 27.589 26.994 26.859 26.866 27.179 27.429 27.806 27.941 27.999 27.821 27.656 27.729 27.806 27.631 27.486 27.434 27.656 27.701 27.846 27.934 27.901 27.774 27.741 27.741 27.744 27.724 27.816 27.991 28.161 28.326 28.164 27.051 26.534 26.756 27.979 28.344 28.474 28.479 28.396 28.281 28.164 28.046 28.001 27.941 27.901 27.864 27.854 27.886 27.884 27.901 27.926 27.966 28.004 28.054 28.086 28.134 28.194 28.226 28.234 28.229 28.229 28.221 28.236 28.279 28.286 28.349 28.371 28.386 28.404 28.421 28.439 28.424 28.441 28.431 28.449 28.416 28.406 28.401 28.366 28.356 28.309 28.249 28.256 28.224 28.206 28.206 28.201 28.194 28.174 28.191 28.174 28.174 28.174 28.196 28.191 28.204 28.209 28.204 28.204 28.204 28.201 28.199 28.201 28.204 28.221 28.204 28.256 28.274 28.304 28.326 28.35 28.357 28.329 28.322 28.313 28.282 28.26 28.248 28.238 28.262 28.283 28.305 28.315 28.357 28.332 28.309 28.279 28.286 28.385 28.424 28.462 28.499 28.56 28.608 28.656 28.69 28.723 28.774 28.801 28.794 28.824 28.854 28.924 28.939 28.964 29.011 29.004 29.031 29.079 29.106 29.134 29.176 29.184 29.276 29.324 29.326 29.379 29.414 29.436 29.404 29.469 29.536 29.599 29.671 29.716 29.749 29.791 29.816 29.894 30.066 30.121 30.259 30.509 30.494 30.494 30.494 30.506 30.514 30.524 30.504 30.466 30.396 30.381 30.374 30.441 30.544 30.551 30.551 30.571 30.591 30.614 30.641 30.671 30.689 30.714 30.711 30.686 30.666 30.644 30.641 30.656 30.659 30.649 30.684 30.676 30.634 30.671 30.729 30.694 30.674 30.791 30.776 30.799 30.876 30.976 31.019
29.429 29.377 29.352 29.344 29.319 29.332 29.339 29.289 29.297 29.304 29.279 29.349 29.344 29.344 29.359 29.389 29.407 29.427 29.439 29.449 29.479 29.454 29.434 29.492 29.524 29.487 29.419 29.454 29.469 29.487 29.439 29.477 29.492 29.489 29.347 29.414 29.524 29.622 29.584 29.434 29.364 29.414 29.394 29.382 29.342 29.304 29.224 29.212 29.264 29.302 29.312 29.327 29.369 29.324 29.337 29.342 29.334 29.309 29.334 29.332 29.302 29.297 29.292 29.279 29.242 29.249 29.224 29.174 29.194 29.217 29.222 29.239 29.324 29.314 29.352 29.374 29.352 29.329 29.292 29.304 29.302 29.249 29.182 29.162 29.187 29.207 29.209 29.224 29.209 29.189 29.219 29.192 29.149 29.114 29.099 29.099 29.052 29.032 29.002 28.982 28.912 28.817 28.729 28.709 28.727 28.712 28.672 28.657 28.634 28.612 28.624 28.602 28.587 28.559 28.494 28.469 28.472 28.477 28.429 28.467 28.477 28.477 28.472 28.452 28.429 28.384 28.337 28.324 28.332 28.322 28.317 28.314 28.312 28.277 28.302 28.274 28.332 28.334 28.347 28.407 28.437 28.524 28.519 28.599 28.657 28.672 28.704 28.734 28.734 28.729 28.729 28.759 28.767 28.782 28.742 28.712 28.699 28.654 28.592 28.517 28.464 28.344 28.237 28.144 28.059 27.939 27.862 27.839 27.774 27.729 27.694 27.682 27.707 27.722 27.737 27.794 27.817 27.832 27.852 27.899 27.894 27.954 28.029 28.022 28.082 28.122 28.174 28.184 28.171 28.219 28.244 28.271 28.289 28.311 28.351 28.364 28.391 28.396 28.374 28.364 28.354 28.334 28.336 28.326 28.311 28.306 28.224 28.214 28.211 28.196 28.206 28.204 28.096 27.309 26.994 26.911 26.906 26.909 27.069 27.286 27.631 27.919 28.101 28.031 27.846 27.696 27.629 27.651 27.584 27.514 27.499 27.516 27.609 27.779 27.859 27.606 27.341 27.484 27.624 27.686 27.754 27.841 28.054 28.289 28.426 28.109 27.259 26.611 26.616 27.179 27.934 28.464 28.439 28.411 28.296 28.174 28.086 28.034 27.979 27.909 27.886 27.874 27.859 27.856 27.886 27.901 27.939 27.964 28.001 28.061 28.104 28.166 28.191 28.191 28.194 28.211 28.194 28.219 28.266 28.299 28.316 28.341 28.344 28.349 28.371 28.384 28.376 28.379 28.399 28.399 28.396 28.351 28.349 28.309 28.304 28.259 28.211 28.209 28.219 28.171 28.156 28.161 28.176 28.149 28.149 28.141 28.126 28.111 28.141 28.159 28.166 28.174 28.184 28.216 28.211 28.186 28.194 28.201 28.209 28.219 28.224 28.241 28.256 28.287 28.309 28.326 28.334 28.332 28.307 28.299 28.267 28.244 28.228 28.215 28.225 28.253 28.283 28.313 28.324 28.3 28.292 28.274 28.239 28.295 28.384 28.448 28.498 28.534 28.617 28.648 28.664 28.704 28.734 28.766 28.751 28.771 28.819 28.859 28.904 28.934 28.964 29.001 28.999 29.026 29.046 29.114 29.131 29.154 29.204 29.284 29.301 29.339 29.369 29.391 29.456 29.451 29.501 29.576 29.614 29.696 29.746 29.766 29.804 29.771 30.004 30.084 30.161 30.451 30.486 30.474 30.469 30.469 30.504 30.511 30.496 30.416 30.309 30.199 30.114 30.239 30.529 30.554 30.559 30.584 30.581 30.589 30.631 30.661 30.669 30.649 30.619 30.611 30.619 30.629 30.626 30.649 30.636 30.596 30.601 30.631 30.609 30.576 30.609 30.574 30.551 30.619 30.656 30.724 30.826 30.884 30.926
29.362 29.337 29.317 29.344 29.337 29.312 29.302 29.314 29.299 29.307 29.302 29.312 29.337 29.364 29.367 29.369 29.369 29.399 29.389 29.412 29.434 29.399 29.397 29.427 29.482 29.447 29.392 29.389 29.404 29.434 29.414 29.392 29.404 29.424 29.352 29.372 29.517 29.587 29.589 29.464 29.359 29.379 29.367 29.372 29.344 29.324 29.262 29.249 29.282 29.314 29.342 29.369 29.399 29.369 29.367 29.392 29.382 29.367 29.372 29.347 29.334 29.337 29.327 29.289 29.287 29.242 29.244 29.239 29.199 29.219 29.219 29.262 29.342 29.334 29.334 29.359 29.357 29.364 29.352 29.334 29.312 29.279 29.237 29.199 29.212 29.214 29.234 29.247 29.244 29.247 29.232 29.259 29.167 29.127 29.109 29.097 29.042 29.009 28.972 28.947 28.862 28.789 28.752 28.689 28.694 28.689 28.664 28.649 28.619 28.614 28.634 28.612 28.567 28.529 28.472 28.492 28.477 28.472 28.469 28.464 28.477 28.447 28.457 28.429 28.444 28.414 28.369 28.364 28.337 28.364 28.349 28.322 28.319 28.329 28.324 28.312 28.324 28.374 28.402 28.474 28.507 28.564 28.592 28.647 28.682 28.697 28.729 28.679 28.737 28.727 28.719 28.719 28.712 28.704 28.702 28.682 28.622 28.564 28.517 28.439 28.364 28.242 28.167 28.092 27.994 27.902 27.864 27.832 27.769 27.722 27.754 27.729 27.724 27.752 27.829 27.849 27.889 27.929 27.977 28.002 28.037 28.057 28.109 28.152 28.169 28.212 28.244 28.291 28.291 28.341 28.374 28.381 28.386 28.431 28.444 28.481 28.501 28.459 28.474 28.474 28.446 28.431 28.419 28.409 28.366 28.336 28.274 28.284 28.286 28.244 27.996 27.559 27.129 26.829 27.041 27.376 27.364 27.241 27.261 27.436 27.719 27.851 27.879 27.814 27.691 27.649 27.634 27.571 27.511 27.539 27.639 27.576 27.599 27.654 27.726 27.604 27.311 27.434 27.571 27.619 27.744 27.901 28.129 28.344 28.504 28.616 28.416 27.086 26.651 26.926 28.136 28.436 28.401 28.421 28.376 28.251 28.131 28.046 28.009 27.924 27.876 27.864 27.846 27.836 27.854 27.881 27.906 27.936 27.969 28.059 28.086 28.109 28.131 28.149 28.159 28.189 28.191 28.191 28.241 28.231 28.281 28.289 28.309 28.291 28.301 28.316 28.339 28.334 28.329 28.331 28.321 28.329 28.284 28.271 28.251 28.231 28.199 28.181 28.171 28.156 28.139 28.124 28.149 28.124 28.121 28.119 28.104 28.121 28.134 28.124 28.124 28.151 28.149 28.161 28.204 28.204 28.184 28.211 28.216 28.221 28.206 28.211 28.246 28.256 28.299 28.302 28.312 28.305 28.3 28.263 28.252 28.228 28.217 28.191 28.23 28.234 28.23 28.254 28.258 28.253 28.262 28.245 28.225 28.242 28.354 28.429 28.482 28.512 28.567 28.604 28.646 28.676 28.691 28.724 28.721 28.741 28.781 28.801 28.874 28.921 28.924 28.956 28.959 28.981 29.016 29.071 29.094 29.141 29.159 29.261 29.294 29.314 29.349 29.374 29.416 29.431 29.461 29.529 29.594 29.649 29.726 29.751 29.774 29.821 29.906 30.069 30.116 30.226 30.469 30.474 30.484 30.476 30.481 30.484 30.519 30.464 30.361 30.254 30.156 30.244 30.511 30.536 30.529 30.554 30.564 30.531 30.571 30.599 30.621 30.616 30.599 30.579 30.576 30.611 30.589 30.591 30.586 30.579 30.519 30.491 30.429 30.379 30.439 30.471 30.526 30.569 30.689 30.791 30.871 30.904 30.959
29.344 29.342 29.344 29.322 29.314 29.329 29.319 29.344 29.327 29.334 29.309 29.299 29.324 29.334 29.339 29.314 29.382 29.374 29.389 29.392 29.402 29.394 29.382 29.389 29.412 29.402 29.367 29.402 29.394 29.367 29.392 29.359 29.397 29.394 29.344 29.282 29.414 29.534 29.602 29.537 29.309 29.362 29.397 29.392 29.354 29.334 29.302 29.257 29.337 29.384 29.374 29.397 29.432 29.404 29.417 29.419 29.414 29.399 29.402 29.384 29.382 29.367 29.339 29.329 29.307 29.282 29.252 29.262 29.229 29.229 29.237 29.252 29.302 29.327 29.362 29.382 29.364 29.374 29.379 29.379 29.317 29.279 29.257 29.227 29.217 29.259 29.234 29.269 29.264 29.284 29.282 29.299 29.224 29.169 29.107 29.087 29.059 29.004 28.947 28.959 28.919 28.787 28.767 28.707 28.654 28.664 28.654 28.652 28.612 28.584 28.594 28.572 28.544 28.534 28.487 28.472 28.479 28.489 28.472 28.469 28.502 28.484 28.447 28.452 28.419 28.424 28.332 28.364 28.382 28.419 28.369 28.359 28.339 28.339 28.337 28.352 28.337 28.407 28.447 28.447 28.547 28.574 28.634 28.659 28.699 28.722 28.719 28.692 28.727 28.684 28.694 28.689 28.667 28.667 28.649 28.604 28.554 28.492 28.457 28.377 28.309 28.212 28.114 28.034 27.992 27.917 27.884 27.837 27.824 27.812 27.794 27.807 27.814 27.874 27.937 27.939 27.989 28.044 28.072 28.082 28.139 28.194 28.184 28.279 28.277 28.347 28.334 28.369 28.354 28.424 28.439 28.476 28.496 28.521 28.569 28.589 28.561 28.551 28.536 28.539 28.539 28.496 28.444 28.429 28.384 28.356 28.291 28.271 28.111 27.701 27.239 27.004 26.981 27.366 27.756 27.869 27.784 27.619 27.531 27.639 27.711 27.616 27.616 27.631 27.551 27.574 27.589 27.546 27.461 27.494 27.614 27.581 27.564 27.581 27.579 27.581 27.536 27.526 27.521 27.611 27.821 27.996 28.181 28.374 28.551 28.729 28.746 27.811 26.714 26.634 27.434 28.011 28.406 28.434 28.391 28.319 28.194 28.079 28.029 27.941 27.866 27.849 27.844 27.809 27.806 27.821 27.859 27.909 27.951 27.969 28.041 28.084 28.089 28.099 28.089 28.101 28.119 28.136 28.181 28.189 28.206 28.204 28.214 28.254 28.246 28.234 28.251 28.281 28.284 28.299 28.276 28.274 28.269 28.234 28.236 28.221 28.199 28.204 28.156 28.119 28.111 28.094 28.084 28.084 28.084 28.076 28.066 28.114 28.111 28.086 28.084 28.111 28.111 28.121 28.164 28.176 28.176 28.199 28.176 28.179 28.186 28.182 28.209 28.218 28.251 28.255 28.274 28.278 28.28 28.255 28.227 28.214 28.209 28.183 28.209 28.211 28.212 28.211 28.221 28.24 28.235 28.218 28.226 28.228 28.3 28.392 28.447 28.489 28.521 28.571 28.584 28.596 28.626 28.674 28.681 28.686 28.734 28.779 28.821 28.856 28.879 28.906 28.916 28.946 28.961 29.021 29.051 29.091 29.121 29.184 29.296 29.299 29.314 29.354 29.346 29.391 29.424 29.489 29.529 29.594 29.659 29.709 29.754 29.791 29.769 30.021 30.094 30.141 30.416 30.516 30.481 30.481 30.484 30.489 30.511 30.526 30.434 30.334 30.281 30.434 30.521 30.509 30.514 30.524 30.524 30.516 30.539 30.579 30.574 30.571 30.559 30.531 30.514 30.486 30.534 30.569 30.541 30.444 30.346 30.346 30.356 30.381 30.429 30.494 30.609 30.726 30.824 30.916 30.951 30.959 30.999
29.327 29.327 29.352 29.314 29.334 29.367 29.339 29.337 29.339 29.339 29.347 29.329 29.327 29.347 29.359 29.347 29.382 29.362 29.392 29.399 29.417 29.437 29.374 29.354 29.372 29.389 29.374 29.364 29.384 29.374 29.377 29.342 29.354 29.354 29.362 29.292 29.359 29.462 29.594 29.599 29.289 29.349 29.429 29.439 29.387 29.384 29.374 29.334 29.379 29.402 29.417 29.424 29.439 29.437 29.444 29.464 29.442 29.437 29.432 29.427 29.392 29.362 29.347 29.337 29.329 29.284 29.252 29.227 29.242 29.247 29.237 29.274 29.297 29.327 29.404 29.394 29.422 29.419 29.397 29.367 29.364 29.359 29.304 29.247 29.264 29.284 29.287 29.284 29.312 29.274 29.299 29.322 29.247 29.194 29.127 29.112 29.074 29.022 28.994 28.962 28.944 28.794 28.779 28.704 28.659 28.694 28.682 28.652 28.597 28.579 28.579 28.577 28.579 28.562 28.542 28.524 28.519 28.494 28.467 28.467 28.489 28.494 28.504 28.469 28.472 28.432 28.392 28.394 28.412 28.402 28.417 28.414 28.339 28.384 28.362 28.372 28.414 28.437 28.462 28.492 28.567 28.597 28.659 28.687 28.702 28.759 28.727 28.724 28.722 28.682 28.682 28.677 28.657 28.624 28.599 28.544 28.492 28.417 28.377 28.282 28.182 28.094 28.044 28.004 27.952 27.922 27.892 27.874 27.839 27.824 27.799 27.867 27.919 27.977 27.997 28.057 28.119 28.147 28.169 28.214 28.244 28.294 28.314 28.354 28.374 28.419 28.441 28.439 28.466 28.506 28.521 28.561 28.596 28.609 28.626 28.599 28.584 28.561 28.551 28.534 28.519 28.489 28.426 28.404 28.319 28.221 27.804 27.669 27.294 26.846 26.944 27.386 27.584 28.014 27.999 27.946 27.939 27.899 27.764 27.579 27.554 27.481 27.446 27.489 27.461 27.451 27.486 27.506 27.429 27.511 27.579 27.541 27.509 27.549 27.499 27.504 27.504 27.436 27.544 27.694 27.984 28.211 28.301 28.399 28.556 28.734 28.874 28.634 27.106 26.659 26.886 27.706 28.281 28.449 28.399 28.329 28.274 28.139 28.059 27.981 27.901 27.834 27.809 27.809 27.804 27.784 27.829 27.871 27.876 27.916 27.956 28.004 27.999 28.024 28.036 28.066 28.054 28.061 28.094 28.129 28.149 28.159 28.169 28.191 28.201 28.209 28.234 28.221 28.226 28.244 28.236 28.239 28.219 28.219 28.196 28.214 28.199 28.186 28.151 28.109 28.086 28.066 28.044 28.056 28.061 28.071 28.064 28.066 28.039 28.061 28.094 28.099 28.099 28.099 28.124 28.151 28.151 28.176 28.174 28.17 28.144 28.143 28.154 28.194 28.212 28.235 28.224 28.237 28.243 28.24 28.218 28.206 28.199 28.187 28.187 28.207 28.194 28.193 28.178 28.202 28.217 28.212 28.207 28.187 28.251 28.378 28.406 28.451 28.476 28.516 28.544 28.569 28.586 28.611 28.644 28.646 28.694 28.759 28.801 28.851 28.899 28.879 28.894 28.934 28.956 28.974 29.024 29.046 29.089 29.136 29.246 29.266 29.261 29.311 29.314 29.346 29.384 29.429 29.501 29.544 29.599 29.661 29.709 29.754 29.749 29.854 30.064 30.119 30.249 30.501 30.501 30.501 30.484 30.464 30.499 30.541 30.511 30.419 30.464 30.534 30.491 30.506 30.484 30.476 30.484 30.489 30.511 30.536 30.474 30.464 30.439 30.424 30.471 30.524 30.481 30.394 30.359 30.349 30.359 30.326 30.376 30.436 30.516 30.634 30.759 30.854 30.959 30.986 31.004 31.029 31.079
29.392 29.389 29.374 29.357 29.382 29.382 29.374 29.372 29.349 29.392 29.394 29.374 29.344 29.382 29.374 29.364 29.382 29.387 29.414 29.387 29.429 29.429 29.379 29.362 29.369 29.364 29.379 29.367 29.369 29.397 29.374 29.342 29.314 29.334 29.384 29.319 29.314 29.479 29.634 29.624 29.384 29.359 29.434 29.429 29.397 29.399 29.389 29.409 29.407 29.429 29.447 29.472 29.469 29.454 29.442 29.474 29.442 29.454 29.452 29.397 29.379 29.369 29.344 29.352 29.314 29.267 29.224 29.247 29.269 29.269 29.279 29.282 29.309 29.354 29.377 29.387 29.434 29.422 29.417 29.414 29.402 29.409 29.359 29.282 29.279 29.262 29.307 29.322 29.362 29.314 29.319 29.317 29.257 29.214 29.129 29.104 29.074 29.007 28.957 28.962 28.964 28.804 28.762 28.702 28.659 28.697 28.664 28.642 28.587 28.579 28.569 28.587 28.582 28.547 28.542 28.522 28.489 28.489 28.489 28.464 28.474 28.467 28.479 28.469 28.502 28.452 28.432 28.434 28.449 28.427 28.419 28.429 28.419 28.432 28.407 28.434 28.414 28.497 28.509 28.542 28.599 28.662 28.667 28.729 28.767 28.784 28.764 28.742 28.707 28.694 28.694 28.649 28.629 28.582 28.522 28.487 28.412 28.352 28.267 28.192 28.099 28.067 28.007 27.984 27.974 27.959 27.914 27.894 27.879 27.849 27.897 27.939 28.032 28.067 28.114 28.174 28.207 28.242 28.264 28.317 28.342 28.354 28.407 28.437 28.479 28.457 28.499 28.529 28.524 28.539 28.599 28.616 28.639 28.646 28.646 28.631 28.636 28.534 28.361 28.256 28.261 28.209 27.696 27.589 27.396 27.096 27.004 26.994 26.929 26.846 27.226 27.646 28.044 28.181 27.979 27.784 27.724 27.694 27.599 27.536 27.484 27.459 27.409 27.386 27.389 27.429 27.456 27.489 27.656 27.786 27.699 27.599 27.564 27.524 27.456 27.474 27.434 27.306 27.581 27.779 28.081 28.299 28.414 28.504 28.634 28.739 28.934 28.909 27.846 26.606 26.581 27.174 27.994 28.379 28.419 28.391 28.316 28.234 28.084 28.006 27.926 27.866 27.816 27.804 27.801 27.769 27.794 27.821 27.836 27.839 27.874 27.901 27.901 27.921 27.961 27.954 27.994 27.999 28.056 28.079 28.089 28.131 28.119 28.144 28.151 28.164 28.176 28.186 28.189 28.201 28.206 28.166 28.194 28.211 28.204 28.189 28.179 28.164 28.134 28.111 28.066 28.036 28.026 28.031 28.006 28.009 28.009 28.021 28.006 28.026 28.036 28.029 28.051 28.074 28.064 28.119 28.129 28.165 28.164 28.143 28.118 28.107 28.089 28.134 28.15 28.195 28.201 28.224 28.23 28.225 28.232 28.209 28.198 28.199 28.199 28.19 28.186 28.165 28.166 28.178 28.203 28.191 28.187 28.167 28.179 28.294 28.359 28.376 28.426 28.456 28.479 28.506 28.541 28.566 28.621 28.646 28.689 28.729 28.796 28.849 28.891 28.884 28.881 28.906 28.929 28.944 28.991 29.011 29.054 29.081 29.166 29.196 29.204 29.234 29.281 29.326 29.359 29.396 29.449 29.491 29.544 29.614 29.651 29.691 29.726 29.736 30.009 30.101 30.169 30.424 30.534 30.499 30.469 30.456 30.489 30.534 30.564 30.536 30.546 30.501 30.524 30.454 30.414 30.399 30.419 30.434 30.381 30.386 30.369 30.369 30.369 30.461 30.461 30.356 30.274 30.316 30.359 30.351 30.381 30.434 30.499 30.571 30.651 30.731 30.844 30.951 30.989 31.001 31.011 31.021 31.076
29.354 29.384 29.399 29.407 29.397 29.382 29.407 29.352 29.374 29.399 29.372 29.377 29.404 29.412 29.427 29.417 29.432 29.432 29.449 29.429 29.447 29.422 29.394 29.362 29.369 29.367 29.369 29.337 29.329 29.362 29.329 29.302 29.309 29.349 29.399 29.312 29.289 29.422 29.617 29.597 29.469 29.412 29.462 29.449 29.437 29.407 29.452 29.467 29.399 29.439 29.487 29.497 29.482 29.507 29.487 29.482 29.492 29.469 29.469 29.432 29.382 29.354 29.332 29.352 29.332 29.289 29.267 29.262 29.269 29.252 29.269 29.307 29.322 29.354 29.354 29.427 29.422 29.447 29.452 29.462 29.419 29.422 29.372 29.339 29.302 29.304 29.302 29.342 29.337 29.327 29.312 29.299 29.262 29.199 29.152 29.084 29.059 28.994 28.967 28.934 28.949 28.782 28.707 28.707 28.647 28.707 28.657 28.652 28.614 28.604 28.599 28.599 28.589 28.559 28.539 28.507 28.502 28.487 28.512 28.467 28.502 28.494 28.494 28.492 28.499 28.494 28.487 28.499 28.489 28.482 28.474 28.494 28.477 28.479 28.462 28.464 28.487 28.512 28.532 28.574 28.632 28.672 28.727 28.727 28.762 28.762 28.754 28.729 28.699 28.687 28.657 28.622 28.584 28.507 28.454 28.414 28.349 28.279 28.207 28.177 28.117 28.107 27.999 28.009 27.997 27.947 27.984 27.962 27.954 27.982 28.049 28.067 28.097 28.149 28.174 28.254 28.312 28.292 28.344 28.384 28.429 28.442 28.474 28.484 28.562 28.564 28.584 28.549 28.566 28.639 28.641 28.666 28.661 28.684 28.694 28.609 28.479 28.189 27.666 27.459 27.226 26.919 26.809 26.776 26.896 27.106 27.041 27.014 27.131 27.124 27.434 27.879 27.934 27.974 27.801 27.656 27.559 27.521 27.571 27.491 27.501 27.449 27.381 27.344 27.361 27.361 27.446 27.526 27.674 27.804 27.734 27.666 27.579 27.469 27.461 27.494 27.446 27.446 27.791 27.956 28.164 28.366 28.516 28.631 28.716 28.876 29.001 29.016 28.679 27.349 26.601 26.696 27.319 28.089 28.381 28.376 28.314 28.256 28.169 28.041 27.956 27.916 27.841 27.794 27.761 27.746 27.769 27.779 27.784 27.794 27.796 27.784 27.819 27.861 27.906 27.921 27.984 28.026 28.016 28.044 28.074 28.086 28.064 28.091 28.084 28.101 28.131 28.146 28.164 28.179 28.164 28.154 28.164 28.154 28.174 28.169 28.179 28.161 28.114 28.079 28.076 28.039 28.001 27.989 27.964 27.931 27.946 27.961 27.966 27.971 27.981 27.976 27.994 28.026 28.031 28.063 28.079 28.081 28.103 28.103 28.102 28.096 28.088 28.092 28.112 28.153 28.173 28.176 28.207 28.215 28.227 28.222 28.215 28.216 28.195 28.185 28.184 28.157 28.136 28.148 28.167 28.161 28.175 28.169 28.149 28.274 28.331 28.354 28.374 28.391 28.456 28.481 28.506 28.534 28.574 28.626 28.651 28.704 28.749 28.849 28.881 28.891 28.871 28.884 28.916 28.941 28.956 28.981 29.019 29.056 29.089 29.179 29.196 29.206 29.259 29.289 29.324 29.349 29.399 29.436 29.484 29.556 29.611 29.634 29.696 29.696 29.826 30.076 30.144 30.276 30.531 30.516 30.479 30.476 30.499 30.519 30.526 30.541 30.529 30.471 30.489 30.411 30.296 30.264 30.271 30.264 30.239 30.234 30.289 30.381 30.394 30.301 30.269 30.261 30.279 30.339 30.406 30.446 30.494 30.566 30.616 30.676 30.729 30.796 30.864 30.934 30.966 30.971 30.984 30.989 31.064
29.412 29.402 29.399 29.407 29.397 29.399 29.434 29.404 29.422 29.424 29.407 29.419 29.417 29.434 29.472 29.457 29.472 29.487 29.472 29.464 29.472 29.449 29.427 29.374 29.389 29.379 29.369 29.329 29.312 29.334 29.382 29.349 29.334 29.364 29.377 29.382 29.297 29.422 29.567 29.642 29.594 29.427 29.457 29.472 29.462 29.444 29.437 29.444 29.454 29.474 29.487 29.512 29.459 29.484 29.484 29.474 29.477 29.454 29.454 29.439 29.419 29.364 29.347 29.319 29.317 29.304 29.309 29.274 29.279 29.277 29.274 29.302 29.327 29.379 29.402 29.449 29.474 29.484 29.477 29.482 29.459 29.477 29.437 29.367 29.344 29.337 29.307 29.309 29.329 29.297 29.294 29.287 29.274 29.212 29.152 29.067 29.039 29.009 28.949 28.919 28.942 28.839 28.742 28.707 28.642 28.657 28.659 28.619 28.614 28.617 28.602 28.582 28.552 28.569 28.517 28.499 28.532 28.519 28.532 28.529 28.552 28.569 28.534 28.537 28.527 28.549 28.562 28.529 28.522 28.557 28.562 28.537 28.559 28.532 28.527 28.489 28.532 28.557 28.569 28.597 28.622 28.679 28.749 28.749 28.777 28.779 28.747 28.732 28.694 28.662 28.604 28.592 28.539 28.447 28.372 28.322 28.259 28.237 28.169 28.129 28.042 28.039 28.017 28.037 28.019 28.019 28.054 28.064 28.064 28.074 28.137 28.154 28.199 28.239 28.289 28.342 28.409 28.409 28.432 28.452 28.474 28.489 28.489 28.522 28.569 28.604 28.609 28.614 28.644 28.669 28.651 28.671 28.671 28.664 28.516 28.294 27.324 27.004 26.836 26.851 26.901 27.011 27.129 27.174 27.346 27.404 27.176 27.176 27.274 27.376 27.546 27.711 27.704 27.606 27.539 27.539 27.506 27.554 27.549 27.564 27.524 27.419 27.399 27.381 27.404 27.341 27.424 27.539 27.659 27.766 27.684 27.684 27.606 27.536 27.534 27.494 27.559 27.719 28.004 28.221 28.374 28.521 28.669 28.844 28.941 29.011 29.039 29.061 28.921 28.514 26.899 26.619 26.849 27.954 28.346 28.379 28.334 28.326 28.259 28.134 28.041 27.956 27.866 27.791 27.771 27.764 27.759 27.769 27.749 27.729 27.724 27.726 27.766 27.796 27.824 27.851 27.896 27.946 27.984 28.029 28.021 28.039 28.046 28.044 28.061 28.064 28.104 28.104 28.111 28.116 28.109 28.134 28.121 28.121 28.169 28.154 28.124 28.139 28.099 28.084 28.059 28.016 27.989 27.966 27.949 27.914 27.911 27.896 27.934 27.919 27.934 27.936 27.919 27.931 27.98 28.01 28.024 28.042 28.052 28.07 28.092 28.061 28.085 28.092 28.087 28.114 28.133 28.159 28.179 28.198 28.206 28.207 28.216 28.204 28.188 28.183 28.166 28.129 28.103 28.084 28.113 28.119 28.141 28.134 28.146 28.179 28.274 28.319 28.339 28.346 28.404 28.451 28.459 28.494 28.541 28.584 28.631 28.656 28.679 28.776 28.866 28.869 28.856 28.874 28.911 28.919 28.926 28.969 28.991 29.021 29.034 29.131 29.174 29.171 29.199 29.251 29.296 29.329 29.356 29.411 29.434 29.501 29.571 29.591 29.669 29.669 29.691 29.981 30.081 30.144 30.349 30.491 30.491 30.409 30.404 30.449 30.486 30.514 30.511 30.466 30.401 30.296 30.211 30.201 30.209 30.189 30.239 30.289 30.246 30.136 30.086 30.144 30.276 30.334 30.356 30.401 30.496 30.551 30.599 30.641 30.674 30.714 30.771 30.819 30.861 30.904 30.924 30.946 30.939 30.989 31.026
29.422 29.437 29.447 29.427 29.427 29.419 29.444 29.422 29.457 29.454 29.464 29.469 29.499 29.499 29.492 29.519 29.522 29.494 29.497 29.489 29.454 29.437 29.399 29.387 29.404 29.407 29.399 29.349 29.297 29.342 29.354 29.382 29.352 29.344 29.402 29.409 29.347 29.377 29.527 29.677 29.659 29.404 29.392 29.469 29.494 29.459 29.457 29.449 29.447 29.439 29.464 29.484 29.484 29.499 29.474 29.492 29.464 29.457 29.457 29.437 29.417 29.402 29.382 29.357 29.327 29.302 29.267 29.269 29.302 29.312 29.312 29.319 29.377 29.374 29.427 29.439 29.494 29.492 29.482 29.479 29.474 29.457 29.459 29.379 29.359 29.334 29.304 29.299 29.289 29.304 29.274 29.249 29.227 29.194 29.144 29.087 29.057 29.002 28.944 28.922 28.897 28.809 28.764 28.709 28.647 28.639 28.667 28.634 28.599 28.587 28.554 28.549 28.559 28.552 28.517 28.509 28.537 28.542 28.547 28.539 28.562 28.604 28.592 28.612 28.609 28.627 28.614 28.599 28.582 28.589 28.642 28.647 28.624 28.604 28.607 28.609 28.612 28.554 28.629 28.634 28.654 28.714 28.754 28.762 28.777 28.769 28.754 28.744 28.687 28.639 28.569 28.552 28.449 28.377 28.349 28.289 28.209 28.179 28.157 28.122 28.064 28.059 28.099 28.087 28.047 28.079 28.109 28.152 28.187 28.204 28.239 28.257 28.282 28.332 28.362 28.407 28.447 28.477 28.499 28.517 28.467 28.519 28.514 28.564 28.619 28.649 28.639 28.651 28.664 28.696 28.691 28.666 28.544 28.046 27.506 27.004 26.786 26.909 27.006 27.119 27.226 27.319 27.514 27.611 27.741 27.574 27.341 27.294 27.404 27.509 27.606 27.579 27.549 27.449 27.484 27.476 27.444 27.476 27.524 27.566 27.541 27.456 27.451 27.491 27.494 27.431 27.419 27.544 27.614 27.714 27.674 27.696 27.666 27.679 27.666 27.649 27.704 27.884 28.146 28.314 28.451 28.644 28.846 28.936 29.086 29.009 29.036 29.044 28.946 28.801 27.901 26.591 26.561 27.241 28.144 28.389 28.374 28.469 28.319 28.181 28.064 27.961 27.909 27.821 27.786 27.761 27.756 27.749 27.701 27.686 27.681 27.664 27.694 27.711 27.714 27.769 27.856 27.866 27.919 27.966 27.991 27.989 28.029 28.031 28.046 28.051 28.079 28.074 28.074 28.084 28.084 28.096 28.101 28.096 28.129 28.134 28.129 28.136 28.116 28.096 28.036 27.996 27.976 27.946 27.936 27.899 27.874 27.876 27.866 27.894 27.899 27.889 27.882 27.923 27.931 27.964 27.982 27.982 28.005 28.055 28.067 28.067 28.074 28.073 28.049 28.072 28.076 28.109 28.121 28.151 28.188 28.191 28.198 28.191 28.182 28.163 28.139 28.108 28.066 28.054 28.076 28.094 28.104 28.094 28.109 28.139 28.244 28.296 28.304 28.326 28.346 28.414 28.421 28.444 28.471 28.511 28.544 28.584 28.621 28.721 28.811 28.861 28.854 28.879 28.869 28.899 28.914 28.931 28.979 28.991 29.006 29.074 29.139 29.151 29.164 29.196 29.266 29.314 29.334 29.379 29.424 29.466 29.506 29.556 29.599 29.636 29.674 29.799 30.064 30.104 30.149 30.284 30.331 30.306 30.244 30.271 30.466 30.419 30.386 30.284 30.204 30.174 30.191 30.159 30.181 30.249 30.251 30.091 29.919 29.981 30.156 30.249 30.336 30.364 30.406 30.464 30.536 30.601 30.649 30.671 30.704 30.706 30.756 30.806 30.851 30.879 30.906 30.914 30.901 30.911 30.959
29.462 29.452 29.482 29.482 29.449 29.469 29.509 29.464 29.484 29.477 29.489 29.499 29.524 29.504 29.499 29.519 29.524 29.524 29.502 29.487 29.454 29.432 29.429 29.402 29.379 29.367 29.404 29.372 29.309 29.337 29.349 29.357 29.389 29.407 29.434 29.427 29.362 29.357 29.434 29.627 29.639 29.472 29.284 29.444 29.449 29.464 29.427 29.442 29.452 29.447 29.482 29.489 29.487 29.479 29.447 29.459 29.464 29.487 29.464 29.417 29.404 29.377 29.344 29.314 29.312 29.307 29.304 29.317 29.302 29.314 29.334 29.352 29.399 29.402 29.439 29.432 29.472 29.512 29.507 29.514 29.494 29.459 29.457 29.412 29.352 29.317 29.304 29.294 29.282 29.324 29.264 29.232 29.209 29.192 29.132 29.094 29.024 28.964 28.924 28.882 28.872 28.774 28.739 28.689 28.679 28.632 28.632 28.664 28.597 28.597 28.589 28.564 28.577 28.564 28.587 28.564 28.572 28.562 28.572 28.627 28.622 28.634 28.664 28.702 28.714 28.712 28.689 28.672 28.674 28.707 28.702 28.687 28.664 28.674 28.657 28.649 28.612 28.602 28.612 28.667 28.654 28.727 28.752 28.749 28.764 28.764 28.752 28.697 28.642 28.612 28.532 28.442 28.352 28.334 28.307 28.262 28.204 28.172 28.147 28.129 28.122 28.134 28.119 28.124 28.174 28.212 28.229 28.239 28.287 28.294 28.329 28.334 28.357 28.397 28.407 28.452 28.464 28.492 28.509 28.504 28.492 28.517 28.529 28.604 28.617 28.632 28.619 28.646 28.659 28.651 28.614 28.469 27.906 27.241 26.759 26.924 27.149 27.216 27.349 27.386 27.516 27.634 27.834 27.974 27.886 27.706 27.509 27.394 27.489 27.521 27.491 27.396 27.414 27.364 27.419 27.486 27.454 27.466 27.514 27.546 27.514 27.514 27.609 27.664 27.664 27.524 27.369 27.481 27.599 27.654 27.661 27.656 27.679 27.669 27.641 27.714 27.869 27.981 28.116 28.236 28.399 28.671 28.809 28.859 28.981 29.056 29.069 28.999 28.971 28.976 28.669 27.156 26.546 26.611 27.859 28.366 28.371 28.406 28.361 28.254 28.146 28.031 27.941 27.859 27.834 27.789 27.756 27.726 27.661 27.656 27.646 27.631 27.629 27.649 27.651 27.681 27.749 27.781 27.836 27.891 27.934 27.961 27.989 28.006 28.011 28.054 28.059 28.059 28.071 28.054 28.074 28.084 28.081 28.109 28.104 28.099 28.099 28.094 28.076 28.084 28.059 27.991 27.959 27.926 27.916 27.879 27.879 27.851 27.839 27.856 27.871 27.875 27.892 27.894 27.904 27.946 27.944 27.978 27.987 28.022 28.047 28.061 28.061 28.055 28.032 28.044 28.051 28.06 28.056 28.091 28.119 28.153 28.159 28.159 28.164 28.153 28.122 28.085 28.054 28.031 28.054 28.056 28.089 28.091 28.119 28.129 28.154 28.251 28.269 28.299 28.321 28.341 28.361 28.359 28.414 28.451 28.501 28.529 28.571 28.654 28.784 28.831 28.836 28.834 28.836 28.859 28.904 28.904 28.954 28.964 28.969 28.994 29.081 29.114 29.131 29.164 29.231 29.279 29.309 29.341 29.394 29.434 29.481 29.529 29.589 29.596 29.641 29.706 29.961 30.061 30.066 30.126 30.109 30.131 30.164 30.166 30.151 30.174 30.104 30.119 30.126 30.109 30.119 30.114 30.156 30.069 29.929 29.831 29.966 30.136 30.236 30.276 30.301 30.361 30.421 30.486 30.531 30.611 30.691 30.719 30.709 30.724 30.761 30.829 30.841 30.849 30.894 30.874 30.881 30.901 30.904
29.519 29.522 29.477 29.497 29.497 29.519 29.537 29.549 29.527 29.507 29.522 29.507 29.527 29.527 29.522 29.517 29.517 29.527 29.517 29.489 29.484 29.442 29.449 29.457 29.412 29.392 29.417 29.397 29.364 29.357 29.364 29.352 29.399 29.427 29.422 29.437 29.444 29.329 29.332 29.542 29.624 29.487 29.252 29.404 29.442 29.452 29.432 29.442 29.409 29.424 29.434 29.457 29.449 29.467 29.459 29.462 29.439 29.439 29.459 29.424 29.407 29.382 29.344 29.337 29.309 29.299 29.324 29.334 29.329 29.344 29.347 29.369 29.419 29.449 29.482 29.477 29.494 29.507 29.512 29.512 29.492 29.469 29.419 29.372 29.359 29.322 29.287 29.249 29.234 29.247 29.244 29.214 29.202 29.169 29.097 29.027 28.969 28.924 28.889 28.859 28.852 28.772 28.744 28.674 28.644 28.654 28.632 28.652 28.622 28.634 28.632 28.609 28.614 28.594 28.664 28.624 28.634 28.657 28.657 28.669 28.687 28.714 28.784 28.754 28.807 28.789 28.767 28.764 28.779 28.767 28.774 28.787 28.749 28.769 28.732 28.692 28.677 28.652 28.634 28.644 28.662 28.697 28.722 28.752 28.729 28.744 28.717 28.662 28.602 28.564 28.472 28.369 28.307 28.304 28.267 28.184 28.184 28.167 28.132 28.154 28.149 28.189 28.192 28.209 28.239 28.312 28.327 28.367 28.327 28.339 28.357 28.377 28.424 28.412 28.442 28.477 28.487 28.499 28.522 28.487 28.509 28.504 28.527 28.547 28.584 28.587 28.601 28.601 28.631 28.504 28.219 27.624 26.949 26.816 26.964 27.156 27.449 27.606 27.669 27.696 27.779 27.881 27.874 27.844 27.729 27.641 27.526 27.426 27.441 27.459 27.419 27.326 27.316 27.329 27.424 27.491 27.499 27.466 27.459 27.506 27.519 27.556 27.729 27.861 27.806 27.679 27.386 27.391 27.541 27.639 27.599 27.601 27.676 27.586 27.581 27.659 27.736 27.879 27.979 28.091 28.249 28.374 28.469 28.611 28.706 28.846 28.986 29.001 29.021 29.104 29.139 28.529 26.756 26.416 27.231 28.321 28.416 28.441 28.411 28.324 28.194 28.076 27.991 27.921 27.844 27.816 27.799 27.711 27.694 27.644 27.606 27.599 27.586 27.581 27.591 27.606 27.631 27.674 27.759 27.801 27.876 27.911 27.941 27.989 27.986 28.024 28.066 28.076 28.081 28.059 28.054 28.056 28.051 28.041 28.061 28.071 28.054 28.049 28.064 28.046 28.016 27.986 27.951 27.961 27.921 27.896 27.864 27.856 27.844 27.84 27.84 27.849 27.884 27.911 27.92 27.909 27.958 27.97 27.994 28.011 28.041 28.046 28.044 28.032 28.026 28.023 28.025 28.041 28.046 28.054 28.062 28.089 28.114 28.135 28.127 28.119 28.091 28.074 28.044 28.029 28.029 28.041 28.074 28.094 28.099 28.099 28.111 28.221 28.224 28.254 28.271 28.276 28.296 28.321 28.364 28.401 28.454 28.479 28.524 28.584 28.711 28.781 28.784 28.779 28.801 28.841 28.874 28.909 28.901 28.926 28.954 28.961 29.014 29.076 29.086 29.119 29.206 29.266 29.314 29.319 29.379 29.411 29.464 29.516 29.559 29.584 29.631 29.681 29.844 30.039 30.041 30.069 30.084 30.051 30.084 30.104 30.089 30.074 30.059 30.056 30.086 30.114 30.141 29.986 29.884 29.864 29.901 30.004 30.099 30.171 30.211 30.239 30.319 30.394 30.469 30.529 30.571 30.614 30.701 30.741 30.724 30.736 30.759 30.809 30.811 30.811 30.844 30.864 30.869 30.866 30.861
29.559 29.577 29.547 29.547 29.532 29.554 29.557 29.569 29.564 29.544 29.549 29.554 29.537 29.537 29.527 29.534 29.554 29.554 29.537 29.504 29.487 29.472 29.484 29.474 29.422 29.407 29.412 29.429 29.394 29.382 29.399 29.392 29.392 29.434 29.417 29.424 29.457 29.372 29.344 29.482 29.632 29.582 29.304 29.399 29.422 29.459 29.434 29.434 29.427 29.399 29.407 29.462 29.434 29.439 29.447 29.477 29.454 29.417 29.449 29.404 29.394 29.369 29.357 29.364 29.367 29.349 29.332 29.334 29.352 29.367 29.399 29.409 29.447 29.487 29.499 29.504 29.524 29.519 29.529 29.522 29.487 29.459 29.399 29.364 29.334 29.294 29.249 29.234 29.222 29.232 29.219 29.194 29.164 29.119 29.097 28.989 28.957 28.902 28.869 28.849 28.847 28.782 28.732 28.697 28.647 28.634 28.654 28.664 28.644 28.639 28.657 28.674 28.657 28.687 28.692 28.682 28.667 28.682 28.734 28.759 28.747 28.787 28.812 28.794 28.842 28.854 28.834 28.867 28.852 28.857 28.834 28.852 28.794 28.797 28.794 28.759 28.724 28.699 28.674 28.637 28.692 28.689 28.712 28.722 28.709 28.677 28.657 28.609 28.584 28.472 28.447 28.347 28.312 28.274 28.239 28.177 28.174 28.174 28.182 28.219 28.234 28.222 28.269 28.314 28.374 28.414 28.414 28.442 28.422 28.447 28.464 28.464 28.477 28.517 28.512 28.499 28.479 28.482 28.504 28.504 28.502 28.467 28.477 28.487 28.504 28.562 28.544 28.504 28.284 27.931 27.181 26.901 26.924 27.064 27.261 27.386 27.644 27.954 28.011 27.956 27.904 27.836 27.709 27.626 27.549 27.629 27.531 27.436 27.436 27.499 27.456 27.321 27.241 27.279 27.379 27.541 27.511 27.479 27.421 27.409 27.411 27.439 27.611 27.699 27.644 27.594 27.426 27.334 27.414 27.434 27.439 27.511 27.426 27.404 27.444 27.519 27.636 27.744 27.846 28.001 28.156 28.279 28.419 28.536 28.659 28.731 28.814 28.901 28.979 29.031 29.121 28.981 27.396 26.819 26.796 27.561 28.316 28.449 28.471 28.376 28.289 28.166 28.101 28.016 27.936 27.836 27.811 27.764 27.739 27.679 27.619 27.619 27.574 27.554 27.541 27.581 27.594 27.629 27.666 27.731 27.809 27.846 27.906 27.921 27.946 27.981 28.054 28.044 28.066 28.069 28.064 28.044 28.024 28.016 28.021 28.001 27.971 27.986 27.999 27.981 27.976 27.941 27.924 27.924 27.916 27.899 27.846 27.849 27.835 27.814 27.816 27.829 27.857 27.891 27.89 27.899 27.931 27.959 27.975 28.006 28.023 28.04 28.023 28.008 28.028 28.009 27.997 28.01 28.02 28.036 28.033 28.063 28.078 28.09 28.103 28.094 28.084 28.044 28.026 28.011 28.016 28.024 28.051 28.096 28.094 28.111 28.101 28.131 28.229 28.239 28.271 28.244 28.274 28.291 28.331 28.351 28.409 28.436 28.486 28.551 28.636 28.734 28.761 28.754 28.779 28.816 28.839 28.874 28.879 28.901 28.924 28.931 28.941 29.044 29.084 29.131 29.189 29.244 29.291 29.319 29.341 29.384 29.411 29.491 29.526 29.564 29.619 29.679 29.774 29.959 30.021 30.021 30.019 30.024 30.034 30.031 30.016 30.014 30.031 30.051 30.106 30.024 29.864 29.761 29.844 29.969 30.039 30.091 30.104 30.149 30.211 30.289 30.366 30.454 30.471 30.524 30.576 30.609 30.649 30.714 30.709 30.704 30.734 30.761 30.799 30.809 30.806 30.834 30.836 30.821 30.861
