ncols 426
nrows 32
xllcorner    428048
yllcorner    487450
cellsize     2
NODATA_value -9999
31.909 31.854 31.847 31.777 31.754 31.704 31.662 31.617 31.597 31.519 31.504 31.452 31.409 31.382 31.352 31.307 31.249 31.214 31.187 31.132 31.069 31.044 31.039 30.989 30.922 30.919 30.877 30.852 30.857 30.819 30.789 30.729 30.709 30.642 30.559 30.479 30.389 30.337 30.249 30.147 30.057 29.989 29.882 29.804 29.734 29.669 29.632 29.592 29.577 29.572 29.577 29.532 29.549 29.547 29.547 29.564 29.557 29.552 29.572 29.569 29.594 29.594 29.582 29.574 29.602 29.632 29.699 29.769 29.857 29.919 29.929 29.932 29.912 29.912 29.919 29.952 29.954 29.954 29.944 29.942 29.942 29.939 29.942 29.919 29.887 29.889 29.877 29.857 29.847 29.824 29.824 29.817 29.804 29.812 29.822 29.834 29.804 29.787 29.754 29.919 29.942 29.844 29.884 29.817 29.669 29.589 29.557 29.532 29.514 29.474 29.414 29.397 29.397 29.324 29.339 29.337 29.372 29.364 29.357 29.392 29.392 29.399 29.437 29.434 29.452 29.469 29.459 29.487 29.477 29.497 29.517 29.524 29.522 29.532 29.539 29.527 29.542 29.569 29.584 29.639 29.662 29.714 29.747 29.762 29.812 29.882 29.927 29.954 30.034 30.059 30.132 30.154 30.169 30.219 30.249 30.287 30.317 30.344 30.377 30.422 30.414 30.447 30.504 30.542 30.574 30.592 30.639 30.669 30.742 30.779 30.787 30.802 30.812 30.774 30.737 30.699 30.676 30.666 30.631 30.584 30.569 30.531 30.539 30.534 30.504 30.469 30.461 30.399 30.379 30.394 30.321 30.279 30.231 30.181 30.134 30.076 30.031 29.979 29.954 29.889 29.866 29.791 29.796 29.801 29.769 29.761 29.794 29.771 29.796 29.836 29.856 29.826 29.794 29.791 29.791 29.756 29.641 29.606 29.494 29.441 29.361 29.339 29.219 29.116 29.051 28.994 28.906 28.851 28.791 28.709 28.656 28.634 28.574 28.511 28.479 28.416 28.346 28.309 28.176 28.144 28.106 28.069 28.119 28.179 28.236 28.314 28.399 28.499 28.459 28.556 28.759 28.652 28.278 27.596 26.891 26.537 26.664 27.461 28.116 28.319 28.351 28.389 28.441 28.419 28.359 28.376 28.379 28.394 28.446 28.506 28.571 28.606 28.679 28.756 28.816 28.899 28.976 29.031 29.079 29.134 29.181 29.184 29.199 29.236 29.261 29.289 29.306 29.289 29.316 29.321 29.384 29.446 29.546 29.859 30.231 30.401 30.509 30.599 30.676 30.699 30.719 30.821 30.976 31.006 31.014 30.989 31.044 31.111 31.171 31.196 31.261 31.269 31.321 31.346 31.341 31.369 31.421 31.431 31.449 31.476 31.499 31.499 31.506 31.531 31.516 31.521 31.511 31.506 31.494 31.491 31.479 31.501 31.494 31.441 31.421 31.411 31.424 31.451 31.439 31.451 31.441 31.421 31.394 31.391 31.346 31.366 31.371 31.386 31.391 31.416 31.449 31.489 31.504 31.516 31.571 31.616 31.639 31.716 31.769 31.846 31.886 31.936 31.981 32.039 32.039 32.036 32.091 32.116 32.116 32.121 32.149 32.139 32.151 32.114 32.094 32.081 32.081 32.036 32.034 31.986 31.944 31.911 31.879 31.839 31.796 31.769 31.759 31.761 31.766 31.776 31.789 31.799 31.791 31.794 31.814 31.824 31.856 31.876 31.914 31.916 31.924 31.956 31.976 32.021 32.074 32.126 32.131 32.099 32.121 32.121 32.186 32.219 32.279 32.349 32.431 32.484 32.561 32.619 32.699 32.714 32.769 32.866 32.921 33.021 33.056 33.101
31.862 31.822 31.794 31.769 31.754 31.687 31.637 31.579 31.554 31.467 31.449 31.447 31.387 31.359 31.274 31.274 31.232 31.174 31.142 31.109 31.077 31.039 31.019 30.984 30.919 30.949 30.909 30.859 30.854 30.834 30.812 30.797 30.769 30.672 30.622 30.544 30.477 30.384 30.289 30.202 30.119 30.054 29.957 29.877 29.769 29.707 29.637 29.629 29.609 29.567 29.562 29.532 29.512 29.544 29.497 29.494 29.504 29.522 29.549 29.577 29.564 29.567 29.549 29.577 29.587 29.642 29.689 29.724 29.824 29.892 29.927 29.942 29.964 29.894 29.947 29.967 29.972 29.932 29.954 29.942 29.934 29.927 29.892 29.887 29.884 29.859 29.864 29.852 29.852 29.857 29.819 29.812 29.802 29.807 29.787 29.762 29.739 29.704 29.642 29.784 29.832 29.854 29.864 29.769 29.637 29.467 29.447 29.452 29.492 29.462 29.412 29.369 29.379 29.362 29.347 29.337 29.339 29.374 29.377 29.382 29.397 29.402 29.414 29.409 29.434 29.442 29.469 29.524 29.529 29.544 29.547 29.534 29.529 29.574 29.557 29.579 29.567 29.599 29.589 29.609 29.642 29.717 29.699 29.759 29.812 29.869 29.902 29.922 29.984 30.032 30.082 30.129 30.179 30.187 30.232 30.272 30.302 30.339 30.359 30.394 30.397 30.419 30.454 30.499 30.542 30.627 30.634 30.667 30.734 30.747 30.777 30.779 30.787 30.762 30.734 30.679 30.649 30.644 30.609 30.569 30.559 30.539 30.546 30.514 30.511 30.454 30.464 30.416 30.381 30.349 30.296 30.259 30.211 30.169 30.086 30.076 30.016 29.956 29.934 29.889 29.846 29.789 29.774 29.786 29.754 29.754 29.771 29.769 29.789 29.816 29.829 29.791 29.771 29.761 29.746 29.684 29.604 29.559 29.474 29.386 29.306 29.241 29.164 29.074 28.971 28.906 28.859 28.774 28.731 28.696 28.624 28.576 28.541 28.491 28.459 28.416 28.374 28.304 28.226 28.151 28.091 28.096 28.174 28.196 28.241 28.309 28.406 28.471 28.626 29.179 29.409 29.559 28.66 28.075 27.329 26.768 26.376 26.626 27.306 28.101 28.371 28.434 28.541 28.464 28.431 28.419 28.429 28.419 28.446 28.514 28.574 28.626 28.671 28.759 28.836 28.946 28.996 29.066 29.114 29.171 29.211 29.249 29.224 29.264 29.281 29.311 29.311 29.319 29.336 29.314 29.321 29.371 29.489 29.571 29.849 30.264 30.401 30.541 30.621 30.704 30.751 30.796 30.894 30.999 31.016 30.981 31.029 31.079 31.154 31.171 31.236 31.241 31.259 31.326 31.356 31.379 31.386 31.386 31.419 31.449 31.449 31.456 31.474 31.439 31.434 31.446 31.444 31.446 31.464 31.466 31.466 31.449 31.416 31.381 31.376 31.399 31.394 31.414 31.406 31.409 31.409 31.389 31.369 31.354 31.336 31.356 31.344 31.356 31.361 31.381 31.429 31.469 31.519 31.544 31.594 31.589 31.664 31.724 31.746 31.824 31.896 31.954 31.966 32.014 32.019 32.064 32.074 32.091 32.131 32.119 32.129 32.091 32.099 32.101 32.081 32.054 32.039 31.989 31.951 31.921 31.894 31.851 31.804 31.774 31.759 31.729 31.744 31.744 31.754 31.756 31.766 31.751 31.769 31.796 31.811 31.806 31.851 31.871 31.876 31.896 31.921 31.956 31.986 32.029 32.086 32.151 32.179 32.136 32.131 32.139 32.179 32.241 32.299 32.334 32.451 32.504 32.561 32.616 32.689 32.764 32.769 32.879 32.951 33.016 33.029 33.069
31.812 31.782 31.754 31.714 31.709 31.654 31.604 31.527 31.534 31.459 31.424 31.432 31.352 31.294 31.287 31.254 31.239 31.217 31.154 31.157 31.097 31.077 31.032 31.019 30.969 30.972 30.924 30.897 30.874 30.854 30.834 30.827 30.772 30.664 30.632 30.579 30.524 30.412 30.312 30.207 30.144 30.044 29.967 29.897 29.794 29.749 29.702 29.662 29.637 29.597 29.564 29.542 29.514 29.524 29.512 29.504 29.542 29.577 29.552 29.557 29.589 29.559 29.574 29.602 29.647 29.662 29.727 29.794 29.862 29.912 29.942 29.939 29.894 29.904 30.039 30.092 29.984 29.959 29.967 29.954 30.077 30.044 29.907 29.869 29.857 29.854 29.909 29.882 29.897 29.877 29.842 29.839 29.794 29.802 29.757 29.714 29.727 29.717 29.629 29.674 29.787 29.839 29.829 29.767 29.624 29.439 29.404 29.404 29.437 29.427 29.389 29.357 29.362 29.377 29.357 29.359 29.347 29.367 29.369 29.352 29.387 29.384 29.394 29.427 29.429 29.427 29.449 29.512 29.514 29.529 29.539 29.509 29.562 29.594 29.572 29.577 29.579 29.619 29.644 29.662 29.682 29.712 29.757 29.814 29.842 29.879 29.924 29.964 29.994 30.034 30.089 30.124 30.159 30.162 30.217 30.234 30.244 30.322 30.322 30.314 30.362 30.417 30.449 30.502 30.522 30.537 30.582 30.649 30.689 30.727 30.782 30.787 30.737 30.729 30.717 30.694 30.644 30.606 30.576 30.601 30.569 30.554 30.541 30.504 30.501 30.486 30.444 30.436 30.394 30.356 30.284 30.226 30.186 30.169 30.104 30.049 29.976 29.921 29.901 29.851 29.816 29.776 29.794 29.791 29.729 29.759 29.766 29.764 29.774 29.794 29.769 29.769 29.739 29.741 29.689 29.614 29.546 29.516 29.414 29.346 29.224 29.151 29.106 29.001 28.924 28.861 28.799 28.759 28.706 28.654 28.614 28.546 28.514 28.459 28.426 28.414 28.386 28.321 28.266 28.209 28.199 28.216 28.216 28.234 28.254 28.364 28.436 28.641 29.121 29.551 29.941 30.029 29.851 28.242 27.857 27.033 26.389 26.501 26.924 27.606 28.276 28.454 28.549 28.531 28.466 28.414 28.426 28.444 28.454 28.529 28.566 28.644 28.681 28.769 28.849 28.919 28.976 29.034 29.089 29.164 29.239 29.259 29.296 29.321 29.339 29.329 29.361 29.389 29.361 29.356 29.399 29.354 29.389 29.481 29.536 29.879 30.364 30.444 30.554 30.661 30.726 30.781 30.834 30.996 31.019 30.984 31.029 31.056 31.131 31.171 31.204 31.249 31.281 31.329 31.346 31.359 31.364 31.379 31.414 31.429 31.424 31.396 31.394 31.401 31.419 31.419 31.406 31.391 31.386 31.421 31.404 31.381 31.379 31.351 31.356 31.374 31.359 31.366 31.364 31.356 31.354 31.321 31.291 31.294 31.301 31.334 31.349 31.344 31.374 31.371 31.384 31.439 31.499 31.539 31.569 31.639 31.684 31.704 31.759 31.839 31.879 31.889 31.954 31.994 32.011 32.051 32.081 32.094 32.099 32.104 32.089 32.069 32.081 32.046 32.009 31.991 31.976 31.899 31.881 31.869 31.854 31.804 31.751 31.719 31.719 31.694 31.711 31.724 31.736 31.724 31.729 31.734 31.746 31.779 31.806 31.829 31.864 31.839 31.869 31.891 31.959 31.971 31.989 32.031 32.099 32.141 32.166 32.174 32.164 32.166 32.191 32.251 32.294 32.331 32.421 32.464 32.571 32.616 32.681 32.779 32.829 32.876 32.919 33.011 33.029 33.081
31.767 31.734 31.704 31.687 31.644 31.607 31.587 31.562 31.522 31.494 31.462 31.454 31.384 31.369 31.327 31.292 31.277 31.217 31.187 31.159 31.119 31.094 31.044 31.022 30.967 30.932 30.942 30.907 30.874 30.839 30.804 30.767 30.717 30.669 30.582 30.539 30.502 30.412 30.332 30.257 30.174 30.109 30.014 29.932 29.847 29.804 29.767 29.717 29.692 29.679 29.634 29.624 29.597 29.582 29.557 29.572 29.599 29.607 29.559 29.599 29.614 29.702 29.757 29.822 29.872 29.884 29.889 29.917 29.987 29.992 29.879 29.829 29.847 29.919 30.077 30.012 29.914 29.954 29.942 29.954 30.032 30.089 29.924 29.847 29.839 29.842 29.947 30.079 30.047 29.997 29.992 29.939 29.922 29.977 29.914 29.854 29.784 29.729 29.704 29.709 29.792 29.847 29.822 29.789 29.724 29.519 29.472 29.409 29.419 29.422 29.377 29.372 29.382 29.384 29.354 29.357 29.382 29.382 29.382 29.384 29.409 29.392 29.392 29.424 29.429 29.462 29.464 29.494 29.512 29.544 29.554 29.537 29.554 29.554 29.569 29.587 29.599 29.607 29.619 29.689 29.714 29.704 29.739 29.827 29.834 29.902 29.942 29.967 30.004 30.037 30.062 30.112 30.149 30.164 30.209 30.247 30.224 30.264 30.332 30.307 30.349 30.387 30.394 30.472 30.497 30.504 30.562 30.649 30.657 30.722 30.749 30.752 30.709 30.702 30.722 30.674 30.616 30.601 30.554 30.574 30.589 30.564 30.539 30.514 30.484 30.464 30.411 30.381 30.351 30.349 30.266 30.224 30.216 30.139 30.106 30.039 30.014 29.956 29.896 29.891 29.836 29.774 29.786 29.754 29.739 29.744 29.726 29.766 29.769 29.776 29.796 29.766 29.724 29.659 29.611 29.549 29.491 29.426 29.359 29.274 29.159 29.096 29.031 28.974 28.851 28.784 28.731 28.714 28.664 28.604 28.596 28.551 28.524 28.499 28.441 28.376 28.346 28.316 28.294 28.259 28.259 28.281 28.299 28.311 28.344 28.459 28.634 29.166 29.601 29.799 29.964 29.974 29.861 28.725 28.097 27.671 26.974 26.389 26.756 27.241 27.896 28.506 28.616 28.501 28.489 28.479 28.444 28.476 28.506 28.551 28.596 28.634 28.689 28.801 28.891 28.946 28.979 29.064 29.114 29.174 29.221 29.226 29.294 29.334 29.369 29.384 29.414 29.434 29.406 29.426 29.421 29.399 29.401 29.391 29.431 29.536 29.986 30.306 30.539 30.626 30.681 30.761 30.849 30.976 31.064 31.004 31.016 31.046 31.094 31.156 31.209 31.249 31.264 31.291 31.319 31.331 31.339 31.359 31.356 31.349 31.361 31.366 31.374 31.381 31.364 31.374 31.366 31.364 31.376 31.354 31.366 31.361 31.339 31.319 31.329 31.309 31.304 31.319 31.299 31.289 31.271 31.261 31.279 31.261 31.279 31.336 31.321 31.351 31.346 31.364 31.386 31.456 31.506 31.569 31.604 31.651 31.659 31.711 31.741 31.806 31.874 31.901 31.944 32.024 32.046 32.066 32.059 32.061 32.086 32.089 32.076 32.049 32.016 32.004 31.966 31.936 31.909 31.856 31.841 31.831 31.786 31.769 31.741 31.701 31.696 31.676 31.671 31.716 31.724 31.714 31.739 31.754 31.741 31.769 31.811 31.831 31.826 31.851 31.884 31.906 31.964 31.971 31.984 32.026 32.081 32.121 32.169 32.221 32.216 32.201 32.219 32.254 32.326 32.364 32.439 32.496 32.579 32.649 32.694 32.801 32.856 32.901 32.934 33.004 33.059 33.141
31.789 31.772 31.729 31.712 31.689 31.669 31.644 31.614 31.562 31.539 31.489 31.482 31.417 31.389 31.364 31.322 31.249 31.207 31.159 31.132 31.122 31.097 31.052 30.997 30.992 30.944 30.907 30.889 30.857 30.824 30.809 30.794 30.747 30.722 30.674 30.624 30.587 30.514 30.407 30.349 30.287 30.174 30.077 30.004 29.947 29.872 29.849 29.809 29.754 29.719 29.669 29.624 29.549 29.567 29.597 29.679 29.789 29.804 29.862 29.877 29.902 30.064 30.069 29.999 30.004 30.004 29.997 29.992 29.999 29.974 29.847 29.844 29.847 29.917 29.939 29.884 29.857 29.882 29.847 29.864 29.877 29.857 29.879 29.834 29.804 29.819 29.892 29.949 29.934 29.944 29.937 29.922 30.002 30.009 29.929 29.934 29.894 29.852 29.889 29.829 29.799 29.847 29.827 29.819 29.809 29.684 29.622 29.547 29.499 29.474 29.447 29.429 29.429 29.422 29.394 29.392 29.414 29.402 29.444 29.439 29.449 29.444 29.467 29.474 29.462 29.487 29.487 29.504 29.527 29.542 29.562 29.549 29.559 29.552 29.592 29.612 29.604 29.614 29.634 29.657 29.704 29.727 29.742 29.787 29.824 29.849 29.884 29.922 29.974 29.997 30.009 30.099 30.109 30.129 30.169 30.214 30.254 30.264 30.299 30.312 30.347 30.359 30.397 30.467 30.489 30.522 30.599 30.629 30.657 30.692 30.714 30.714 30.709 30.682 30.682 30.659 30.599 30.564 30.511 30.549 30.551 30.539 30.511 30.491 30.446 30.434 30.414 30.381 30.336 30.314 30.241 30.191 30.151 30.096 30.041 30.001 29.969 29.909 29.866 29.854 29.791 29.769 29.769 29.729 29.746 29.729 29.726 29.719 29.736 29.731 29.726 29.689 29.679 29.591 29.546 29.499 29.446 29.359 29.306 29.229 29.121 29.019 28.986 28.901 28.794 28.746 28.699 28.661 28.649 28.609 28.561 28.529 28.511 28.489 28.401 28.366 28.326 28.334 28.291 28.294 28.314 28.366 28.371 28.346 28.469 28.789 29.224 29.616 29.789 29.876 29.929 29.889 29.416 28.619 28.206 27.901 27.476 26.701 26.624 26.994 27.521 28.234 28.516 28.474 28.524 28.466 28.409 28.514 28.536 28.591 28.646 28.664 28.691 28.814 28.904 28.976 29.001 29.054 29.104 29.166 29.206 29.214 29.329 29.359 29.401 29.426 29.464 29.439 29.416 29.431 29.454 29.426 29.419 29.394 29.399 29.436 29.659 30.084 30.471 30.584 30.676 30.731 30.819 30.946 31.009 31.056 31.026 31.019 31.054 31.119 31.204 31.221 31.264 31.294 31.306 31.299 31.301 31.304 31.281 31.304 31.314 31.319 31.354 31.336 31.346 31.321 31.321 31.316 31.319 31.319 31.326 31.326 31.299 31.304 31.294 31.271 31.274 31.249 31.249 31.249 31.214 31.254 31.254 31.269 31.261 31.291 31.281 31.306 31.334 31.361 31.389 31.479 31.501 31.534 31.579 31.619 31.639 31.701 31.754 31.791 31.851 31.909 31.971 31.999 32.026 32.041 32.059 32.066 32.041 32.054 32.036 32.014 31.999 31.954 31.929 31.879 31.846 31.806 31.796 31.789 31.739 31.721 31.696 31.681 31.661 31.646 31.666 31.686 31.691 31.719 31.736 31.744 31.741 31.794 31.814 31.821 31.841 31.849 31.899 31.919 31.961 31.966 31.991 32.044 32.091 32.126 32.171 32.234 32.274 32.254 32.251 32.296 32.326 32.399 32.459 32.534 32.554 32.661 32.689 32.794 32.891 32.924 32.961 33.069 33.134 33.194
31.814 31.794 31.777 31.742 31.737 31.692 31.684 31.629 31.587 31.549 31.509 31.469 31.419 31.399 31.379 31.322 31.302 31.257 31.212 31.209 31.174 31.107 31.099 31.059 31.024 31.012 30.979 30.957 30.899 30.914 30.897 30.847 30.809 30.794 30.744 30.679 30.664 30.587 30.499 30.447 30.377 30.277 30.172 30.072 30.024 29.914 29.817 29.829 29.822 29.779 29.674 29.672 29.752 29.862 29.939 29.959 30.019 30.089 30.057 30.114 30.157 30.114 30.097 30.037 30.019 29.947 29.929 29.927 29.934 29.887 29.839 29.859 29.837 29.874 29.837 29.812 29.814 29.789 29.769 29.784 29.794 29.802 29.807 29.792 29.789 29.799 29.794 29.777 29.779 29.769 29.794 29.787 29.787 29.799 29.837 29.824 29.829 29.862 29.859 29.807 29.814 29.837 29.834 29.784 29.819 29.772 29.777 29.654 29.604 29.544 29.569 29.512 29.502 29.477 29.484 29.444 29.432 29.452 29.467 29.474 29.502 29.514 29.507 29.507 29.504 29.512 29.529 29.562 29.584 29.582 29.592 29.599 29.584 29.599 29.599 29.629 29.627 29.649 29.669 29.677 29.699 29.734 29.757 29.782 29.807 29.869 29.867 29.914 29.942 29.962 29.992 30.017 30.072 30.079 30.097 30.157 30.194 30.244 30.244 30.307 30.317 30.339 30.372 30.424 30.474 30.492 30.552 30.594 30.639 30.667 30.714 30.709 30.737 30.674 30.662 30.639 30.586 30.576 30.531 30.536 30.474 30.479 30.451 30.436 30.416 30.404 30.371 30.331 30.329 30.304 30.229 30.156 30.126 30.074 30.001 29.956 29.906 29.874 29.806 29.796 29.756 29.751 29.739 29.696 29.694 29.711 29.721 29.699 29.694 29.676 29.676 29.634 29.551 29.504 29.459 29.434 29.356 29.279 29.224 29.164 29.089 28.979 28.904 28.826 28.784 28.736 28.691 28.634 28.639 28.596 28.544 28.501 28.479 28.439 28.391 28.346 28.351 28.361 28.336 28.361 28.384 28.436 28.451 28.629 29.014 29.359 29.601 29.719 29.794 29.876 29.759 29.446 28.886 28.286 28.174 28.076 27.929 27.149 26.454 26.636 27.194 27.859 28.459 28.541 28.564 28.496 28.446 28.546 28.574 28.614 28.671 28.701 28.696 28.784 28.876 28.926 29.036 29.084 29.126 29.221 29.234 29.269 29.344 29.366 29.384 29.424 29.479 29.499 29.484 29.481 29.471 29.439 29.449 29.484 29.491 29.449 29.561 29.759 30.224 30.576 30.629 30.704 30.736 30.841 30.976 31.061 31.039 31.034 31.046 31.101 31.176 31.201 31.224 31.276 31.259 31.256 31.246 31.249 31.269 31.276 31.284 31.274 31.281 31.281 31.299 31.286 31.291 31.301 31.306 31.264 31.284 31.314 31.296 31.291 31.279 31.254 31.229 31.201 31.196 31.174 31.214 31.236 31.254 31.244 31.254 31.266 31.256 31.276 31.346 31.381 31.409 31.459 31.521 31.564 31.599 31.624 31.664 31.709 31.754 31.774 31.854 31.899 31.946 31.996 32.026 32.041 32.041 32.056 32.041 32.046 32.006 32.011 31.984 31.934 31.896 31.841 31.804 31.769 31.759 31.759 31.729 31.701 31.679 31.669 31.649 31.659 31.676 31.661 31.681 31.724 31.716 31.741 31.779 31.819 31.834 31.849 31.871 31.881 31.896 31.914 31.976 31.994 32.019 32.044 32.094 32.144 32.189 32.239 32.266 32.281 32.314 32.311 32.354 32.404 32.479 32.544 32.586 32.689 32.716 32.816 32.874 32.921 33.051 33.246 33.236 33.214
31.852 31.834 31.807 31.769 31.714 31.719 31.659 31.624 31.599 31.559 31.507 31.494 31.472 31.462 31.429 31.399 31.364 31.307 31.259 31.237 31.194 31.112 31.109 31.112 31.072 31.089 30.982 30.952 30.999 30.994 31.017 30.954 30.927 30.912 30.879 30.849 30.719 30.577 30.572 30.467 30.434 30.367 30.257 30.102 30.079 29.979 29.874 29.899 29.944 29.922 29.867 29.854 29.989 30.074 30.059 30.057 29.952 29.952 29.944 29.984 29.972 29.939 29.927 29.902 29.894 29.862 29.829 29.797 29.824 29.784 29.777 29.767 29.774 29.752 29.737 29.749 29.729 29.749 29.744 29.702 29.744 29.714 29.734 29.727 29.712 29.709 29.689 29.714 29.724 29.734 29.754 29.717 29.712 29.744 29.777 29.779 29.782 29.812 29.769 29.772 29.814 29.792 29.789 29.757 29.774 29.842 29.834 29.832 29.779 29.719 29.727 29.687 29.682 29.624 29.592 29.572 29.532 29.542 29.594 29.572 29.602 29.587 29.589 29.562 29.587 29.584 29.582 29.614 29.617 29.624 29.627 29.629 29.642 29.652 29.662 29.659 29.692 29.689 29.707 29.719 29.724 29.737 29.779 29.827 29.842 29.864 29.889 29.917 29.962 29.967 30.017 30.032 30.057 30.084 30.094 30.152 30.169 30.209 30.212 30.272 30.282 30.339 30.342 30.372 30.409 30.442 30.497 30.554 30.577 30.632 30.644 30.639 30.672 30.667 30.654 30.647 30.574 30.541 30.509 30.496 30.479 30.471 30.416 30.404 30.391 30.401 30.284 30.294 30.256 30.219 30.206 30.119 30.076 30.034 29.944 29.856 29.846 29.831 29.766 29.759 29.704 29.661 29.674 29.674 29.644 29.661 29.641 29.609 29.621 29.629 29.604 29.549 29.494 29.431 29.389 29.346 29.279 29.171 29.159 29.064 28.989 28.979 28.896 28.794 28.759 28.731 28.696 28.601 28.584 28.574 28.516 28.504 28.489 28.454 28.436 28.391 28.384 28.406 28.366 28.411 28.464 28.574 28.709 29.089 29.401 29.554 29.646 29.714 29.746 29.739 29.421 28.844 28.286 28.064 28.074 28.061 28.041 27.531 26.754 26.421 26.854 27.579 28.404 28.629 28.586 28.486 28.556 28.584 28.604 28.641 28.681 28.729 28.724 28.779 28.866 28.946 29.021 29.061 29.134 29.186 29.221 29.284 29.336 29.376 29.404 29.444 29.479 29.506 29.531 29.549 29.546 29.506 29.524 29.519 29.524 29.496 29.536 29.716 29.914 30.421 30.601 30.676 30.714 30.779 30.936 31.094 31.156 31.076 31.051 31.071 31.139 31.181 31.196 31.219 31.234 31.231 31.219 31.226 31.251 31.249 31.231 31.236 31.256 31.269 31.284 31.276 31.259 31.259 31.279 31.251 31.266 31.264 31.256 31.241 31.229 31.181 31.174 31.159 31.169 31.204 31.221 31.244 31.239 31.234 31.264 31.266 31.269 31.314 31.364 31.389 31.439 31.464 31.496 31.531 31.599 31.649 31.656 31.701 31.754 31.761 31.811 31.864 31.941 31.979 32.009 32.026 32.031 32.054 32.024 32.024 31.971 31.981 31.959 31.911 31.859 31.829 31.784 31.746 31.729 31.706 31.706 31.694 31.656 31.679 31.664 31.664 31.661 31.694 31.699 31.701 31.721 31.771 31.801 31.836 31.829 31.839 31.864 31.866 31.921 31.934 31.974 31.994 32.041 32.059 32.109 32.146 32.194 32.231 32.256 32.314 32.371 32.314 32.349 32.426 32.484 32.514 32.574 32.639 32.729 32.816 32.881 32.934 33.054 33.151 33.164 33.114
31.877 31.837 31.794 31.767 31.769 31.749 31.719 31.687 31.642 31.604 31.552 31.544 31.574 31.527 31.482 31.429 31.407 31.417 31.369 31.317 31.307 31.272 31.304 31.264 31.242 31.199 31.162 31.139 31.162 31.104 31.122 31.119 31.092 31.022 31.012 31.062 30.984 30.867 30.729 30.559 30.457 30.322 30.274 30.227 30.157 30.077 29.999 30.034 30.067 30.014 30.002 29.994 29.972 29.992 29.959 29.932 29.907 29.877 29.907 29.907 29.854 29.832 29.832 29.822 29.782 29.744 29.714 29.697 29.702 29.689 29.679 29.677 29.669 29.634 29.657 29.644 29.659 29.697 29.714 29.714 29.714 29.707 29.679 29.722 29.682 29.664 29.659 29.649 29.657 29.659 29.667 29.644 29.679 29.684 29.689 29.714 29.729 29.737 29.754 29.742 29.767 29.802 29.782 29.762 29.792 29.799 29.849 29.839 29.819 29.834 29.867 29.879 29.897 29.912 29.902 29.837 29.727 29.679 29.684 29.637 29.692 29.749 29.722 29.707 29.687 29.714 29.724 29.714 29.699 29.704 29.699 29.672 29.677 29.704 29.692 29.702 29.724 29.727 29.744 29.772 29.759 29.804 29.824 29.839 29.889 29.887 29.897 29.917 29.929 29.964 29.989 30.039 30.067 30.092 30.104 30.147 30.174 30.199 30.212 30.244 30.294 30.302 30.334 30.352 30.404 30.414 30.477 30.524 30.552 30.597 30.612 30.614 30.602 30.584 30.562 30.549 30.524 30.516 30.479 30.466 30.441 30.464 30.406 30.374 30.354 30.306 30.271 30.269 30.244 30.194 30.124 30.081 30.011 29.964 29.919 29.846 29.809 29.754 29.719 29.676 29.659 29.606 29.629 29.586 29.571 29.581 29.564 29.574 29.576 29.531 29.494 29.479 29.429 29.386 29.339 29.281 29.209 29.139 29.094 29.046 28.919 28.891 28.869 28.761 28.681 28.694 28.651 28.579 28.556 28.554 28.524 28.494 28.484 28.466 28.454 28.446 28.459 28.454 28.484 28.514 28.646 28.881 29.116 29.341 29.544 29.616 29.629 29.659 29.691 29.544 28.841 28.114 27.956 27.941 27.994 28.021 28.106 27.761 27.161 26.626 26.796 27.421 28.269 28.589 28.656 28.616 28.604 28.594 28.604 28.651 28.706 28.726 28.744 28.789 28.899 28.926 29.006 29.084 29.121 29.159 29.219 29.269 29.334 29.396 29.401 29.446 29.469 29.489 29.544 29.576 29.586 29.596 29.564 29.579 29.561 29.569 29.584 29.641 29.771 30.064 30.521 30.656 30.709 30.749 30.786 31.001 31.116 31.116 31.069 31.061 31.101 31.164 31.171 31.209 31.196 31.186 31.171 31.154 31.221 31.214 31.224 31.236 31.221 31.221 31.236 31.219 31.246 31.261 31.229 31.224 31.216 31.206 31.199 31.181 31.164 31.166 31.136 31.156 31.156 31.184 31.191 31.214 31.229 31.241 31.261 31.304 31.316 31.334 31.369 31.404 31.444 31.461 31.486 31.556 31.584 31.629 31.661 31.694 31.701 31.751 31.804 31.841 31.906 31.944 31.991 32.001 32.004 32.026 32.049 31.991 31.959 31.974 31.931 31.894 31.836 31.816 31.761 31.734 31.696 31.684 31.669 31.674 31.659 31.644 31.654 31.681 31.656 31.689 31.716 31.731 31.774 31.791 31.814 31.844 31.834 31.871 31.901 31.906 31.914 31.946 31.979 32.004 32.026 32.061 32.091 32.154 32.196 32.254 32.294 32.351 32.406 32.404 32.411 32.424 32.491 32.554 32.621 32.689 32.824 32.841 32.894 32.899 32.946 32.999 33.044 33.069
31.892 31.864 31.844 31.827 31.807 31.789 31.764 31.724 31.697 31.612 31.572 31.592 31.547 31.549 31.527 31.527 31.507 31.472 31.427 31.407 31.367 31.372 31.372 31.342 31.302 31.289 31.272 31.192 31.209 31.157 31.097 31.044 30.992 30.912 30.874 30.757 30.714 30.627 30.537 30.449 30.384 30.292 30.267 30.202 30.184 30.147 30.089 30.067 30.067 30.004 29.977 29.984 29.952 29.892 29.902 29.887 29.872 29.854 29.849 29.817 29.822 29.782 29.742 29.719 29.697 29.697 29.777 29.672 29.629 29.649 29.654 29.634 29.667 29.722 29.669 29.562 29.707 29.829 29.842 29.829 29.824 29.784 29.832 29.837 29.672 29.589 29.644 29.624 29.607 29.604 29.592 29.622 29.672 29.667 29.662 29.644 29.654 29.684 29.699 29.707 29.727 29.737 29.769 29.724 29.752 29.782 29.809 29.802 29.844 29.827 29.857 29.892 29.909 29.934 29.967 29.992 29.907 29.934 30.017 30.002 29.974 29.972 29.957 29.897 29.832 29.802 29.824 29.832 29.787 29.792 29.757 29.747 29.784 29.799 29.739 29.767 29.789 29.792 29.802 29.794 29.799 29.827 29.847 29.899 29.902 29.894 29.944 29.967 29.979 29.982 30.022 30.079 30.077 30.094 30.122 30.167 30.214 30.232 30.254 30.269 30.312 30.324 30.359 30.387 30.429 30.449 30.492 30.529 30.569 30.564 30.599 30.602 30.569 30.552 30.539 30.499 30.476 30.429 30.416 30.389 30.391 30.406 30.386 30.336 30.316 30.309 30.236 30.211 30.161 30.146 30.066 30.009 29.974 29.889 29.859 29.831 29.739 29.664 29.636 29.636 29.591 29.566 29.594 29.569 29.514 29.506 29.514 29.489 29.446 29.454 29.414 29.396 29.361 29.276 29.249 29.206 29.149 29.101 29.041 28.971 28.891 28.781 28.769 28.746 28.696 28.649 28.604 28.574 28.546 28.526 28.504 28.506 28.519 28.531 28.509 28.536 28.579 28.581 28.674 28.834 28.996 29.184 29.309 29.414 29.529 29.586 29.639 29.599 29.464 28.844 28.116 27.821 27.861 27.889 27.926 27.986 28.081 27.979 27.506 26.764 26.606 27.284 28.104 28.504 28.614 28.569 28.554 28.579 28.611 28.666 28.704 28.709 28.729 28.799 28.871 28.924 29.039 29.081 29.129 29.161 29.211 29.264 29.324 29.361 29.409 29.459 29.484 29.531 29.549 29.556 29.619 29.636 29.634 29.636 29.594 29.611 29.631 29.616 29.626 29.844 30.236 30.604 30.684 30.751 30.756 30.851 31.126 31.254 31.109 31.069 31.061 31.124 31.146 31.166 31.154 31.149 31.134 31.141 31.166 31.191 31.196 31.189 31.201 31.184 31.191 31.199 31.201 31.206 31.196 31.164 31.184 31.169 31.169 31.154 31.134 31.131 31.116 31.134 31.114 31.136 31.171 31.169 31.229 31.254 31.301 31.314 31.301 31.311 31.359 31.389 31.429 31.476 31.521 31.549 31.579 31.606 31.634 31.681 31.719 31.759 31.781 31.836 31.901 31.926 31.961 32.016 32.026 32.021 31.991 31.981 31.959 31.959 31.916 31.871 31.829 31.801 31.756 31.694 31.674 31.674 31.664 31.654 31.639 31.624 31.669 31.681 31.701 31.679 31.726 31.739 31.771 31.804 31.831 31.824 31.864 31.879 31.901 31.939 31.941 31.969 32.006 32.029 32.044 32.044 32.089 32.141 32.191 32.276 32.314 32.376 32.421 32.494 32.456 32.491 32.521 32.599 32.664 32.764 32.864 32.854 32.856 32.889 32.924 32.931 32.989 33.051
31.937 31.932 31.884 31.892 31.782 31.699 31.699 31.632 31.632 31.637 31.574 31.632 31.622 31.582 31.532 31.512 31.512 31.459 31.427 31.407 31.349 31.354 31.352 31.347 31.259 31.159 31.162 31.064 31.074 31.024 30.932 30.882 30.822 30.757 30.687 30.654 30.602 30.564 30.497 30.419 30.344 30.312 30.262 30.217 30.134 30.109 30.069 30.052 30.029 30.012 29.954 29.932 29.897 29.819 29.832 29.784 29.737 29.694 29.729 29.784 29.872 29.657 29.567 29.512 29.484 29.557 29.597 29.522 29.507 29.547 29.584 29.567 29.604 29.639 29.617 29.589 29.699 29.742 29.749 29.739 29.729 29.674 29.699 29.744 29.629 29.589 29.674 29.582 29.589 29.582 29.627 29.649 29.674 29.674 29.712 29.724 29.694 29.754 29.722 29.749 29.784 29.774 29.749 29.709 29.739 29.767 29.744 29.762 29.777 29.777 29.797 29.859 29.864 29.879 29.897 29.909 29.929 29.952 29.982 29.982 29.997 30.034 30.047 30.062 29.999 30.072 30.032 30.077 30.002 29.949 29.934 29.942 29.897 29.852 29.912 29.924 29.897 29.877 29.894 29.914 29.869 29.854 29.874 29.909 29.922 29.952 30.047 30.012 30.032 30.062 30.114 30.114 30.144 30.174 30.179 30.197 30.207 30.247 30.274 30.317 30.347 30.389 30.414 30.424 30.464 30.494 30.517 30.547 30.562 30.559 30.572 30.622 30.594 30.572 30.539 30.527 30.446 30.419 30.391 30.364 30.366 30.361 30.309 30.274 30.251 30.241 30.164 30.139 30.101 30.054 29.991 29.944 29.894 29.839 29.746 29.746 29.694 29.606 29.586 29.579 29.539 29.514 29.501 29.474 29.451 29.436 29.439 29.409 29.381 29.394 29.351 29.281 29.206 29.144 29.126 29.081 29.049 28.976 28.951 28.881 28.831 28.734 28.731 28.704 28.669 28.631 28.599 28.596 28.554 28.531 28.514 28.539 28.549 28.566 28.596 28.629 28.714 28.796 28.941 29.111 29.241 29.311 29.389 29.466 29.501 29.559 29.624 29.281 28.676 28.061 27.781 27.769 27.796 27.824 27.911 27.989 28.041 28.134 27.866 26.991 26.796 27.146 28.014 28.466 28.569 28.564 28.566 28.621 28.611 28.669 28.709 28.674 28.721 28.786 28.864 28.939 29.011 29.099 29.129 29.161 29.204 29.236 29.311 29.306 29.394 29.479 29.491 29.549 29.576 29.569 29.619 29.689 29.706 29.701 29.644 29.681 29.684 29.674 29.671 29.789 29.966 30.461 30.661 30.716 30.751 30.751 30.981 31.164 31.164 31.111 31.046 31.081 31.116 31.144 31.134 31.154 31.136 31.134 31.114 31.154 31.151 31.169 31.184 31.154 31.144 31.199 31.154 31.134 31.149 31.126 31.126 31.136 31.124 31.124 31.101 31.101 31.101 31.091 31.116 31.119 31.141 31.184 31.261 31.251 31.281 31.291 31.279 31.331 31.384 31.409 31.446 31.509 31.536 31.524 31.574 31.601 31.639 31.656 31.696 31.736 31.764 31.811 31.881 31.909 31.934 31.981 32.006 32.019 31.991 31.969 31.951 31.946 31.904 31.861 31.819 31.764 31.731 31.694 31.669 31.669 31.666 31.654 31.639 31.651 31.664 31.666 31.694 31.696 31.731 31.749 31.774 31.799 31.829 31.844 31.841 31.894 31.929 31.944 31.951 31.984 32.026 32.029 32.041 32.074 32.136 32.189 32.226 32.274 32.339 32.374 32.444 32.521 32.546 32.549 32.566 32.719 32.784 32.816 32.931 32.899 32.869 32.889 32.926 32.924 33.039 33.146
31.894 31.879 31.857 31.939 31.867 31.752 31.742 31.709 31.664 31.619 31.604 31.597 31.584 31.539 31.529 31.447 31.459 31.357 31.334 31.314 31.269 31.292 31.272 31.219 31.212 31.177 31.144 31.079 31.054 30.994 30.947 30.942 30.857 30.797 30.749 30.667 30.604 30.549 30.507 30.434 30.329 30.307 30.257 30.157 30.107 30.067 30.017 29.969 29.914 29.964 30.014 30.042 29.834 29.584 29.582 29.497 29.417 29.359 29.334 29.337 29.397 29.394 29.389 29.374 29.414 29.417 29.404 29.434 29.444 29.492 29.562 29.542 29.547 29.524 29.542 29.524 29.604 29.604 29.587 29.569 29.549 29.539 29.544 29.572 29.592 29.634 29.664 29.579 29.552 29.554 29.634 29.652 29.679 29.747 29.842 29.819 29.769 29.754 29.754 29.797 29.834 29.857 29.859 29.799 29.787 29.799 29.797 29.769 29.777 29.792 29.857 29.782 29.827 29.842 29.847 29.862 29.884 29.907 29.912 29.909 29.949 29.957 29.984 30.014 30.054 30.049 30.069 30.097 30.092 30.084 30.112 30.104 30.032 30.012 30.077 30.069 30.104 30.117 30.079 30.114 30.127 30.149 30.092 30.129 30.074 30.057 30.119 30.042 30.077 30.167 30.179 30.167 30.224 30.234 30.217 30.254 30.227 30.297 30.307 30.352 30.379 30.424 30.477 30.474 30.494 30.537 30.557 30.554 30.574 30.592 30.632 30.634 30.597 30.599 30.549 30.519 30.481 30.469 30.446 30.394 30.361 30.339 30.286 30.251 30.211 30.166 30.109 30.086 30.024 29.974 29.909 29.874 29.811 29.771 29.696 29.641 29.584 29.561 29.486 29.481 29.476 29.426 29.436 29.429 29.396 29.359 29.324 29.321 29.279 29.274 29.271 29.206 29.131 29.079 29.021 28.981 28.981 28.924 28.869 28.834 28.784 28.776 28.711 28.649 28.626 28.621 28.611 28.614 28.581 28.584 28.551 28.586 28.624 28.704 28.751 28.766 28.851 28.986 29.089 29.186 29.301 29.349 29.401 29.459 29.524 29.544 29.356 28.671 28.024 27.731 27.744 27.781 27.736 27.796 27.911 27.976 28.011 28.111 27.811 27.009 26.566 27.006 27.791 28.316 28.526 28.536 28.541 28.591 28.591 28.649 28.676 28.671 28.706 28.784 28.854 28.944 29.011 29.066 29.114 29.134 29.201 29.259 29.291 29.339 29.399 29.446 29.484 29.506 29.546 29.606 29.641 29.691 29.744 29.731 29.711 29.741 29.726 29.726 29.756 29.791 29.896 30.139 30.544 30.654 30.756 30.761 30.834 30.976 31.149 31.134 31.081 31.071 31.094 31.094 31.096 31.104 31.116 31.116 31.111 31.136 31.144 31.131 31.156 31.151 31.131 31.104 31.089 31.101 31.089 31.096 31.084 31.094 31.069 31.076 31.066 31.084 31.074 31.064 31.089 31.124 31.141 31.174 31.231 31.229 31.271 31.301 31.311 31.331 31.374 31.409 31.459 31.479 31.516 31.509 31.534 31.589 31.601 31.664 31.686 31.726 31.756 31.784 31.839 31.876 31.911 31.979 31.971 31.999 31.971 31.964 31.939 31.914 31.871 31.851 31.791 31.761 31.716 31.656 31.671 31.634 31.656 31.659 31.629 31.666 31.684 31.676 31.729 31.749 31.761 31.769 31.786 31.804 31.834 31.859 31.884 31.929 31.941 31.949 31.979 31.989 32.011 32.046 32.069 32.106 32.164 32.206 32.226 32.264 32.329 32.394 32.461 32.531 32.596 32.609 32.636 32.764 32.839 32.841 32.864 32.849 32.861 32.879 32.891 33.041 33.121 33.084
31.879 31.857 31.849 31.887 31.817 31.724 31.699 31.664 31.574 31.522 31.469 31.424 31.414 31.389 31.387 31.354 31.362 31.367 31.329 31.324 31.312 31.287 31.252 31.184 31.189 31.187 31.142 31.082 31.052 30.987 30.952 30.919 30.862 30.799 30.779 30.742 30.657 30.589 30.542 30.477 30.347 30.194 30.107 29.999 29.932 29.864 29.817 29.709 29.627 29.619 29.654 29.602 29.489 29.319 29.324 29.264 29.247 29.207 29.219 29.259 29.259 29.359 29.407 29.429 29.464 29.427 29.439 29.449 29.412 29.474 29.504 29.527 29.509 29.494 29.537 29.549 29.529 29.489 29.452 29.422 29.392 29.367 29.374 29.384 29.479 29.592 29.567 29.549 29.514 29.484 29.529 29.587 29.694 29.802 29.814 29.884 29.842 29.802 29.829 29.819 29.834 29.884 29.929 29.797 29.704 29.654 29.682 29.697 29.767 29.739 29.864 29.872 29.882 29.839 29.837 29.867 29.877 29.879 29.917 29.927 29.892 29.919 29.979 30.019 30.052 30.069 30.052 30.089 30.094 30.107 30.097 30.134 30.144 30.139 30.144 30.122 30.147 30.172 30.164 30.164 30.187 30.207 30.202 30.222 30.249 30.262 30.312 30.302 30.267 30.352 30.334 30.302 30.339 30.387 30.349 30.334 30.319 30.307 30.324 30.384 30.397 30.454 30.502 30.519 30.517 30.522 30.587 30.599 30.619 30.634 30.649 30.617 30.609 30.574 30.547 30.494 30.466 30.464 30.414 30.399 30.386 30.364 30.299 30.259 30.249 30.214 30.131 30.079 29.994 29.959 29.866 29.816 29.746 29.694 29.614 29.536 29.526 29.491 29.416 29.406 29.406 29.349 29.361 29.319 29.319 29.274 29.266 29.239 29.206 29.174 29.131 29.114 29.061 29.049 28.989 28.939 28.891 28.869 28.864 28.816 28.779 28.729 28.731 28.669 28.641 28.626 28.631 28.626 28.654 28.651 28.669 28.726 28.794 28.854 28.941 28.964 29.009 29.099 29.211 29.289 29.369 29.409 29.444 29.526 29.471 29.159 28.494 28.016 27.721 27.744 27.791 27.801 27.741 27.744 27.859 27.941 27.979 28.124 27.881 27.014 26.549 27.056 27.751 28.301 28.524 28.516 28.531 28.559 28.549 28.634 28.666 28.679 28.701 28.761 28.859 28.951 29.034 29.051 29.096 29.146 29.194 29.256 29.274 29.339 29.394 29.416 29.431 29.494 29.556 29.624 29.671 29.686 29.699 29.776 29.784 29.801 29.779 29.769 29.796 29.816 29.796 29.956 30.334 30.639 30.711 30.776 30.786 30.956 31.109 31.179 31.091 31.074 31.094 31.089 31.106 31.086 31.064 31.081 31.079 31.084 31.091 31.086 31.101 31.076 31.079 31.059 31.046 31.039 31.046 31.061 31.056 31.051 31.036 31.036 31.034 31.026 31.034 31.049 31.106 31.124 31.139 31.186 31.189 31.216 31.261 31.299 31.309 31.324 31.361 31.421 31.426 31.474 31.496 31.509 31.559 31.596 31.634 31.634 31.649 31.716 31.744 31.804 31.809 31.849 31.931 31.969 31.974 31.986 31.976 31.956 31.909 31.879 31.861 31.831 31.784 31.754 31.691 31.666 31.644 31.641 31.661 31.654 31.626 31.661 31.704 31.726 31.741 31.766 31.774 31.749 31.796 31.831 31.831 31.874 31.916 31.939 31.941 31.964 31.989 31.994 32.046 32.066 32.081 32.136 32.164 32.204 32.226 32.289 32.346 32.419 32.486 32.551 32.654 32.681 32.656 32.704 32.791 32.799 32.816 32.856 32.891 32.891 32.866 32.931 33.041 33.196
31.734 31.684 31.649 31.609 31.567 31.537 31.512 31.492 31.477 31.459 31.454 31.429 31.419 31.397 31.394 31.397 31.344 31.354 31.324 31.287 31.269 31.239 31.239 31.164 31.149 31.167 31.184 31.127 31.089 31.044 31.012 30.992 30.932 30.879 30.847 30.817 30.719 30.627 30.554 30.429 30.244 30.024 29.899 29.829 29.742 29.654 29.599 29.499 29.412 29.339 29.287 29.297 29.239 29.284 29.289 29.284 29.274 29.289 29.307 29.284 29.269 29.332 29.399 29.434 29.394 29.414 29.397 29.397 29.419 29.427 29.454 29.502 29.504 29.522 29.529 29.544 29.512 29.464 29.422 29.374 29.332 29.307 29.317 29.369 29.467 29.534 29.504 29.494 29.492 29.469 29.454 29.504 29.659 29.779 29.782 29.827 29.822 29.817 29.829 29.807 29.817 29.834 29.807 29.719 29.694 29.594 29.597 29.589 29.627 29.609 29.624 29.654 29.692 29.689 29.714 29.699 29.772 29.834 29.882 29.902 29.924 29.917 29.899 29.897 30.029 30.049 30.072 30.089 30.059 30.087 30.112 30.124 30.147 30.172 30.162 30.159 30.187 30.199 30.222 30.214 30.224 30.217 30.209 30.224 30.294 30.242 30.289 30.347 30.294 30.357 30.402 30.362 30.379 30.422 30.397 30.412 30.364 30.414 30.427 30.477 30.469 30.504 30.504 30.492 30.472 30.472 30.509 30.559 30.617 30.664 30.689 30.642 30.624 30.592 30.557 30.547 30.481 30.459 30.451 30.419 30.406 30.351 30.281 30.229 30.196 30.154 30.094 30.051 29.996 29.929 29.846 29.799 29.724 29.704 29.636 29.551 29.494 29.444 29.391 29.379 29.364 29.339 29.309 29.286 29.286 29.244 29.229 29.194 29.169 29.146 29.096 29.051 29.046 28.996 28.954 28.986 28.899 28.886 28.869 28.846 28.801 28.736 28.749 28.706 28.741 28.694 28.726 28.741 28.816 28.791 28.806 28.859 28.964 29.024 29.069 29.084 29.149 29.174 29.224 29.316 29.369 29.436 29.434 29.399 29.051 28.471 27.964 27.681 27.741 27.781 27.784 27.746 27.764 27.759 27.809 27.919 27.966 27.996 27.829 27.086 26.516 27.001 27.824 28.371 28.561 28.566 28.541 28.561 28.549 28.591 28.639 28.676 28.711 28.774 28.874 28.951 29.019 29.046 29.106 29.164 29.194 29.244 29.249 29.339 29.406 29.404 29.451 29.516 29.561 29.639 29.666 29.704 29.741 29.776 29.801 29.821 29.809 29.814 29.831 29.856 29.884 30.001 30.204 30.561 30.721 30.746 30.816 30.859 31.026 31.149 31.124 31.099 31.066 31.061 31.059 31.061 31.046 31.046 31.061 31.051 31.029 31.036 31.011 31.036 31.009 31.026 31.009 31.016 31.026 31.004 30.981 30.991 31.006 31.009 31.006 31.009 31.021 31.054 31.084 31.099 31.136 31.179 31.194 31.234 31.261 31.289 31.319 31.331 31.349 31.379 31.414 31.429 31.489 31.521 31.551 31.591 31.594 31.589 31.624 31.691 31.739 31.774 31.816 31.831 31.889 31.961 31.966 31.961 31.926 31.944 31.909 31.871 31.849 31.811 31.766 31.741 31.691 31.684 31.661 31.666 31.659 31.664 31.686 31.701 31.716 31.751 31.736 31.756 31.759 31.779 31.814 31.831 31.854 31.881 31.916 31.961 31.951 31.981 32.026 32.046 32.079 32.084 32.101 32.144 32.149 32.221 32.274 32.339 32.391 32.474 32.584 32.646 32.654 32.676 32.701 32.686 32.786 32.759 32.814 32.941 32.981 32.991 32.921 32.994 33.209 33.359
31.564 31.554 31.587 31.557 31.542 31.522 31.519 31.499 31.482 31.447 31.429 31.422 31.399 31.359 31.367 31.349 31.284 31.287 31.214 31.164 31.124 31.112 31.074 30.984 30.987 31.102 31.162 31.077 30.987 30.909 30.909 30.842 30.767 30.709 30.649 30.507 30.457 30.344 30.264 30.202 30.074 29.939 29.897 29.829 29.724 29.707 29.619 29.559 29.472 29.457 29.382 29.347 29.277 29.312 29.262 29.272 29.264 29.239 29.299 29.312 29.299 29.332 29.387 29.362 29.374 29.367 29.377 29.372 29.354 29.357 29.347 29.402 29.419 29.467 29.467 29.482 29.444 29.404 29.364 29.322 29.279 29.279 29.307 29.384 29.492 29.487 29.484 29.434 29.442 29.457 29.442 29.464 29.619 29.757 29.799 29.817 29.822 29.837 29.834 29.794 29.792 29.769 29.754 29.707 29.637 29.609 29.644 29.612 29.592 29.599 29.589 29.537 29.522 29.467 29.474 29.474 29.524 29.587 29.724 29.754 29.737 29.789 29.809 29.847 29.927 30.007 30.084 30.072 30.079 30.107 30.107 30.144 30.112 30.174 30.179 30.189 30.197 30.189 30.207 30.202 30.212 30.249 30.252 30.242 30.254 30.264 30.282 30.317 30.254 30.332 30.327 30.359 30.369 30.377 30.382 30.417 30.434 30.442 30.462 30.474 30.482 30.534 30.579 30.567 30.507 30.549 30.597 30.609 30.607 30.692 30.734 30.744 30.732 30.692 30.624 30.637 30.604 30.551 30.491 30.411 30.431 30.371 30.319 30.256 30.244 30.179 30.114 30.019 29.941 29.889 29.824 29.751 29.691 29.624 29.569 29.479 29.449 29.396 29.386 29.361 29.329 29.306 29.269 29.276 29.229 29.221 29.221 29.229 29.179 29.146 29.104 29.056 29.026 28.991 28.964 28.976 28.901 28.899 28.871 28.859 28.796 28.821 28.829 28.819 28.844 28.871 28.871 28.926 28.979 28.996 29.036 29.049 29.081 29.101 29.144 29.196 29.264 29.286 29.339 29.336 29.374 29.409 29.256 28.904 28.459 27.959 27.681 27.689 27.734 27.779 27.781 27.776 27.766 27.774 27.834 27.871 27.909 27.834 27.411 26.829 26.744 27.161 27.866 28.334 28.561 28.604 28.499 28.541 28.544 28.591 28.676 28.684 28.734 28.776 28.884 28.941 29.001 29.034 29.056 29.151 29.191 29.221 29.276 29.354 29.371 29.406 29.476 29.534 29.584 29.629 29.689 29.744 29.746 29.779 29.831 29.861 29.866 29.886 29.884 29.891 29.879 29.911 30.034 30.306 30.666 30.731 30.796 30.831 30.874 31.034 31.071 31.089 31.049 31.034 31.021 31.041 31.026 31.009 31.029 31.026 31.011 30.976 30.971 30.969 30.984 30.996 30.966 30.991 30.984 30.974 30.956 30.951 30.949 30.966 30.986 30.991 31.029 31.051 31.061 31.099 31.136 31.164 31.174 31.201 31.269 31.296 31.316 31.329 31.326 31.344 31.366 31.426 31.464 31.496 31.521 31.544 31.536 31.571 31.626 31.701 31.734 31.784 31.799 31.829 31.859 31.904 31.924 31.946 31.904 31.899 31.854 31.841 31.804 31.794 31.754 31.729 31.704 31.694 31.679 31.694 31.679 31.681 31.709 31.724 31.741 31.756 31.764 31.761 31.784 31.811 31.804 31.816 31.879 31.914 31.929 31.946 31.994 32.009 32.044 32.071 32.091 32.069 32.124 32.149 32.201 32.279 32.351 32.421 32.504 32.569 32.656 32.659 32.656 32.701 32.764 32.751 32.719 32.789 32.899 32.936 33.014 33.159 33.086 33.171 33.229 33.296
31.574 31.579 31.559 31.534 31.539 31.499 31.479 31.444 31.484 31.544 31.507 31.539 31.507 31.449 31.379 31.272 31.194 31.124 31.009 30.919 30.894 30.922 30.894 30.829 30.834 30.867 30.842 30.822 30.802 30.767 30.744 30.747 30.667 30.684 30.599 30.512 30.467 30.394 30.324 30.239 30.169 30.082 30.004 29.904 29.797 29.719 29.657 29.614 29.522 29.487 29.414 29.399 29.342 29.292 29.214 29.204 29.287 29.299 29.284 29.279 29.277 29.234 29.294 29.292 29.284 29.249 29.227 29.187 29.137 29.154 29.147 29.234 29.229 29.344 29.424 29.409 29.382 29.344 29.304 29.262 29.254 29.282 29.312 29.342 29.412 29.472 29.452 29.397 29.407 29.427 29.427 29.444 29.499 29.617 29.709 29.724 29.749 29.764 29.799 29.777 29.772 29.712 29.687 29.609 29.569 29.567 29.622 29.597 29.554 29.554 29.519 29.487 29.419 29.409 29.399 29.359 29.344 29.399 29.402 29.437 29.487 29.527 29.549 29.559 29.647 29.717 29.844 29.964 30.014 30.039 30.089 30.102 30.119 30.194 30.212 30.217 30.204 30.204 30.189 30.179 30.152 30.192 30.227 30.244 30.249 30.282 30.309 30.269 30.292 30.327 30.357 30.394 30.392 30.387 30.374 30.377 30.419 30.437 30.432 30.474 30.457 30.494 30.489 30.534 30.487 30.512 30.572 30.614 30.637 30.694 30.714 30.747 30.729 30.729 30.742 30.727 30.784 30.764 30.691 30.649 30.591 30.514 30.414 30.351 30.304 30.226 30.156 30.049 29.994 29.891 29.819 29.761 29.684 29.616 29.516 29.489 29.444 29.431 29.414 29.376 29.319 29.299 29.269 29.266 29.231 29.229 29.251 29.199 29.151 29.136 29.091 29.114 29.049 29.101 29.021 29.014 28.969 28.964 28.931 28.931 28.964 28.986 29.006 28.971 29.041 29.096 29.104 29.101 29.094 29.081 29.159 29.144 29.156 29.189 29.266 29.261 29.321 29.374 29.386 29.339 29.244 28.999 28.544 28.204 27.824 27.666 27.689 27.729 27.724 27.759 27.776 27.804 27.776 27.809 27.894 27.916 27.904 27.656 27.126 26.641 26.806 27.276 27.899 28.406 28.571 28.661 28.541 28.541 28.584 28.604 28.669 28.664 28.729 28.766 28.861 28.949 28.986 29.036 29.094 29.129 29.189 29.241 29.266 29.339 29.371 29.386 29.471 29.546 29.571 29.599 29.699 29.769 29.801 29.816 29.869 29.901 29.909 29.896 29.896 29.911 29.929 29.984 29.961 30.121 30.466 30.804 30.809 30.836 30.841 30.911 30.991 31.111 31.064 31.026 31.009 31.001 31.029 30.999 31.001 30.986 30.966 30.966 30.929 30.931 30.931 30.934 30.931 30.934 30.941 30.934 30.926 30.934 30.944 30.961 30.969 30.991 31.024 31.039 31.059 31.104 31.121 31.124 31.156 31.204 31.241 31.269 31.296 31.314 31.326 31.341 31.376 31.424 31.436 31.494 31.516 31.514 31.539 31.561 31.601 31.659 31.704 31.751 31.769 31.814 31.846 31.876 31.906 31.891 31.874 31.864 31.814 31.794 31.781 31.771 31.766 31.756 31.736 31.709 31.699 31.711 31.694 31.694 31.706 31.716 31.734 31.754 31.791 31.781 31.816 31.829 31.844 31.866 31.911 31.904 31.939 31.954 31.996 32.046 32.071 32.071 32.104 32.114 32.174 32.209 32.271 32.311 32.394 32.464 32.641 32.686 32.649 32.621 32.686 32.686 32.744 32.881 32.756 32.751 32.791 32.929 33.116 33.166 33.129 33.159 33.194 33.254
31.607 31.604 31.592 31.609 31.587 31.582 31.489 31.474 31.479 31.474 31.419 31.419 31.347 31.244 31.169 31.167 31.182 31.067 31.017 30.942 30.947 30.942 30.917 30.937 30.957 30.949 30.954 30.932 30.894 30.877 30.827 30.789 30.739 30.707 30.637 30.542 30.487 30.407 30.357 30.294 30.184 30.129 30.052 29.962 29.869 29.784 29.714 29.664 29.592 29.509 29.429 29.409 29.344 29.272 29.209 29.187 29.192 29.199 29.164 29.144 29.172 29.139 29.142 29.172 29.117 29.122 29.079 29.057 29.099 29.037 28.974 29.044 29.039 29.134 29.302 29.334 29.314 29.274 29.194 29.194 29.234 29.272 29.312 29.339 29.369 29.402 29.382 29.359 29.357 29.394 29.412 29.432 29.422 29.519 29.604 29.629 29.652 29.657 29.684 29.624 29.582 29.527 29.507 29.504 29.514 29.537 29.599 29.569 29.524 29.529 29.489 29.439 29.359 29.362 29.354 29.342 29.319 29.382 29.404 29.412 29.404 29.424 29.422 29.394 29.457 29.484 29.514 29.542 29.619 29.659 29.787 29.754 29.854 29.997 30.072 30.087 30.219 30.189 30.174 30.139 30.132 30.127 30.137 30.169 30.232 30.287 30.264 30.282 30.309 30.347 30.374 30.377 30.392 30.374 30.367 30.387 30.387 30.399 30.424 30.452 30.447 30.467 30.489 30.509 30.512 30.522 30.542 30.557 30.587 30.624 30.627 30.627 30.614 30.662 30.689 30.694 30.751 30.736 30.694 30.681 30.689 30.646 30.544 30.471 30.429 30.401 30.306 30.226 30.089 29.994 29.914 29.796 29.746 29.701 29.614 29.541 29.516 29.449 29.509 29.414 29.386 29.394 29.339 29.309 29.241 29.261 29.284 29.256 29.191 29.181 29.184 29.226 29.179 29.186 29.166 29.126 29.074 29.091 29.081 29.114 29.151 29.256 29.329 29.261 29.194 29.194 29.169 29.151 29.156 29.211 29.224 29.236 29.284 29.276 29.309 29.304 29.394 29.399 29.221 28.954 28.581 28.154 27.956 27.769 27.694 27.751 27.794 27.769 27.714 27.746 27.754 27.749 27.774 27.804 27.901 27.954 27.951 27.796 27.331 26.676 26.756 27.284 27.961 28.399 28.549 28.631 28.551 28.534 28.546 28.614 28.656 28.666 28.714 28.756 28.856 28.959 28.961 29.021 29.101 29.136 29.156 29.224 29.279 29.351 29.401 29.411 29.484 29.541 29.589 29.614 29.696 29.756 29.786 29.821 29.854 29.909 29.956 29.956 29.944 29.934 29.961 30.014 30.006 30.154 30.339 30.716 30.794 30.799 30.831 30.854 30.996 31.066 31.096 31.011 30.999 30.969 30.986 30.951 30.949 30.946 30.934 30.914 30.889 30.899 30.886 30.879 30.886 30.919 30.919 30.909 30.906 30.916 30.929 30.951 30.961 30.994 31.024 31.056 31.094 31.071 31.091 31.109 31.144 31.181 31.221 31.256 31.301 31.304 31.321 31.344 31.354 31.381 31.411 31.459 31.489 31.521 31.531 31.554 31.581 31.641 31.671 31.711 31.756 31.786 31.791 31.824 31.836 31.831 31.846 31.801 31.766 31.751 31.761 31.751 31.739 31.734 31.746 31.756 31.764 31.749 31.724 31.726 31.729 31.731 31.749 31.764 31.806 31.816 31.831 31.851 31.861 31.859 31.909 31.929 31.939 31.971 32.049 32.076 32.084 32.086 32.106 32.171 32.199 32.261 32.346 32.404 32.436 32.456 32.591 32.619 32.631 32.654 32.684 32.726 32.824 32.781 32.774 32.804 32.819 32.944 33.086 33.079 33.091 33.139 33.139 33.184
31.697 31.677 31.662 31.642 31.507 31.442 31.262 31.199 31.144 31.054 31.082 31.057 31.032 31.044 31.047 31.174 31.212 31.117 31.019 30.939 30.932 30.904 30.927 30.937 30.967 30.964 30.947 30.929 30.894 30.867 30.849 30.802 30.762 30.684 30.624 30.592 30.514 30.444 30.389 30.307 30.257 30.194 30.089 30.049 29.964 29.874 29.857 29.732 29.629 29.589 29.504 29.404 29.339 29.279 29.217 29.169 29.099 29.079 29.024 29.019 29.009 28.999 29.034 28.979 28.977 28.994 29.007 29.012 28.989 28.929 28.897 28.949 28.942 29.022 29.099 29.167 29.174 29.079 29.099 29.169 29.204 29.239 29.274 29.319 29.362 29.377 29.379 29.379 29.337 29.362 29.394 29.399 29.422 29.459 29.474 29.504 29.502 29.559 29.544 29.534 29.494 29.384 29.432 29.477 29.487 29.544 29.569 29.564 29.567 29.542 29.492 29.424 29.414 29.384 29.374 29.374 29.427 29.472 29.487 29.464 29.442 29.414 29.379 29.409 29.429 29.467 29.492 29.487 29.477 29.504 29.557 29.617 29.639 29.824 29.882 29.899 29.944 30.059 30.092 30.089 30.124 30.152 30.127 30.129 30.179 30.209 30.232 30.274 30.329 30.417 30.429 30.442 30.452 30.422 30.414 30.449 30.439 30.399 30.417 30.467 30.442 30.437 30.484 30.479 30.447 30.557 30.542 30.532 30.519 30.562 30.577 30.579 30.609 30.659 30.659 30.614 30.669 30.669 30.666 30.666 30.656 30.601 30.541 30.521 30.484 30.486 30.366 30.324 30.264 30.174 30.181 30.094 30.064 29.989 29.911 29.826 29.714 29.649 29.611 29.561 29.546 29.531 29.466 29.444 29.416 29.454 29.431 29.411 29.364 29.339 29.339 29.356 29.444 29.426 29.374 29.346 29.266 29.219 29.244 29.276 29.271 29.331 29.286 29.299 29.236 29.291 29.291 29.254 29.311 29.311 29.341 29.334 29.384 29.424 29.346 29.231 29.126 28.954 28.666 28.321 28.009 27.676 27.579 27.686 27.734 27.776 27.804 27.746 27.706 27.699 27.724 27.741 27.771 27.809 27.946 28.024 27.974 27.699 27.284 26.726 26.829 27.334 28.024 28.434 28.526 28.574 28.561 28.544 28.554 28.594 28.669 28.686 28.701 28.769 28.861 28.961 29.011 29.049 29.094 29.126 29.181 29.216 29.291 29.316 29.354 29.429 29.476 29.531 29.571 29.656 29.696 29.761 29.801 29.839 29.899 29.926 29.949 29.974 29.996 30.014 30.006 30.004 30.049 30.076 30.259 30.544 30.759 30.841 30.864 30.834 30.824 30.956 31.064 30.976 30.941 30.939 30.939 30.944 30.909 30.901 30.911 30.876 30.859 30.871 30.884 30.861 30.859 30.886 30.886 30.896 30.906 30.901 30.934 30.929 30.976 30.979 30.989 31.021 31.059 31.066 31.089 31.111 31.139 31.149 31.206 31.241 31.266 31.289 31.284 31.301 31.316 31.361 31.389 31.424 31.456 31.484 31.499 31.526 31.566 31.611 31.654 31.679 31.711 31.744 31.774 31.764 31.751 31.756 31.784 31.759 31.734 31.721 31.711 31.754 31.721 31.734 31.751 31.746 31.759 31.771 31.751 31.749 31.731 31.726 31.756 31.789 31.799 31.826 31.866 31.856 31.871 31.874 31.906 31.944 31.984 32.034 32.046 32.054 32.104 32.154 32.189 32.246 32.289 32.374 32.514 32.521 32.494 32.504 32.564 32.581 32.619 32.604 32.701 32.821 32.824 32.779 32.839 32.926 32.981 32.991 33.039 33.064 33.084 33.084 33.126 33.179
31.447 31.432 31.302 31.122 31.082 31.052 30.957 30.957 30.979 31.052 31.079 31.057 31.064 31.054 31.067 31.124 31.184 31.114 31.034 30.959 30.942 30.907 30.942 30.964 30.957 30.989 30.969 30.954 30.952 30.917 30.862 30.834 30.792 30.709 30.649 30.587 30.507 30.419 30.337 30.257 30.224 30.177 30.112 30.062 29.974 29.937 29.857 29.784 29.652 29.619 29.534 29.439 29.357 29.319 29.219 29.132 29.059 29.067 29.012 28.974 28.964 28.957 28.937 28.899 28.849 28.832 28.872 28.884 28.872 28.849 28.814 28.859 28.867 28.944 29.019 29.007 28.964 28.994 29.099 29.139 29.174 29.209 29.244 29.279 29.314 29.357 29.359 29.337 29.324 29.354 29.364 29.362 29.407 29.457 29.474 29.457 29.427 29.399 29.412 29.442 29.447 29.412 29.432 29.462 29.487 29.504 29.507 29.529 29.587 29.612 29.512 29.424 29.447 29.414 29.379 29.412 29.442 29.474 29.442 29.427 29.402 29.349 29.387 29.437 29.437 29.457 29.507 29.544 29.537 29.522 29.542 29.604 29.587 29.684 29.709 29.764 29.862 29.914 29.827 29.942 30.129 30.114 30.117 30.144 30.127 30.112 30.072 30.079 30.147 30.249 30.249 30.259 30.227 30.259 30.314 30.444 30.509 30.404 30.352 30.434 30.404 30.394 30.434 30.484 30.489 30.577 30.544 30.422 30.412 30.419 30.539 30.584 30.559 30.579 30.574 30.594 30.629 30.626 30.636 30.699 30.666 30.631 30.594 30.554 30.489 30.474 30.396 30.301 30.259 30.194 30.201 30.164 30.114 30.059 30.049 29.981 29.899 29.849 29.791 29.786 29.771 29.726 29.666 29.626 29.624 29.579 29.579 29.554 29.514 29.461 29.461 29.456 29.441 29.389 29.416 29.409 29.381 29.329 29.366 29.331 29.336 29.344 29.326 29.364 29.354 29.396 29.431 29.346 29.419 29.471 29.426 29.381 29.444 29.236 29.064 28.871 28.559 28.371 28.134 27.804 27.684 27.639 27.651 27.701 27.771 27.769 27.751 27.694 27.659 27.659 27.689 27.691 27.774 27.901 28.006 28.086 28.024 27.826 27.349 26.709 26.911 27.481 28.191 28.499 28.566 28.556 28.571 28.564 28.556 28.626 28.684 28.706 28.734 28.801 28.871 28.944 28.999 29.064 29.106 29.136 29.196 29.241 29.286 29.319 29.376 29.434 29.484 29.511 29.561 29.634 29.686 29.731 29.819 29.856 29.911 29.946 29.956 30.001 30.039 30.046 30.024 30.056 30.094 30.119 30.231 30.411 30.734 30.909 30.834 30.844 30.844 30.901 31.049 31.066 30.954 30.929 30.909 30.896 30.871 30.866 30.871 30.846 30.814 30.819 30.826 30.834 30.826 30.826 30.831 30.844 30.879 30.874 30.901 30.939 30.931 30.951 30.984 31.021 31.026 31.061 31.084 31.099 31.109 31.124 31.176 31.211 31.264 31.246 31.269 31.299 31.314 31.321 31.381 31.431 31.446 31.454 31.499 31.534 31.521 31.556 31.609 31.609 31.654 31.669 31.689 31.676 31.686 31.711 31.696 31.701 31.694 31.706 31.706 31.719 31.724 31.731 31.749 31.764 31.769 31.781 31.761 31.744 31.779 31.776 31.804 31.816 31.836 31.849 31.874 31.891 31.894 31.934 31.964 31.976 31.986 32.021 32.061 32.116 32.171 32.211 32.259 32.314 32.394 32.494 32.561 32.511 32.519 32.531 32.574 32.596 32.621 32.586 32.666 32.859 32.936 32.909 32.986 33.024 32.961 32.989 33.049 33.059 33.071 33.074 33.134 33.196
31.044 30.974 30.974 30.977 31.034 31.029 31.007 31.012 31.022 31.054 31.037 31.024 31.039 31.034 31.062 31.102 31.152 31.109 31.054 31.009 30.997 31.004 31.029 31.062 31.059 31.052 31.004 30.994 30.962 30.907 30.852 30.772 30.739 30.649 30.557 30.464 30.369 30.254 30.177 30.099 30.077 30.009 29.999 29.994 29.969 29.917 29.849 29.737 29.614 29.604 29.522 29.437 29.372 29.257 29.194 29.099 29.037 29.059 29.004 28.967 28.964 28.932 28.899 28.829 28.787 28.754 28.747 28.767 28.822 28.817 28.764 28.772 28.789 28.857 28.942 28.924 28.909 29.004 29.074 29.112 29.144 29.182 29.209 29.242 29.264 29.292 29.319 29.289 29.309 29.347 29.364 29.374 29.432 29.457 29.454 29.444 29.417 29.389 29.399 29.414 29.432 29.422 29.429 29.459 29.482 29.474 29.472 29.484 29.522 29.512 29.492 29.447 29.427 29.394 29.454 29.474 29.474 29.474 29.459 29.434 29.409 29.392 29.382 29.409 29.442 29.477 29.507 29.512 29.554 29.532 29.562 29.579 29.594 29.582 29.644 29.692 29.774 29.757 29.674 29.784 30.082 30.109 30.132 30.142 30.102 30.037 30.022 30.032 30.044 30.029 30.032 29.969 29.932 29.922 30.044 30.269 30.384 30.239 30.054 30.032 30.034 30.054 30.049 30.094 30.179 30.174 30.194 30.122 30.204 30.264 30.482 30.609 30.589 30.587 30.574 30.582 30.566 30.554 30.584 30.666 30.696 30.639 30.609 30.596 30.546 30.506 30.444 30.324 30.281 30.249 30.249 30.271 30.206 30.151 30.119 30.069 30.001 29.929 29.866 29.824 29.814 29.811 29.771 29.724 29.691 29.649 29.579 29.581 29.556 29.504 29.526 29.529 29.491 29.481 29.479 29.466 29.459 29.419 29.429 29.459 29.461 29.451 29.479 29.449 29.469 29.464 29.476 29.414 29.464 29.536 29.319 29.166 29.051 28.749 28.606 28.429 28.121 27.931 27.821 27.714 27.704 27.716 27.704 27.739 27.739 27.719 27.714 27.701 27.659 27.644 27.671 27.731 27.831 27.954 28.104 28.149 28.081 27.806 27.274 26.609 26.961 27.599 28.299 28.546 28.549 28.536 28.511 28.564 28.579 28.651 28.701 28.701 28.716 28.779 28.874 28.939 28.991 29.041 29.091 29.126 29.196 29.264 29.301 29.351 29.364 29.416 29.479 29.519 29.549 29.629 29.664 29.696 29.776 29.819 29.916 29.956 29.976 30.026 30.064 30.081 30.064 30.096 30.139 30.156 30.161 30.254 30.594 30.934 30.884 30.829 30.839 30.821 30.956 31.001 30.969 30.909 30.881 30.846 30.849 30.869 30.814 30.806 30.774 30.786 30.796 30.784 30.796 30.814 30.799 30.816 30.849 30.856 30.864 30.886 30.929 30.941 30.979 30.986 30.986 31.034 31.049 31.064 31.099 31.124 31.156 31.194 31.249 31.251 31.274 31.261 31.276 31.309 31.364 31.386 31.416 31.444 31.461 31.494 31.474 31.519 31.559 31.566 31.596 31.606 31.604 31.619 31.641 31.646 31.619 31.626 31.649 31.676 31.664 31.681 31.684 31.729 31.731 31.751 31.776 31.761 31.764 31.764 31.779 31.796 31.826 31.801 31.846 31.846 31.871 31.899 31.921 31.944 31.964 31.989 32.009 32.056 32.121 32.174 32.226 32.351 32.354 32.376 32.476 32.511 32.469 32.496 32.544 32.509 32.526 32.581 32.601 32.614 32.744 32.909 32.976 32.974 33.009 33.014 32.981 32.959 32.984 33.039 33.096 33.134 33.184 33.256
31.012 31.002 31.029 31.049 31.087 31.047 31.019 31.032 31.062 31.057 31.077 31.079 31.104 31.094 31.097 31.109 31.164 31.179 31.132 31.092 31.047 31.074 31.094 31.104 31.102 31.079 31.034 30.964 30.897 30.792 30.712 30.632 30.544 30.434 30.354 30.242 30.132 30.039 29.952 29.899 29.874 29.859 29.859 29.914 29.892 29.849 29.844 29.722 29.627 29.582 29.457 29.419 29.372 29.277 29.187 29.114 29.039 29.049 29.002 28.949 28.942 28.927 28.897 28.827 28.739 28.694 28.689 28.729 28.734 28.752 28.737 28.732 28.752 28.772 28.864 28.877 28.892 29.009 29.042 29.072 29.102 29.127 29.157 29.189 29.227 29.269 29.277 29.299 29.294 29.307 29.329 29.354 29.437 29.429 29.434 29.429 29.402 29.379 29.389 29.402 29.422 29.424 29.424 29.454 29.472 29.459 29.449 29.477 29.467 29.442 29.469 29.469 29.439 29.454 29.492 29.494 29.494 29.494 29.487 29.457 29.429 29.422 29.459 29.447 29.479 29.484 29.537 29.527 29.572 29.614 29.624 29.597 29.599 29.612 29.609 29.634 29.667 29.667 29.622 29.697 30.009 30.052 30.032 30.004 30.022 30.014 30.037 30.054 30.069 30.002 30.007 29.959 29.937 29.919 29.939 30.112 30.164 29.984 29.952 29.959 29.977 29.972 29.997 29.984 30.039 30.039 30.019 30.044 30.084 30.142 30.264 30.324 30.442 30.522 30.514 30.504 30.504 30.539 30.556 30.711 30.779 30.751 30.684 30.664 30.601 30.501 30.459 30.389 30.346 30.336 30.286 30.249 30.219 30.199 30.156 30.114 30.079 30.044 29.994 29.926 29.891 29.891 29.886 29.826 29.794 29.771 29.736 29.711 29.666 29.659 29.641 29.646 29.604 29.546 29.611 29.591 29.556 29.556 29.549 29.536 29.549 29.551 29.516 29.564 29.441 29.414 29.441 29.294 29.119 29.066 28.831 28.641 28.591 28.379 28.274 28.141 28.024 27.886 27.794 27.736 27.689 27.701 27.684 27.681 27.659 27.691 27.686 27.669 27.636 27.651 27.679 27.739 27.864 28.004 28.131 28.179 28.134 27.746 27.189 26.799 26.954 27.679 28.304 28.569 28.561 28.531 28.526 28.556 28.579 28.629 28.696 28.701 28.699 28.789 28.894 28.939 28.976 29.041 29.086 29.139 29.236 29.271 29.316 29.356 29.356 29.404 29.454 29.486 29.544 29.611 29.646 29.699 29.771 29.821 29.899 29.936 29.981 30.031 30.086 30.114 30.101 30.099 30.106 30.144 30.166 30.191 30.409 30.756 30.999 30.881 30.881 30.881 30.869 30.931 31.024 30.924 30.864 30.814 30.834 30.814 30.801 30.774 30.769 30.761 30.769 30.741 30.744 30.759 30.774 30.796 30.819 30.831 30.851 30.876 30.929 30.954 30.936 30.954 30.971 30.986 31.029 31.066 31.086 31.114 31.131 31.179 31.236 31.211 31.251 31.251 31.271 31.316 31.339 31.369 31.399 31.436 31.421 31.439 31.451 31.479 31.504 31.541 31.534 31.536 31.556 31.554 31.554 31.566 31.586 31.599 31.626 31.651 31.656 31.646 31.656 31.684 31.719 31.759 31.774 31.784 31.786 31.791 31.771 31.794 31.824 31.789 31.859 31.874 31.904 31.941 31.954 31.944 31.959 32.001 32.046 32.109 32.176 32.249 32.436 32.516 32.426 32.436 32.451 32.499 32.464 32.504 32.531 32.516 32.531 32.589 32.694 32.791 32.911 32.909 32.949 32.966 32.964 32.979 33.019 32.989 33.014 33.089 33.116 33.186 33.221 33.294
31.102 31.089 31.102 31.142 31.159 31.147 31.142 31.144 31.172 31.222 31.214 31.194 31.202 31.129 31.084 31.094 31.142 31.202 31.159 31.119 31.087 31.092 31.124 31.127 31.107 31.052 30.967 30.869 30.767 30.709 30.567 30.459 30.349 30.237 30.129 30.079 29.989 29.892 29.794 29.764 29.747 29.762 29.772 29.834 29.844 29.807 29.759 29.679 29.582 29.539 29.454 29.369 29.342 29.294 29.192 29.099 29.049 29.029 28.954 28.924 28.924 28.899 28.877 28.842 28.759 28.707 28.699 28.712 28.707 28.667 28.714 28.714 28.752 28.712 28.809 28.847 28.854 28.977 29.012 29.049 29.092 29.137 29.184 29.232 29.267 29.292 29.267 29.222 29.242 29.299 29.334 29.359 29.402 29.404 29.404 29.409 29.392 29.369 29.382 29.392 29.407 29.422 29.422 29.452 29.457 29.447 29.432 29.429 29.434 29.457 29.494 29.484 29.472 29.504 29.509 29.514 29.514 29.514 29.512 29.487 29.454 29.429 29.452 29.524 29.492 29.504 29.534 29.622 29.604 29.597 29.614 29.614 29.587 29.662 29.689 29.687 29.622 29.617 29.597 29.694 29.847 30.042 30.049 29.964 29.974 29.972 30.039 30.069 30.072 30.067 30.032 30.019 30.027 29.944 29.927 29.894 29.937 29.917 29.942 29.967 29.974 29.959 30.004 30.004 30.072 30.082 30.047 30.094 30.154 30.137 30.137 30.272 30.417 30.454 30.482 30.452 30.494 30.479 30.639 30.959 30.916 30.871 30.879 30.749 30.626 30.586 30.509 30.426 30.406 30.399 30.336 30.314 30.174 30.139 30.201 30.181 30.106 30.121 30.096 30.034 29.976 29.964 29.964 29.911 29.824 29.844 29.831 29.791 29.756 29.691 29.671 29.689 29.634 29.596 29.586 29.531 29.491 29.554 29.546 29.521 29.434 29.376 29.319 29.206 29.119 28.969 28.896 28.791 28.621 28.579 28.511 28.431 28.379 28.314 28.209 28.114 27.979 27.901 27.834 27.734 27.681 27.656 27.691 27.726 27.699 27.664 27.654 27.644 27.631 27.661 27.694 27.739 27.871 28.049 28.174 28.216 28.176 27.781 27.151 26.739 26.919 27.719 28.419 28.646 28.579 28.576 28.596 28.581 28.611 28.646 28.701 28.696 28.734 28.841 28.904 28.966 29.001 29.059 29.109 29.166 29.206 29.269 29.329 29.354 29.364 29.424 29.489 29.509 29.534 29.596 29.626 29.684 29.716 29.806 29.869 29.909 29.949 30.014 30.081 30.099 30.124 30.124 30.149 30.164 30.204 30.199 30.254 30.534 30.886 30.971 30.894 30.854 30.829 30.871 30.964 30.936 30.861 30.804 30.784 30.786 30.764 30.746 30.731 30.726 30.681 30.704 30.731 30.724 30.761 30.766 30.776 30.794 30.844 30.866 30.879 30.916 30.931 30.954 30.954 30.959 31.014 31.081 31.066 31.104 31.141 31.164 31.179 31.211 31.241 31.259 31.301 31.304 31.314 31.331 31.396 31.406 31.394 31.409 31.414 31.434 31.444 31.454 31.454 31.476 31.491 31.504 31.509 31.501 31.496 31.551 31.601 31.601 31.609 31.639 31.651 31.694 31.734 31.751 31.779 31.791 31.794 31.806 31.819 31.819 31.819 31.854 31.861 31.896 31.939 31.939 31.944 31.936 31.974 32.034 32.096 32.169 32.244 32.346 32.459 32.444 32.434 32.454 32.424 32.466 32.491 32.594 32.604 32.561 32.614 32.656 32.756 32.791 32.859 32.896 32.909 32.926 32.976 32.991 33.016 33.014 33.031 33.106 33.134 33.214 33.276 33.326
31.219 31.247 31.284 31.304 31.297 31.279 31.274 31.257 31.262 31.272 31.269 31.249 31.212 31.169 31.112 31.077 31.124 31.202 31.187 31.154 31.112 31.094 31.107 31.127 31.084 30.997 30.902 30.822 30.732 30.609 30.484 30.337 30.239 30.104 29.992 29.937 29.829 29.774 29.682 29.679 29.664 29.662 29.724 29.752 29.794 29.764 29.682 29.637 29.552 29.497 29.427 29.332 29.304 29.229 29.182 29.119 29.064 29.022 28.972 28.924 28.867 28.857 28.842 28.812 28.762 28.709 28.717 28.707 28.707 28.709 28.699 28.704 28.649 28.552 28.754 28.794 28.814 29.037 29.087 29.137 29.187 29.227 29.242 29.252 29.259 29.254 29.234 29.232 29.247 29.294 29.317 29.327 29.354 29.374 29.384 29.384 29.377 29.357 29.372 29.382 29.394 29.422 29.419 29.447 29.442 29.429 29.427 29.434 29.449 29.484 29.517 29.504 29.514 29.524 29.529 29.534 29.534 29.534 29.534 29.517 29.482 29.452 29.424 29.494 29.489 29.492 29.512 29.492 29.564 29.554 29.524 29.602 29.574 29.637 29.694 29.677 29.669 29.652 29.634 29.727 29.939 30.052 30.042 29.994 29.992 29.979 30.077 30.059 30.049 30.037 30.022 30.064 30.042 29.962 29.897 29.904 29.914 29.949 29.972 29.962 29.979 29.969 29.974 30.017 30.029 30.047 30.054 30.114 30.159 30.164 30.139 30.249 30.364 30.429 30.442 30.457 30.441 30.461 30.599 30.864 30.814 30.829 30.879 30.749 30.694 30.696 30.601 30.454 30.479 30.456 30.306 30.336 30.106 30.011 30.086 30.151 30.099 30.036 30.029 30.001 29.924 29.921 29.949 29.919 29.886 29.859 29.676 29.599 29.606 29.551 29.541 29.494 29.266 29.216 29.266 29.176 28.979 28.974 28.939 28.834 28.784 28.709 28.744 28.676 28.664 28.581 28.569 28.514 28.451 28.419 28.371 28.304 28.264 28.211 28.161 28.046 27.966 27.911 27.851 27.769 27.699 27.691 27.734 27.724 27.679 27.664 27.634 27.641 27.624 27.646 27.651 27.739 27.881 28.039 28.164 28.204 28.214 27.826 27.096 26.689 26.944 27.921 28.611 28.664 28.609 28.599 28.599 28.616 28.606 28.646 28.701 28.721 28.769 28.816 28.886 28.936 28.974 29.031 29.111 29.169 29.239 29.269 29.316 29.349 29.386 29.429 29.474 29.516 29.541 29.609 29.641 29.681 29.729 29.756 29.831 29.914 29.941 30.029 30.111 30.104 30.129 30.181 30.179 30.176 30.191 30.251 30.244 30.366 30.684 30.904 30.899 30.891 30.859 30.856 30.891 30.869 30.859 30.811 30.746 30.739 30.729 30.724 30.709 30.684 30.684 30.666 30.681 30.729 30.724 30.741 30.756 30.784 30.804 30.841 30.854 30.891 30.906 30.929 30.949 30.964 31.024 31.059 31.121 31.111 31.124 31.159 31.194 31.226 31.269 31.279 31.306 31.304 31.346 31.331 31.364 31.364 31.346 31.376 31.364 31.376 31.401 31.406 31.394 31.414 31.424 31.444 31.444 31.476 31.479 31.524 31.561 31.566 31.576 31.631 31.656 31.669 31.724 31.776 31.784 31.804 31.816 31.796 31.804 31.826 31.824 31.859 31.896 31.896 31.911 31.949 31.931 31.944 32.009 32.084 32.181 32.271 32.339 32.374 32.361 32.389 32.394 32.404 32.394 32.484 32.546 32.614 32.699 32.714 32.729 32.736 32.766 32.789 32.816 32.859 32.869 32.911 32.986 33.051 33.081 33.094 33.109 33.126 33.194 33.206 33.296 33.364
31.309 31.347 31.382 31.389 31.364 31.344 31.329 31.294 31.267 31.282 31.287 31.262 31.209 31.157 31.097 31.039 31.097 31.179 31.192 31.189 31.132 31.129 31.144 31.127 31.027 30.939 30.859 30.774 30.679 30.539 30.382 30.257 30.132 30.022 29.907 29.879 29.809 29.719 29.649 29.617 29.604 29.647 29.667 29.724 29.744 29.707 29.639 29.602 29.549 29.482 29.417 29.364 29.279 29.247 29.174 29.127 29.059 28.982 28.932 28.899 28.852 28.824 28.772 28.762 28.729 28.717 28.689 28.709 28.712 28.694 28.714 28.699 28.677 28.709 28.794 28.809 28.752 29.104 29.184 29.204 29.204 29.202 29.214 29.229 29.234 29.212 29.257 29.194 29.177 29.222 29.232 29.264 29.337 29.332 29.347 29.362 29.362 29.347 29.357 29.367 29.382 29.412 29.414 29.437 29.429 29.424 29.452 29.452 29.457 29.469 29.504 29.529 29.534 29.544 29.547 29.554 29.554 29.554 29.554 29.544 29.512 29.482 29.452 29.442 29.457 29.469 29.449 29.444 29.439 29.437 29.419 29.487 29.539 29.619 29.692 29.654 29.674 29.614 29.622 29.697 29.869 29.962 30.014 29.994 30.012 30.007 30.062 30.052 30.037 30.024 30.017 30.049 30.027 29.947 29.877 29.884 29.837 29.919 29.937 29.912 29.979 29.989 30.009 29.994 29.977 30.064 30.067 30.134 30.169 30.142 30.137 30.157 30.254 30.422 30.414 30.412 30.399 30.401 30.496 30.489 30.436 30.401 30.469 30.551 30.559 30.596 30.589 30.464 30.451 30.479 30.404 30.369 30.104 29.916 29.896 29.826 29.794 29.741 29.714 29.671 29.564 29.596 29.521 29.539 29.466 29.541 29.119 29.111 29.061 28.966 28.881 28.754 28.501 28.516 28.466 28.474 28.364 28.346 28.299 28.301 28.334 28.389 28.456 28.471 28.456 28.444 28.426 28.421 28.404 28.371 28.331 28.276 28.231 28.194 28.069 28.081 28.031 27.961 27.884 27.764 27.714 27.704 27.731 27.689 27.654 27.639 27.629 27.636 27.594 27.609 27.646 27.716 27.859 28.029 28.129 28.149 28.096 27.804 26.979 26.689 27.099 28.111 28.706 28.679 28.614 28.611 28.611 28.604 28.626 28.659 28.676 28.734 28.776 28.839 28.921 28.976 29.016 29.084 29.124 29.169 29.236 29.301 29.326 29.349 29.386 29.406 29.454 29.511 29.551 29.589 29.634 29.676 29.721 29.766 29.811 29.891 29.956 30.044 30.071 30.084 30.144 30.196 30.176 30.206 30.211 30.269 30.256 30.316 30.546 30.666 30.866 30.886 30.851 30.849 30.831 30.846 30.896 30.834 30.749 30.729 30.704 30.696 30.714 30.689 30.706 30.701 30.671 30.674 30.691 30.744 30.751 30.781 30.769 30.814 30.841 30.864 30.886 30.919 30.961 31.004 31.031 31.064 31.084 31.104 31.126 31.179 31.179 31.236 31.264 31.274 31.274 31.316 31.319 31.311 31.301 31.344 31.349 31.344 31.314 31.306 31.361 31.326 31.376 31.384 31.376 31.386 31.409 31.439 31.449 31.501 31.534 31.561 31.561 31.599 31.654 31.686 31.726 31.759 31.784 31.784 31.794 31.789 31.804 31.804 31.846 31.861 31.869 31.864 31.904 31.939 31.986 32.016 32.156 32.209 32.236 32.271 32.341 32.334 32.331 32.366 32.379 32.411 32.456 32.561 32.676 32.699 32.734 32.736 32.741 32.744 32.774 32.779 32.786 32.829 32.889 32.936 33.016 33.071 33.116 33.169 33.196 33.206 33.204 33.254 33.324 33.409
31.369 31.377 31.392 31.369 31.327 31.317 31.312 31.289 31.282 31.269 31.229 31.209 31.189 31.102 31.059 31.047 31.084 31.164 31.187 31.139 31.129 31.114 31.109 31.062 30.994 30.907 30.817 30.699 30.604 30.464 30.327 30.187 30.062 29.959 29.859 29.837 29.779 29.717 29.637 29.622 29.604 29.622 29.647 29.709 29.737 29.687 29.647 29.617 29.542 29.494 29.434 29.337 29.259 29.219 29.139 29.109 29.034 28.992 28.902 28.854 28.829 28.784 28.742 28.727 28.707 28.709 28.707 28.682 28.679 28.689 28.727 28.694 28.672 28.702 28.769 28.804 28.802 29.022 29.154 29.154 29.169 29.179 29.194 29.207 29.197 29.212 29.199 29.147 29.144 29.169 29.189 29.227 29.384 29.354 29.344 29.337 29.339 29.337 29.347 29.354 29.369 29.397 29.419 29.427 29.422 29.464 29.467 29.464 29.474 29.482 29.487 29.529 29.562 29.564 29.564 29.574 29.574 29.574 29.574 29.569 29.542 29.512 29.477 29.444 29.467 29.489 29.494 29.489 29.487 29.479 29.524 29.542 29.624 29.667 29.674 29.674 29.654 29.582 29.614 29.684 29.789 29.919 29.949 29.939 29.969 29.982 30.032 30.054 30.064 30.062 30.022 30.034 30.014 29.967 29.912 29.912 29.922 29.914 29.942 29.942 29.989 29.999 30.019 30.014 30.042 30.054 30.087 30.139 30.164 30.167 30.132 30.152 30.282 30.434 30.404 30.409 30.401 30.294 30.319 30.314 30.339 30.296 30.304 30.331 30.489 30.519 30.531 30.441 30.391 30.429 30.399 30.336 30.089 29.856 29.849 29.784 29.686 29.626 29.499 29.416 29.351 29.316 29.199 29.164 29.056 29.001 28.911 28.824 28.719 28.689 28.554 28.471 28.391 28.351 28.289 28.219 28.159 28.156 28.186 28.201 28.244 28.286 28.346 28.406 28.419 28.381 28.386 28.374 28.321 28.334 28.286 28.254 28.224 28.216 28.161 28.164 28.074 27.971 27.884 27.769 27.734 27.684 27.679 27.659 27.639 27.624 27.634 27.611 27.579 27.579 27.611 27.719 27.861 28.004 28.109 28.086 28.041 27.854 26.931 26.849 27.314 28.151 28.744 28.699 28.654 28.669 28.634 28.611 28.609 28.669 28.716 28.744 28.751 28.846 28.904 28.986 29.031 29.084 29.141 29.186 29.236 29.294 29.329 29.366 29.389 29.431 29.466 29.484 29.529 29.561 29.604 29.656 29.711 29.779 29.816 29.864 29.919 29.974 30.044 30.094 30.144 30.156 30.169 30.224 30.266 30.274 30.264 30.261 30.321 30.584 30.886 30.929 30.859 30.851 30.836 30.824 30.891 30.854 30.764 30.719 30.691 30.681 30.701 30.689 30.696 30.656 30.631 30.661 30.684 30.729 30.721 30.744 30.744 30.776 30.804 30.839 30.876 30.914 30.959 30.989 31.019 31.054 31.101 31.141 31.159 31.186 31.179 31.211 31.241 31.246 31.264 31.281 31.276 31.294 31.289 31.294 31.319 31.299 31.294 31.299 31.309 31.304 31.319 31.324 31.341 31.339 31.381 31.396 31.421 31.441 31.494 31.541 31.581 31.594 31.641 31.669 31.739 31.759 31.746 31.751 31.769 31.781 31.791 31.804 31.806 31.831 31.859 31.866 31.926 31.971 32.009 32.114 32.214 32.324 32.259 32.284 32.304 32.316 32.329 32.374 32.384 32.409 32.491 32.569 32.754 32.736 32.699 32.711 32.704 32.719 32.736 32.774 32.799 32.851 32.896 32.951 33.044 33.119 33.144 33.189 33.274 33.276 33.221 33.266 33.334 33.384
31.364 31.349 31.332 31.307 31.307 31.294 31.277 31.259 31.237 31.217 31.189 31.149 31.132 31.084 31.039 31.039 31.097 31.144 31.174 31.187 31.154 31.102 31.049 31.022 30.982 30.887 30.794 30.687 30.554 30.429 30.284 30.139 30.019 29.919 29.854 29.799 29.739 29.669 29.619 29.564 29.579 29.579 29.587 29.634 29.654 29.682 29.634 29.559 29.527 29.464 29.419 29.332 29.269 29.207 29.124 29.059 28.989 28.944 28.892 28.849 28.799 28.744 28.714 28.682 28.692 28.662 28.687 28.667 28.654 28.662 28.674 28.672 28.657 28.629 28.714 28.814 28.797 28.854 29.004 29.119 29.149 29.159 29.174 29.179 29.164 29.194 29.167 29.147 29.144 29.147 29.202 29.267 29.427 29.409 29.382 29.374 29.364 29.342 29.349 29.342 29.357 29.384 29.409 29.419 29.469 29.487 29.484 29.484 29.489 29.492 29.467 29.512 29.599 29.599 29.584 29.594 29.594 29.594 29.594 29.594 29.572 29.537 29.472 29.472 29.487 29.509 29.542 29.542 29.542 29.507 29.544 29.562 29.699 29.817 29.672 29.662 29.632 29.587 29.612 29.709 29.804 29.894 29.924 29.909 29.927 29.939 29.979 30.012 30.044 30.047 30.039 30.024 30.007 29.972 29.904 29.892 29.939 29.934 29.944 29.939 29.994 30.052 30.082 30.077 30.099 30.109 30.109 30.137 30.192 30.162 30.139 30.139 30.279 30.414 30.369 30.414 30.369 30.311 30.294 30.319 30.314 30.276 30.274 30.339 30.446 30.464 30.474 30.419 30.349 30.376 30.354 30.351 30.079 29.839 29.829 29.829 29.729 29.621 29.549 29.471 29.396 29.339 29.249 29.179 29.041 28.959 28.886 28.804 28.676 28.639 28.551 28.456 28.326 28.256 28.176 28.099 28.071 28.086 28.124 28.124 28.201 28.234 28.324 28.356 28.396 28.421 28.429 28.396 28.364 28.394 28.336 28.269 28.271 28.251 28.159 28.104 28.059 27.981 27.881 27.784 27.714 27.701 27.671 27.654 27.614 27.621 27.621 27.596 27.589 27.589 27.599 27.704 27.801 27.969 28.104 28.109 28.019 27.749 26.751 26.839 27.409 28.164 28.686 28.666 28.661 28.686 28.649 28.601 28.619 28.654 28.719 28.741 28.779 28.829 28.906 29.014 29.044 29.069 29.104 29.166 29.234 29.284 29.311 29.346 29.359 29.404 29.449 29.506 29.549 29.561 29.609 29.704 29.721 29.781 29.816 29.859 29.926 29.986 30.029 30.106 30.159 30.186 30.191 30.219 30.249 30.229 30.251 30.291 30.256 30.446 30.794 30.969 30.894 30.869 30.876 30.846 30.851 30.879 30.851 30.764 30.684 30.674 30.679 30.661 30.669 30.671 30.639 30.619 30.659 30.666 30.666 30.721 30.769 30.746 30.781 30.824 30.856 30.921 30.946 30.974 31.016 31.071 31.109 31.146 31.171 31.194 31.184 31.201 31.201 31.211 31.241 31.256 31.239 31.256 31.244 31.249 31.264 31.276 31.266 31.269 31.281 31.271 31.301 31.294 31.311 31.329 31.356 31.384 31.404 31.444 31.489 31.544 31.581 31.581 31.631 31.684 31.716 31.736 31.744 31.759 31.786 31.796 31.811 31.819 31.824 31.821 31.881 31.889 31.974 32.024 32.111 32.216 32.279 32.276 32.234 32.296 32.284 32.304 32.364 32.411 32.454 32.501 32.556 32.574 32.626 32.649 32.684 32.674 32.689 32.676 32.724 32.794 32.829 32.861 32.929 33.026 33.081 33.136 33.164 33.204 33.261 33.299 33.259 33.311 33.376 33.439
31.309 31.292 31.284 31.264 31.247 31.234 31.214 31.197 31.182 31.192 31.162 31.112 31.069 31.099 31.067 31.064 31.097 31.134 31.184 31.214 31.159 31.119 31.022 31.007 30.929 30.837 30.737 30.642 30.524 30.377 30.229 30.074 29.947 29.872 29.837 29.769 29.704 29.624 29.559 29.544 29.517 29.522 29.512 29.544 29.592 29.622 29.554 29.509 29.497 29.457 29.397 29.329 29.242 29.182 29.097 29.029 28.974 28.922 28.884 28.849 28.777 28.734 28.724 28.692 28.704 28.692 28.672 28.679 28.687 28.699 28.679 28.697 28.652 28.694 28.744 28.794 28.792 28.814 28.857 28.932 29.049 29.129 29.152 29.144 29.152 29.172 29.142 29.112 29.134 29.154 29.199 29.232 29.377 29.369 29.359 29.359 29.349 29.344 29.367 29.354 29.329 29.349 29.389 29.449 29.502 29.514 29.509 29.499 29.484 29.457 29.444 29.474 29.567 29.662 29.639 29.617 29.614 29.614 29.614 29.614 29.597 29.524 29.492 29.502 29.512 29.524 29.589 29.599 29.589 29.537 29.552 29.544 29.692 29.759 29.599 29.629 29.634 29.549 29.559 29.649 29.744 29.902 29.917 29.899 29.952 29.929 29.997 30.024 30.009 29.989 29.989 29.984 29.984 29.947 29.914 29.884 29.912 29.912 29.939 29.987 29.999 30.059 30.099 30.097 30.139 30.134 30.172 30.194 30.197 30.207 30.192 30.192 30.287 30.382 30.362 30.414 30.306 30.321 30.341 30.334 30.294 30.286 30.279 30.344 30.369 30.399 30.416 30.391 30.319 30.319 30.324 30.391 30.114 29.874 29.844 29.789 29.711 29.654 29.571 29.536 29.471 29.391 29.276 29.156 29.066 28.976 28.906 28.819 28.679 28.579 28.481 28.376 28.294 28.201 28.099 28.076 28.086 28.111 28.126 28.159 28.241 28.279 28.351 28.426 28.506 28.496 28.479 28.434 28.396 28.399 28.359 28.309 28.294 28.209 28.166 28.081 28.039 27.964 27.856 27.769 27.684 27.646 27.624 27.626 27.594 27.599 27.609 27.596 27.619 27.594 27.641 27.714 27.824 27.994 28.086 28.074 28.011 27.544 26.844 26.814 27.536 28.116 28.586 28.696 28.666 28.684 28.626 28.584 28.614 28.689 28.724 28.754 28.779 28.851 28.879 28.971 29.021 29.086 29.139 29.196 29.239 29.274 29.331 29.346 29.394 29.436 29.451 29.484 29.516 29.549 29.611 29.679 29.706 29.766 29.801 29.859 29.914 29.971 30.034 30.119 30.176 30.169 30.254 30.259 30.241 30.231 30.256 30.271 30.259 30.329 30.561 30.844 30.951 30.929 30.869 30.864 30.846 30.889 30.921 30.786 30.714 30.684 30.656 30.629 30.646 30.616 30.626 30.604 30.611 30.649 30.656 30.676 30.699 30.721 30.791 30.814 30.851 30.914 30.969 30.999 31.019 31.101 31.121 31.144 31.144 31.161 31.146 31.141 31.154 31.206 31.244 31.256 31.244 31.216 31.224 31.234 31.234 31.206 31.231 31.224 31.236 31.226 31.266 31.284 31.286 31.299 31.334 31.351 31.394 31.429 31.464 31.519 31.559 31.579 31.609 31.666 31.706 31.721 31.749 31.786 31.776 31.791 31.801 31.821 31.884 31.906 31.936 32.031 32.146 32.119 32.144 32.211 32.231 32.241 32.244 32.266 32.276 32.369 32.456 32.501 32.519 32.569 32.566 32.554 32.591 32.614 32.626 32.654 32.676 32.701 32.731 32.781 32.876 32.936 32.971 33.034 33.096 33.149 33.189 33.234 33.304 33.314 33.316 33.321 33.394 33.449
31.259 31.227 31.217 31.189 31.162 31.162 31.144 31.154 31.152 31.122 31.104 31.132 31.112 31.109 31.089 31.084 31.109 31.129 31.174 31.209 31.142 31.079 31.009 30.954 30.874 30.764 30.664 30.577 30.447 30.304 30.147 30.017 29.894 29.804 29.777 29.719 29.654 29.582 29.507 29.479 29.484 29.464 29.437 29.457 29.492 29.489 29.487 29.479 29.467 29.462 29.412 29.337 29.277 29.204 29.134 29.064 28.992 28.954 28.924 28.852 28.799 28.774 28.759 28.727 28.697 28.737 28.744 28.687 28.719 28.709 28.722 28.732 28.684 28.702 28.752 28.794 28.794 28.832 28.872 28.912 28.957 28.999 29.062 29.084 29.119 29.139 29.119 29.107 29.154 29.189 29.222 29.247 29.274 29.269 29.267 29.262 29.289 29.309 29.317 29.299 29.279 29.272 29.329 29.392 29.464 29.522 29.567 29.589 29.559 29.429 29.389 29.434 29.452 29.554 29.647 29.672 29.574 29.524 29.527 29.532 29.542 29.514 29.509 29.517 29.527 29.537 29.617 29.634 29.624 29.557 29.547 29.509 29.612 29.642 29.562 29.579 29.597 29.552 29.554 29.629 29.724 29.862 29.892 29.929 29.899 29.932 29.989 29.974 29.957 29.929 29.937 29.934 29.932 29.954 29.924 29.882 29.902 29.914 29.944 30.019 30.012 29.999 30.032 30.082 30.134 30.157 30.169 30.217 30.232 30.234 30.224 30.197 30.304 30.387 30.377 30.362 30.319 30.311 30.331 30.346 30.309 30.274 30.296 30.329 30.361 30.331 30.349 30.349 30.299 30.256 30.221 30.051 29.946 29.921 29.869 29.801 29.759 29.694 29.631 29.586 29.526 29.441 29.341 29.214 29.114 29.011 28.941 28.811 28.681 28.596 28.489 28.354 28.251 28.154 28.094 28.049 28.094 28.174 28.209 28.284 28.339 28.391 28.456 28.481 28.544 28.531 28.524 28.466 28.424 28.406 28.351 28.311 28.251 28.159 28.154 28.046 27.994 27.896 27.801 27.749 27.669 27.629 27.611 27.576 27.589 27.586 27.606 27.624 27.624 27.626 27.636 27.711 27.846 27.989 28.101 28.051 27.951 27.449 26.824 26.964 27.674 28.189 28.609 28.684 28.651 28.669 28.601 28.589 28.601 28.649 28.726 28.756 28.776 28.839 28.879 28.981 29.036 29.099 29.144 29.164 29.231 29.301 29.314 29.326 29.389 29.419 29.456 29.499 29.529 29.564 29.626 29.661 29.671 29.746 29.804 29.869 29.909 29.986 30.036 30.101 30.141 30.161 30.231 30.286 30.251 30.239 30.259 30.276 30.281 30.289 30.441 30.699 30.904 30.966 30.884 30.864 30.831 30.836 30.854 30.839 30.754 30.706 30.644 30.639 30.616 30.621 30.604 30.579 30.586 30.606 30.619 30.651 30.674 30.724 30.779 30.799 30.871 30.926 30.971 31.004 31.064 31.091 31.111 31.144 31.156 31.156 31.139 31.136 31.169 31.174 31.206 31.224 31.209 31.211 31.206 31.206 31.186 31.189 31.196 31.196 31.209 31.204 31.236 31.271 31.244 31.266 31.314 31.361 31.379 31.421 31.446 31.486 31.566 31.589 31.619 31.651 31.671 31.729 31.744 31.741 31.759 31.776 31.804 31.846 31.924 31.986 32.101 32.119 32.179 32.151 32.161 32.221 32.251 32.251 32.274 32.256 32.286 32.374 32.536 32.579 32.549 32.534 32.539 32.579 32.574 32.606 32.674 32.681 32.721 32.751 32.799 32.866 32.891 32.951 32.999 33.046 33.114 33.151 33.209 33.251 33.314 33.379 33.416 33.361 33.384 33.436
31.167 31.139 31.129 31.102 31.104 31.107 31.084 31.094 31.097 31.094 31.117 31.134 31.112 31.127 31.107 31.094 31.092 31.109 31.139 31.167 31.132 31.042 30.992 30.869 30.749 30.649 30.587 30.484 30.337 30.197 30.084 29.934 29.839 29.777 29.709 29.654 29.617 29.569 29.514 29.432 29.427 29.437 29.412 29.392 29.414 29.392 29.404 29.412 29.442 29.457 29.417 29.379 29.297 29.237 29.157 29.089 29.019 28.967 28.922 28.844 28.829 28.784 28.767 28.732 28.697 28.727 28.732 28.694 28.719 28.669 28.679 28.697 28.687 28.639 28.692 28.737 28.799 28.822 28.837 28.889 28.949 29.009 29.039 29.064 29.072 29.097 29.117 29.162 29.189 29.212 29.202 29.249 29.267 29.257 29.242 29.212 29.229 29.249 29.234 29.239 29.219 29.227 29.259 29.324 29.404 29.472 29.522 29.572 29.559 29.462 29.364 29.414 29.437 29.519 29.614 29.634 29.537 29.444 29.402 29.439 29.477 29.512 29.504 29.504 29.504 29.514 29.519 29.517 29.569 29.549 29.544 29.539 29.607 29.604 29.559 29.527 29.552 29.557 29.507 29.562 29.659 29.787 29.889 29.937 29.849 29.904 29.919 29.917 29.904 29.872 29.884 29.884 29.889 29.919 29.877 29.872 29.927 29.992 29.989 30.012 30.002 30.009 30.064 30.044 30.052 30.097 30.099 30.137 30.104 30.152 30.192 30.197 30.232 30.362 30.337 30.334 30.281 30.289 30.346 30.334 30.331 30.329 30.311 30.319 30.236 30.274 30.186 30.131 30.039 30.026 30.074 30.039 30.116 30.004 29.889 29.819 29.781 29.754 29.721 29.656 29.601 29.459 29.381 29.254 29.161 29.049 28.936 28.794 28.674 28.561 28.441 28.349 28.211 28.121 28.104 28.046 28.124 28.191 28.249 28.286 28.376 28.454 28.474 28.526 28.551 28.576 28.551 28.541 28.509 28.406 28.314 28.281 28.226 28.141 28.106 27.991 27.916 27.856 27.749 27.711 27.629 27.581 27.591 27.566 27.556 27.566 27.606 27.609 27.626 27.624 27.659 27.736 27.861 28.011 28.094 28.009 27.909 27.281 26.764 27.116 27.761 28.281 28.629 28.679 28.704 28.696 28.616 28.624 28.604 28.704 28.714 28.749 28.781 28.836 28.889 28.986 29.034 29.104 29.144 29.191 29.246 29.306 29.316 29.346 29.396 29.424 29.449 29.491 29.491 29.561 29.614 29.616 29.649 29.709 29.799 29.861 29.929 29.981 30.031 30.066 30.101 30.156 30.196 30.236 30.214 30.234 30.246 30.269 30.301 30.299 30.306 30.464 30.729 30.991 30.959 30.861 30.851 30.831 30.794 30.804 30.796 30.716 30.666 30.641 30.614 30.594 30.601 30.606 30.591 30.571 30.611 30.624 30.664 30.716 30.766 30.816 30.869 30.916 30.959 31.029 31.041 31.094 31.121 31.129 31.124 31.136 31.126 31.119 31.126 31.139 31.166 31.179 31.181 31.164 31.176 31.169 31.174 31.171 31.154 31.184 31.181 31.191 31.204 31.226 31.239 31.259 31.314 31.336 31.379 31.401 31.451 31.486 31.529 31.569 31.609 31.666 31.691 31.726 31.744 31.729 31.741 31.781 31.859 31.936 32.049 32.104 32.176 32.126 32.134 32.139 32.196 32.224 32.226 32.244 32.299 32.339 32.336 32.396 32.464 32.466 32.494 32.534 32.556 32.589 32.586 32.619 32.679 32.714 32.784 32.826 32.841 32.884 32.921 32.974 33.019 33.059 33.114 33.174 33.234 33.286 33.321 33.339 33.391 33.441 33.409 33.424
31.104 31.092 31.064 31.087 31.089 31.089 31.087 31.079 31.089 31.099 31.122 31.122 31.109 31.109 31.087 31.107 31.099 31.077 31.094 31.122 31.082 30.992 30.882 30.764 30.629 30.562 30.509 30.389 30.274 30.129 30.017 29.909 29.829 29.764 29.704 29.662 29.594 29.552 29.504 29.472 29.434 29.404 29.379 29.362 29.329 29.344 29.342 29.379 29.414 29.397 29.402 29.367 29.312 29.224 29.142 29.092 29.042 28.979 28.907 28.867 28.797 28.779 28.739 28.694 28.677 28.699 28.699 28.679 28.694 28.689 28.659 28.689 28.694 28.632 28.714 28.737 28.782 28.827 28.909 28.967 28.992 29.014 29.027 29.049 29.089 29.124 29.157 29.162 29.192 29.219 29.229 29.232 29.244 29.234 29.209 29.157 29.169 29.169 29.149 29.179 29.164 29.202 29.202 29.257 29.344 29.422 29.474 29.494 29.447 29.442 29.389 29.417 29.462 29.539 29.579 29.499 29.454 29.442 29.447 29.484 29.524 29.549 29.494 29.484 29.482 29.442 29.439 29.464 29.552 29.584 29.572 29.557 29.529 29.527 29.514 29.509 29.514 29.512 29.499 29.554 29.637 29.757 29.832 29.849 29.842 29.857 29.824 29.827 29.824 29.817 29.832 29.844 29.847 29.864 29.847 29.829 29.874 29.952 29.972 29.987 29.979 29.984 30.019 30.034 30.029 30.047 30.084 30.067 30.062 30.092 30.122 30.167 30.254 30.307 30.309 30.337 30.279 30.264 30.306 30.304 30.314 30.321 30.311 30.291 30.226 30.239 30.151 30.099 30.066 30.126 30.151 30.126 30.141 29.994 29.869 29.859 29.829 29.801 29.771 29.701 29.644 29.504 29.369 29.276 29.141 29.021 28.909 28.781 28.666 28.529 28.374 28.274 28.129 28.104 28.039 28.044 28.106 28.144 28.271 28.319 28.404 28.489 28.516 28.589 28.569 28.556 28.539 28.529 28.464 28.419 28.316 28.266 28.189 28.109 28.071 27.986 27.914 27.831 27.726 27.639 27.596 27.549 27.579 27.561 27.564 27.564 27.594 27.611 27.624 27.626 27.646 27.721 27.864 28.014 28.084 27.956 27.766 27.054 26.594 27.311 28.061 28.311 28.541 28.716 28.741 28.654 28.639 28.601 28.609 28.681 28.734 28.751 28.771 28.854 28.931 28.994 29.049 29.089 29.161 29.181 29.261 29.284 29.291 29.346 29.396 29.419 29.449 29.516 29.509 29.536 29.581 29.646 29.666 29.714 29.776 29.814 29.924 29.946 30.006 30.069 30.106 30.139 30.164 30.199 30.239 30.264 30.244 30.236 30.269 30.266 30.269 30.284 30.571 30.844 31.039 30.956 30.904 30.859 30.826 30.776 30.801 30.791 30.676 30.634 30.596 30.576 30.556 30.564 30.591 30.579 30.584 30.601 30.654 30.709 30.734 30.801 30.861 30.914 30.969 31.004 31.049 31.081 31.101 31.124 31.124 31.114 31.111 31.109 31.111 31.124 31.134 31.131 31.136 31.156 31.136 31.124 31.144 31.134 31.131 31.176 31.171 31.186 31.209 31.224 31.254 31.271 31.291 31.329 31.351 31.401 31.471 31.516 31.539 31.544 31.594 31.641 31.654 31.669 31.706 31.739 31.806 31.876 31.951 32.054 32.191 32.121 32.079 32.076 32.121 32.171 32.174 32.201 32.234 32.256 32.334 32.389 32.401 32.406 32.419 32.456 32.481 32.519 32.551 32.574 32.626 32.641 32.721 32.779 32.784 32.831 32.849 32.899 32.974 32.989 33.009 33.054 33.124 33.171 33.234 33.269 33.314 33.354 33.411 33.459 33.436 33.456
31.079 31.067 31.052 31.057 31.067 31.052 31.067 31.054 31.072 31.079 31.089 31.112 31.104 31.094 31.084 31.092 31.074 31.039 31.062 31.074 31.022 30.924 30.792 30.682 30.597 30.534 30.482 30.367 30.234 30.102 30.002 29.917 29.819 29.734 29.677 29.632 29.607 29.547 29.504 29.472 29.429 29.382 29.392 29.349 29.319 29.322 29.314 29.302 29.322 29.322 29.322 29.322 29.254 29.182 29.127 29.077 29.004 28.949 28.869 28.827 28.779 28.752 28.712 28.689 28.677 28.674 28.694 28.654 28.682 28.729 28.674 28.689 28.707 28.702 28.757 28.739 28.757 28.819 28.874 28.904 28.924 28.989 29.089 29.114 29.147 29.169 29.224 29.222 29.229 29.227 29.224 29.217 29.212 29.209 29.174 29.112 29.109 29.069 29.069 29.109 29.122 29.172 29.169 29.189 29.277 29.377 29.422 29.379 29.322 29.392 29.422 29.439 29.492 29.539 29.514 29.507 29.497 29.487 29.489 29.529 29.569 29.582 29.534 29.462 29.444 29.372 29.379 29.452 29.524 29.597 29.632 29.612 29.577 29.529 29.502 29.487 29.484 29.519 29.524 29.587 29.672 29.762 29.869 29.917 29.839 29.859 29.824 29.764 29.764 29.789 29.817 29.852 29.854 29.847 29.852 29.854 29.817 29.867 29.919 29.949 29.972 29.982 30.007 30.024 30.037 30.052 30.062 30.087 30.087 30.069 30.072 30.084 30.182 30.257 30.292 30.302 30.274 30.264 30.326 30.271 30.289 30.316 30.299 30.251 30.219 30.216 30.171 30.144 30.091 30.111 30.151 30.134 30.169 30.076 29.939 29.901 29.864 29.846 29.809 29.754 29.646 29.516 29.389 29.279 29.161 29.016 28.866 28.719 28.576 28.479 28.341 28.229 28.104 28.064 28.036 28.024 28.104 28.166 28.236 28.321 28.426 28.509 28.546 28.579 28.574 28.556 28.521 28.534 28.421 28.351 28.321 28.284 28.214 28.089 28.046 27.961 27.869 27.804 27.724 27.601 27.574 27.544 27.564 27.554 27.534 27.551 27.569 27.579 27.606 27.644 27.639 27.739 27.849 28.026 28.066 27.946 27.666 27.099 26.656 27.074 27.964 28.454 28.581 28.714 28.779 28.676 28.634 28.606 28.634 28.681 28.726 28.784 28.769 28.859 28.926 28.966 29.061 29.089 29.139 29.221 29.249 29.266 29.299 29.359 29.396 29.441 29.446 29.509 29.524 29.586 29.601 29.636 29.686 29.696 29.754 29.841 29.871 29.924 29.971 30.039 30.074 30.129 30.184 30.211 30.236 30.259 30.251 30.226 30.226 30.219 30.266 30.254 30.296 30.576 30.891 31.046 30.956 30.914 30.846 30.796 30.776 30.764 30.724 30.664 30.626 30.586 30.551 30.554 30.591 30.584 30.594 30.616 30.636 30.694 30.746 30.804 30.854 30.904 30.939 30.999 31.029 31.041 31.081 31.099 31.074 31.069 31.064 31.074 31.094 31.111 31.091 31.099 31.104 31.109 31.106 31.119 31.111 31.099 31.129 31.121 31.159 31.189 31.214 31.216 31.271 31.271 31.256 31.341 31.366 31.416 31.431 31.471 31.494 31.531 31.596 31.616 31.649 31.659 31.711 31.789 31.849 31.941 32.021 32.031 32.041 32.039 32.061 32.096 32.136 32.161 32.199 32.189 32.231 32.269 32.364 32.399 32.364 32.359 32.416 32.446 32.466 32.501 32.561 32.579 32.639 32.704 32.769 32.806 32.836 32.864 32.906 32.931 32.966 32.996 33.036 33.086 33.136 33.186 33.246 33.281 33.339 33.384 33.429 33.481 33.514 33.489
31.052 31.054 31.049 31.024 31.037 31.027 31.054 31.052 31.039 31.039 31.054 31.062 31.064 31.054 31.042 31.047 31.042 30.999 31.002 31.012 30.962 30.867 30.722 30.622 30.539 30.487 30.407 30.314 30.204 30.109 30.017 29.907 29.817 29.742 29.692 29.657 29.622 29.547 29.522 29.469 29.442 29.397 29.387 29.352 29.347 29.354 29.322 29.317 29.299 29.284 29.302 29.257 29.189 29.152 29.099 29.059 28.999 28.929 28.879 28.812 28.774 28.739 28.712 28.674 28.672 28.687 28.677 28.672 28.642 28.677 28.674 28.707 28.709 28.707 28.717 28.772 28.789 28.777 28.804 28.857 28.952 29.049 29.137 29.182 29.197 29.252 29.259 29.222 29.232 29.227 29.197 29.199 29.172 29.177 29.139 29.069 29.037 28.957 28.979 29.057 29.092 29.142 29.149 29.129 29.214 29.322 29.332 29.254 29.324 29.384 29.394 29.412 29.452 29.539 29.559 29.549 29.542 29.537 29.524 29.579 29.617 29.617 29.592 29.452 29.384 29.302 29.354 29.427 29.497 29.567 29.637 29.682 29.657 29.549 29.522 29.519 29.479 29.467 29.534 29.597 29.679 29.754 29.864 29.854 29.829 29.854 29.822 29.784 29.772 29.809 29.832 29.869 29.877 29.857 29.829 29.824 29.844 29.827 29.919 29.962 29.977 29.984 30.009 30.024 30.057 30.087 30.089 30.092 30.084 30.074 30.077 30.037 30.079 30.192 30.252 30.234 30.264 30.284 30.276 30.276 30.274 30.289 30.301 30.254 30.231 30.226 30.166 30.119 30.116 30.146 30.156 30.149 30.174 30.154 30.034 29.964 29.949 29.894 29.839 29.779 29.659 29.519 29.406 29.259 29.074 28.994 28.844 28.676 28.534 28.396 28.264 28.179 28.074 28.031 27.996 28.009 28.099 28.166 28.196 28.354 28.414 28.511 28.566 28.581 28.566 28.536 28.526 28.501 28.401 28.344 28.299 28.251 28.166 28.111 28.046 27.891 27.821 27.759 27.696 27.619 27.566 27.556 27.561 27.544 27.494 27.564 27.556 27.544 27.599 27.619 27.649 27.731 27.879 28.011 28.054 27.946 27.734 26.774 26.609 27.051 27.839 28.431 28.591 28.674 28.791 28.646 28.609 28.634 28.624 28.706 28.726 28.734 28.804 28.899 28.954 29.004 29.051 29.101 29.161 29.204 29.261 29.291 29.319 29.354 29.384 29.406 29.439 29.501 29.509 29.561 29.574 29.636 29.689 29.711 29.739 29.819 29.866 29.914 29.964 30.039 30.066 30.089 30.161 30.191 30.196 30.206 30.249 30.216 30.236 30.236 30.261 30.281 30.266 30.374 30.654 30.971 31.104 30.969 30.851 30.846 30.766 30.814 30.784 30.724 30.651 30.621 30.571 30.569 30.584 30.589 30.611 30.641 30.639 30.679 30.741 30.791 30.854 30.894 30.926 30.974 30.981 31.034 31.069 31.054 31.034 31.066 31.059 31.076 31.051 31.054 31.061 31.081 31.084 31.074 31.079 31.096 31.089 31.076 31.134 31.129 31.174 31.184 31.204 31.229 31.264 31.276 31.301 31.316 31.376 31.401 31.416 31.444 31.486 31.531 31.556 31.594 31.601 31.709 31.751 31.841 31.909 31.966 31.984 31.984 32.019 32.071 32.079 32.086 32.104 32.149 32.164 32.234 32.291 32.254 32.281 32.351 32.359 32.366 32.374 32.424 32.449 32.531 32.571 32.616 32.701 32.739 32.776 32.824 32.884 32.911 32.964 32.951 32.996 33.034 33.066 33.116 33.141 33.206 33.254 33.261 33.344 33.401 33.431 33.479 33.511 33.536
31.047 31.032 31.019 30.979 31.009 30.984 31.007 31.017 31.012 31.017 31.014 31.034 31.047 31.032 31.009 31.002 30.994 30.979 30.929 30.944 30.924 30.842 30.707 30.589 30.472 30.419 30.347 30.254 30.172 30.094 30.004 29.914 29.809 29.724 29.667 29.644 29.587 29.537 29.502 29.447 29.417 29.409 29.409 29.432 29.422 29.414 29.422 29.384 29.327 29.317 29.329 29.264 29.194 29.174 29.129 29.107 29.029 28.934 28.889 28.844 28.784 28.754 28.704 28.682 28.642 28.659 28.669 28.649 28.652 28.669 28.664 28.719 28.737 28.704 28.687 28.752 28.777 28.777 28.792 28.864 28.969 29.052 29.124 29.182 29.199 29.257 29.269 29.247 29.204 29.217 29.209 29.157 29.122 29.112 29.074 29.017 28.989 28.934 28.932 29.017 29.057 29.082 29.129 29.109 29.122 29.212 29.204 29.227 29.319 29.362 29.374 29.407 29.447 29.512 29.584 29.597 29.587 29.587 29.564 29.629 29.657 29.647 29.637 29.504 29.364 29.267 29.334 29.404 29.472 29.542 29.612 29.682 29.737 29.562 29.509 29.494 29.504 29.504 29.544 29.609 29.654 29.759 29.837 29.832 29.829 29.937 29.887 29.809 29.767 29.802 29.847 29.867 29.874 29.859 29.842 29.864 29.867 29.857 29.954 30.024 29.987 30.009 30.032 30.049 30.047 30.059 30.067 30.089 30.084 30.072 30.077 30.027 30.024 30.144 30.189 30.224 30.241 30.234 30.271 30.289 30.329 30.324 30.286 30.266 30.286 30.256 30.196 30.159 30.151 30.151 30.146 30.149 30.156 30.159 30.004 30.001 29.996 29.911 29.826 29.736 29.651 29.464 29.356 29.211 29.029 28.941 28.786 28.626 28.454 28.346 28.264 28.169 28.069 28.031 27.996 28.014 28.081 28.184 28.256 28.321 28.409 28.536 28.599 28.559 28.524 28.499 28.451 28.451 28.416 28.326 28.274 28.201 28.149 28.086 27.951 27.866 27.819 27.719 27.646 27.611 27.594 27.544 27.514 27.516 27.524 27.536 27.549 27.541 27.534 27.596 27.686 27.731 27.861 28.021 28.016 27.919 27.616 26.689 26.659 27.089 27.886 28.486 28.644 28.749 28.796 28.684 28.596 28.614 28.634 28.714 28.749 28.764 28.821 28.931 28.984 29.021 29.064 29.096 29.164 29.191 29.249 29.286 29.319 29.371 29.396 29.384 29.429 29.466 29.526 29.536 29.581 29.614 29.679 29.689 29.731 29.799 29.879 29.889 29.961 30.009 30.036 30.079 30.121 30.149 30.191 30.171 30.226 30.199 30.199 30.209 30.224 30.284 30.251 30.254 30.414 30.709 31.021 31.051 30.974 30.934 30.866 30.809 30.854 30.786 30.756 30.671 30.606 30.576 30.566 30.571 30.619 30.649 30.669 30.674 30.724 30.756 30.809 30.854 30.894 30.949 30.974 30.999 31.029 31.029 31.021 31.031 31.041 31.041 31.031 31.026 31.041 31.036 31.016 31.044 31.044 31.056 31.079 31.089 31.134 31.136 31.161 31.194 31.209 31.224 31.266 31.289 31.339 31.369 31.381 31.394 31.416 31.431 31.464 31.496 31.521 31.596 31.631 31.731 31.784 31.944 31.959 31.951 31.914 31.979 32.039 32.049 32.096 32.089 32.101 32.139 32.171 32.229 32.281 32.286 32.276 32.309 32.316 32.341 32.356 32.379 32.446 32.529 32.606 32.669 32.724 32.764 32.821 32.841 32.894 32.931 32.954 33.011 33.021 33.046 33.089 33.119 33.149 33.204 33.266 33.284 33.369 33.414 33.464 33.504 33.524 33.559
