ncols 429
nrows 31
xllcorner    429018
yllcorner    486454
cellsize     2
NODATA_value -9999
29.473 29.476 29.488 29.418 29.353 29.253 29.251 29.168 29.191 29.208 29.211 29.246 29.263 29.371 29.408 29.448 29.506 29.556 29.533 29.538 29.551 29.563 29.591 29.593 29.606 29.601 29.621 29.656 29.648 29.656 29.671 29.643 29.651 29.658 29.673 29.661 29.643 29.656 29.681 29.691 29.741 29.776 29.821 29.876 29.928 29.993 30.018 30.058 30.101 30.133 30.153 30.188 30.223 30.208 30.243 30.273 30.321 30.348 30.398 30.431 30.471 30.468 30.486 30.453 30.468 30.458 30.423 30.416 30.373 30.393 30.391 30.421 30.476 30.528 30.576 30.621 30.678 30.758 30.823 30.876 30.966 31.061 31.141 31.221 31.286 31.328 31.378 31.461 31.488 31.538 31.566 31.601 31.611 31.651 31.678 31.716 31.766 31.826 31.848 31.921 31.983 32.081 32.193 32.371 32.513 32.651 32.731 32.831 32.858 33.338 34.031 34.016 33.961 33.976 33.988 34.063 34.116 34.193 34.236 34.341 34.476 34.571 34.691 34.786 34.906 35.046 35.148 35.251 35.363 35.446 35.538 35.596 35.668 35.751 35.801 35.896 35.961 36.058 36.133 36.228 36.281 36.338 36.401 36.511 36.543 36.608 36.673 36.763 36.823 36.881 36.951 37.006 37.033 37.108 37.173 37.198 37.241 37.283 37.318 37.373 37.458 37.478 37.513 37.576 37.643 37.643 37.686 37.678 37.658 37.678 37.658 37.631 37.626 37.636 37.666 37.686 37.671 37.673 37.598 37.621 37.543 37.503 37.438 37.396 37.388 37.361 37.338 37.286 37.256 37.206 37.126 37.036 36.961 36.808 36.698 36.548 36.433 36.331 36.228 36.113 36.021 35.938 35.873 35.801 35.738 35.663 35.578 35.511 35.466 35.421 35.398 35.366 35.361 35.338 35.358 35.366 35.388 35.403 35.426 35.443 35.498 35.508 35.513 35.556 35.623 35.708 35.706 35.696 35.733 35.786 35.793 35.846 35.873 35.938 36.021 36.008 36.026 36.083 36.136 36.166 36.191 36.208 36.221 36.276 36.368 36.376 36.468 36.546 36.623 36.683 36.746 36.818 36.978 37.043 37.108 37.216 37.296 37.356 37.458 37.586 37.706 37.861 37.973 38.083 38.188 38.301 38.451 38.578 38.728 38.883 39.033 39.178 39.278 39.401 39.571 39.661 39.701 39.816 39.921 39.963 39.978 40.036 40.121 40.183 40.216 40.291 40.338 40.426 40.506 40.598 40.743 40.823 40.941 41.048 41.121 41.198 41.226 41.306 41.356 41.353 41.346 41.386 41.418 41.468 41.518 41.508 41.488 41.491 41.476 41.446 41.403 41.396 41.316 41.296 41.251 41.231 41.193 41.181 41.228 41.223 41.183 41.186 41.228 41.201 41.203 41.268 41.336 41.426 41.481 41.551 41.591 41.688 41.706 41.841 41.956 42.001 42.101 42.153 42.278 42.406 42.473 42.601 42.683 42.821 42.918 43.016 43.116 43.241 43.343 43.468 43.561 43.741 43.863 43.961 44.051 44.158 44.318 44.431 44.576 44.708 44.816 44.946 45.056 45.203 45.283 45.376 45.486 45.581 45.678 45.788 45.918 46.021 46.083 46.156 46.213 46.268 46.383 46.481 46.478 46.613 46.623 46.528 46.273 46.233 46.271 46.198 46.316 46.626 46.668 46.808 46.998 46.94 46.903 46.793 46.805 46.84 46.825 46.84 46.853 46.915 46.953 46.978 46.983 46.975 47.005 47.073 47.135 47.195 47.253 47.283 47.338 47.44 47.44 47.378 47.308 47.34 47.345 47.313 47.288 47.15 47.095 47.115 47.13 47.048 46.9 46.858 46.863 46.908 46.953
29.233 29.198 29.173 29.216 29.258 29.276 29.211 29.188 29.208 29.281 29.318 29.343 29.356 29.433 29.453 29.468 29.498 29.486 29.518 29.531 29.503 29.566 29.578 29.603 29.613 29.626 29.628 29.626 29.658 29.651 29.643 29.621 29.633 29.628 29.646 29.641 29.633 29.643 29.663 29.676 29.708 29.731 29.766 29.836 29.888 29.943 29.973 30.006 30.053 30.096 30.136 30.163 30.188 30.181 30.226 30.261 30.316 30.346 30.391 30.428 30.443 30.453 30.498 30.471 30.466 30.463 30.453 30.423 30.398 30.398 30.398 30.458 30.491 30.521 30.561 30.608 30.658 30.738 30.816 30.908 30.988 31.063 31.136 31.221 31.301 31.341 31.388 31.456 31.506 31.531 31.566 31.606 31.626 31.613 31.666 31.731 31.766 31.803 31.861 31.908 31.986 32.101 32.191 32.353 32.473 32.593 32.698 32.831 32.993 33.398 34.001 34.006 33.971 33.963 33.988 34.048 34.123 34.181 34.223 34.311 34.448 34.551 34.643 34.776 34.871 35.011 35.146 35.243 35.366 35.458 35.516 35.591 35.673 35.753 35.801 35.858 35.933 36.058 36.148 36.156 36.221 36.326 36.383 36.443 36.506 36.563 36.651 36.718 36.806 36.843 36.881 36.951 36.988 37.053 37.138 37.173 37.233 37.268 37.281 37.316 37.388 37.443 37.488 37.518 37.583 37.613 37.643 37.631 37.603 37.658 37.681 37.686 37.696 37.683 37.676 37.688 37.691 37.643 37.588 37.551 37.516 37.511 37.498 37.443 37.401 37.371 37.326 37.286 37.238 37.191 37.086 36.966 36.871 36.788 36.673 36.581 36.451 36.326 36.208 36.111 36.028 35.951 35.888 35.776 35.701 35.643 35.581 35.536 35.476 35.418 35.413 35.363 35.346 35.343 35.341 35.371 35.361 35.416 35.428 35.436 35.466 35.518 35.521 35.556 35.591 35.656 35.726 35.706 35.741 35.753 35.776 35.808 35.858 35.878 36.013 36.011 36.011 36.036 36.128 36.158 36.178 36.198 36.263 36.263 36.301 36.353 36.376 36.538 36.541 36.681 36.723 36.831 36.891 37.003 37.066 37.193 37.266 37.363 37.496 37.591 37.696 37.788 37.981 38.091 38.218 38.298 38.408 38.521 38.683 38.841 38.986 39.148 39.261 39.403 39.521 39.606 39.716 39.808 39.828 39.951 39.986 40.053 40.086 40.141 40.193 40.283 40.328 40.443 40.506 40.608 40.723 40.836 40.948 41.028 41.101 41.196 41.248 41.326 41.341 41.383 41.386 41.398 41.416 41.428 41.491 41.523 41.518 41.516 41.493 41.471 41.443 41.398 41.373 41.323 41.298 41.278 41.258 41.213 41.213 41.241 41.233 41.191 41.201 41.218 41.206 41.226 41.313 41.411 41.446 41.501 41.566 41.628 41.673 41.766 41.876 41.951 42.058 42.128 42.218 42.366 42.446 42.521 42.646 42.786 42.848 42.941 43.056 43.173 43.288 43.418 43.511 43.648 43.761 43.868 43.986 44.101 44.241 44.366 44.513 44.643 44.756 44.868 45.018 45.118 45.213 45.331 45.433 45.536 45.651 45.763 45.853 45.956 46.088 46.146 46.188 46.261 46.338 46.433 46.481 46.526 46.581 46.611 46.571 46.306 46.266 46.241 46.293 46.396 46.498 46.713 47.011 46.87 46.76 46.725 46.773 46.823 46.825 46.865 46.91 46.943 46.99 47.01 47.033 47.03 47.04 47.083 47.143 47.19 47.23 47.298 47.4 47.465 47.438 47.348 47.26 47.283 47.338 47.39 47.388 47.223 47.133 47.125 47.158 47.035 46.935 46.91 46.933 46.93 46.948
29.181 29.171 29.218 29.203 29.266 29.266 29.236 29.226 29.251 29.281 29.313 29.353 29.408 29.438 29.441 29.473 29.468 29.511 29.506 29.526 29.541 29.581 29.593 29.598 29.606 29.611 29.611 29.643 29.631 29.636 29.631 29.628 29.631 29.618 29.636 29.613 29.633 29.608 29.661 29.648 29.681 29.706 29.746 29.783 29.843 29.923 29.963 29.981 30.016 30.078 30.103 30.146 30.168 30.183 30.201 30.243 30.291 30.328 30.358 30.401 30.433 30.446 30.476 30.468 30.486 30.476 30.456 30.423 30.393 30.386 30.418 30.418 30.471 30.516 30.563 30.616 30.686 30.743 30.793 30.893 30.971 31.036 31.141 31.216 31.301 31.343 31.393 31.436 31.473 31.546 31.573 31.608 31.618 31.653 31.711 31.738 31.766 31.801 31.891 31.936 31.986 32.048 32.178 32.283 32.438 32.663 32.896 33.031 33.146 33.473 33.968 34.028 33.956 33.956 33.961 34.028 34.086 34.141 34.203 34.291 34.426 34.516 34.636 34.751 34.851 34.991 35.136 35.258 35.333 35.428 35.513 35.578 35.641 35.746 35.783 35.868 35.943 36.006 36.083 36.123 36.196 36.308 36.343 36.388 36.456 36.543 36.598 36.631 36.736 36.788 36.838 36.888 36.983 37.031 37.081 37.141 37.198 37.226 37.243 37.276 37.343 37.383 37.433 37.503 37.558 37.586 37.603 37.618 37.661 37.678 37.686 37.818 37.773 37.686 37.613 37.601 37.606 37.591 37.581 37.546 37.543 37.516 37.478 37.443 37.388 37.336 37.318 37.256 37.186 37.148 37.061 36.948 36.866 36.798 36.658 36.563 36.456 36.343 36.228 36.096 35.981 35.911 35.843 35.761 35.681 35.633 35.593 35.556 35.486 35.476 35.443 35.396 35.346 35.351 35.343 35.348 35.348 35.381 35.401 35.436 35.443 35.496 35.501 35.523 35.558 35.638 35.741 35.723 35.748 35.746 35.798 35.846 35.823 35.836 35.951 36.058 35.998 36.051 36.071 36.146 36.146 36.206 36.248 36.268 36.298 36.321 36.368 36.436 36.511 36.578 36.736 36.756 36.886 36.951 37.038 37.131 37.253 37.351 37.401 37.583 37.658 37.776 37.861 38.076 38.153 38.313 38.383 38.533 38.588 38.803 38.956 39.048 39.201 39.373 39.518 39.576 39.696 39.796 39.848 39.943 40.018 40.036 40.061 40.151 40.178 40.218 40.313 40.408 40.478 40.566 40.668 40.801 40.926 40.998 41.111 41.218 41.286 41.373 41.378 41.393 41.403 41.423 41.443 41.438 41.528 41.563 41.551 41.531 41.513 41.543 41.506 41.453 41.433 41.383 41.338 41.326 41.293 41.243 41.263 41.231 41.233 41.221 41.218 41.193 41.186 41.201 41.278 41.376 41.388 41.436 41.523 41.583 41.623 41.701 41.763 41.903 42.013 42.086 42.146 42.288 42.398 42.488 42.588 42.736 42.798 42.896 42.983 43.098 43.238 43.328 43.431 43.533 43.673 43.788 43.946 44.053 44.161 44.281 44.433 44.576 44.713 44.838 44.963 45.068 45.181 45.286 45.403 45.508 45.593 45.743 45.838 45.941 46.061 46.143 46.191 46.281 46.351 46.396 46.481 46.583 46.588 46.701 46.738 46.548 46.388 46.323 46.326 46.381 46.358 46.493 46.603 46.61 46.645 46.723 46.733 46.805 46.86 46.9 46.985 47.038 47.068 47.063 47.068 47.048 47.053 47.11 47.14 47.19 47.255 47.335 47.393 47.433 47.43 47.36 47.285 47.328 47.343 47.363 47.395 47.328 47.21 47.158 47.16 47.088 47.01 46.945 46.93 46.943 46.963
29.208 29.188 29.218 29.198 29.203 29.233 29.241 29.238 29.276 29.321 29.341 29.363 29.418 29.473 29.453 29.481 29.488 29.521 29.518 29.563 29.553 29.566 29.578 29.591 29.621 29.611 29.628 29.626 29.606 29.631 29.636 29.621 29.618 29.606 29.596 29.608 29.603 29.611 29.616 29.618 29.651 29.688 29.686 29.723 29.811 29.868 29.933 29.956 30.003 30.038 30.088 30.118 30.131 30.153 30.181 30.221 30.248 30.298 30.328 30.371 30.391 30.416 30.461 30.438 30.453 30.461 30.451 30.456 30.438 30.398 30.398 30.428 30.473 30.498 30.548 30.601 30.666 30.711 30.806 30.853 30.941 31.043 31.143 31.226 31.306 31.386 31.438 31.453 31.506 31.536 31.576 31.633 31.661 31.691 31.698 31.733 31.736 31.786 31.848 31.903 31.946 32.028 32.128 32.258 32.406 32.638 32.893 33.078 33.171 33.611 34.096 34.038 33.936 33.891 33.953 33.993 34.086 34.121 34.181 34.253 34.376 34.501 34.601 34.698 34.851 34.966 35.098 35.226 35.313 35.431 35.516 35.576 35.598 35.721 35.756 35.846 35.911 35.983 36.048 36.128 36.178 36.241 36.321 36.351 36.418 36.498 36.553 36.593 36.676 36.766 36.823 36.863 36.896 36.971 37.038 37.101 37.161 37.173 37.208 37.246 37.326 37.368 37.428 37.508 37.546 37.608 37.628 37.648 37.666 37.676 37.678 37.741 37.713 37.653 37.646 37.656 37.646 37.636 37.621 37.601 37.566 37.503 37.453 37.416 37.353 37.306 37.268 37.236 37.193 37.146 37.061 36.958 36.876 36.786 36.666 36.563 36.463 36.328 36.203 36.043 35.968 35.911 35.856 35.776 35.698 35.643 35.588 35.553 35.511 35.481 35.441 35.431 35.391 35.348 35.356 35.348 35.356 35.368 35.373 35.398 35.438 35.456 35.451 35.506 35.506 35.573 35.726 35.748 35.701 35.706 35.728 35.828 35.853 35.831 35.913 35.971 36.048 36.018 36.106 36.136 36.171 36.173 36.246 36.263 36.311 36.363 36.353 36.418 36.483 36.531 36.676 36.816 36.813 36.866 36.993 37.103 37.181 37.308 37.368 37.533 37.641 37.731 37.906 38.016 38.153 38.231 38.343 38.491 38.591 38.763 38.883 39.018 39.136 39.298 39.443 39.546 39.676 39.746 39.831 39.913 39.971 40.006 40.046 40.133 40.213 40.238 40.298 40.371 40.463 40.563 40.681 40.798 40.926 41.018 41.123 41.286 41.323 41.356 41.426 41.431 41.461 41.481 41.488 41.491 41.556 41.596 41.618 41.586 41.583 41.576 41.536 41.471 41.471 41.416 41.381 41.373 41.343 41.298 41.296 41.238 41.231 41.228 41.191 41.201 41.198 41.206 41.231 41.318 41.358 41.421 41.486 41.546 41.626 41.663 41.728 41.848 41.968 42.061 42.108 42.241 42.371 42.476 42.518 42.621 42.738 42.843 42.921 43.023 43.158 43.278 43.336 43.463 43.596 43.701 43.846 43.966 44.111 44.236 44.358 44.486 44.616 44.776 44.906 45.046 45.151 45.266 45.363 45.488 45.573 45.686 45.801 45.883 46.016 46.098 46.186 46.271 46.348 46.368 46.401 46.558 46.616 46.618 46.756 46.858 46.611 46.396 46.306 46.368 46.338 46.371 46.468 46.523 46.62 46.74 46.883 46.888 46.885 46.91 46.963 47.02 47.048 47.04 47.058 47.06 47.093 47.148 47.153 47.203 47.268 47.36 47.41 47.42 47.435 47.408 47.33 47.393 47.498 47.49 47.483 47.395 47.275 47.195 47.198 47.193 47.138 47.005 46.958 46.975 46.975
29.193 29.226 29.228 29.236 29.241 29.261 29.271 29.283 29.283 29.316 29.346 29.371 29.408 29.431 29.456 29.486 29.521 29.536 29.516 29.558 29.558 29.553 29.583 29.568 29.593 29.603 29.606 29.626 29.608 29.603 29.606 29.621 29.618 29.618 29.603 29.591 29.566 29.583 29.616 29.588 29.631 29.658 29.683 29.718 29.783 29.838 29.893 29.931 29.973 30.011 30.058 30.111 30.136 30.153 30.191 30.191 30.206 30.258 30.293 30.346 30.378 30.396 30.441 30.423 30.441 30.471 30.461 30.466 30.441 30.411 30.391 30.403 30.436 30.516 30.543 30.593 30.676 30.738 30.796 30.883 31.011 31.066 31.173 31.253 31.333 31.381 31.441 31.476 31.511 31.566 31.591 31.623 31.646 31.651 31.638 31.671 31.708 31.758 31.813 31.871 31.933 31.996 32.093 32.188 32.356 32.603 32.861 33.076 33.163 33.441 33.888 34.021 33.923 33.871 33.898 33.953 34.083 34.121 34.176 34.218 34.323 34.456 34.573 34.656 34.823 34.948 35.053 35.176 35.268 35.368 35.463 35.521 35.588 35.683 35.721 35.773 35.876 35.943 36.016 36.093 36.163 36.218 36.278 36.341 36.386 36.436 36.508 36.553 36.648 36.693 36.746 36.811 36.853 36.936 36.996 37.068 37.153 37.161 37.206 37.261 37.276 37.368 37.438 37.528 37.626 37.668 37.658 37.661 37.641 37.671 37.701 37.703 37.723 37.703 37.698 37.703 37.676 37.666 37.608 37.578 37.561 37.476 37.406 37.373 37.333 37.291 37.248 37.213 37.151 37.133 37.046 36.956 36.863 36.763 36.656 36.528 36.458 36.361 36.203 36.078 35.981 35.923 35.858 35.781 35.708 35.663 35.638 35.596 35.551 35.496 35.476 35.438 35.403 35.381 35.378 35.351 35.353 35.373 35.373 35.376 35.393 35.408 35.438 35.478 35.473 35.563 35.628 35.726 35.681 35.683 35.731 35.778 35.791 35.806 35.858 35.916 35.991 36.016 36.038 36.171 36.153 36.183 36.218 36.231 36.278 36.286 36.293 36.378 36.471 36.531 36.686 36.718 36.808 36.853 36.986 37.071 37.163 37.266 37.356 37.486 37.621 37.716 37.831 38.018 38.081 38.196 38.328 38.476 38.536 38.738 38.861 39.013 39.098 39.236 39.383 39.518 39.671 39.726 39.841 39.868 39.943 39.993 40.076 40.116 40.216 40.218 40.291 40.373 40.476 40.546 40.688 40.796 40.893 41.008 41.126 41.233 41.323 41.371 41.418 41.448 41.506 41.513 41.533 41.563 41.628 41.618 41.663 41.661 41.646 41.606 41.581 41.513 41.501 41.433 41.408 41.378 41.361 41.313 41.276 41.268 41.251 41.213 41.188 41.201 41.186 41.171 41.178 41.258 41.323 41.376 41.421 41.528 41.578 41.601 41.723 41.771 41.883 42.008 42.066 42.183 42.293 42.376 42.473 42.583 42.703 42.813 42.873 42.971 43.048 43.201 43.276 43.418 43.516 43.636 43.788 43.921 44.038 44.168 44.316 44.433 44.578 44.708 44.816 44.956 45.081 45.198 45.343 45.463 45.538 45.636 45.756 45.841 45.926 46.011 46.131 46.258 46.323 46.381 46.421 46.468 46.596 46.648 46.661 46.828 46.748 46.536 46.381 46.333 46.353 46.383 46.408 46.473 46.575 46.86 47.01 46.965 46.935 46.945 46.965 46.993 47.048 47.08 47.068 47.08 47.128 47.165 47.155 47.23 47.345 47.385 47.398 47.41 47.42 47.433 47.378 47.403 47.608 47.653 47.608 47.495 47.358 47.265 47.21 47.203 47.198 47.098 47.033 47.033 47.01
29.243 29.246 29.241 29.221 29.233 29.246 29.268 29.283 29.273 29.298 29.326 29.348 29.378 29.423 29.468 29.476 29.508 29.551 29.518 29.571 29.541 29.543 29.591 29.578 29.596 29.616 29.611 29.616 29.588 29.593 29.583 29.608 29.623 29.606 29.591 29.606 29.586 29.581 29.588 29.608 29.616 29.653 29.691 29.718 29.753 29.793 29.866 29.888 29.948 29.996 30.028 30.076 30.101 30.121 30.176 30.151 30.183 30.231 30.281 30.313 30.353 30.386 30.413 30.418 30.436 30.436 30.448 30.451 30.456 30.456 30.423 30.431 30.448 30.506 30.538 30.578 30.668 30.703 30.811 30.906 31.003 31.076 31.183 31.223 31.333 31.401 31.446 31.478 31.491 31.518 31.533 31.561 31.626 31.636 31.616 31.648 31.698 31.733 31.806 31.826 31.893 31.971 32.083 32.196 32.331 32.578 32.856 33.026 33.143 33.266 33.583 33.908 33.918 33.866 33.898 33.933 34.031 34.106 34.141 34.188 34.276 34.383 34.523 34.626 34.758 34.896 35.016 35.146 35.246 35.326 35.378 35.483 35.563 35.626 35.693 35.768 35.848 35.936 35.993 36.083 36.136 36.173 36.248 36.318 36.331 36.383 36.473 36.521 36.611 36.651 36.711 36.791 36.853 36.931 36.981 37.028 37.123 37.186 37.221 37.273 37.348 37.411 37.538 37.596 37.638 37.668 37.636 37.676 37.691 37.728 37.741 37.768 37.766 37.766 37.741 37.721 37.701 37.643 37.593 37.568 37.496 37.466 37.421 37.358 37.331 37.271 37.223 37.216 37.156 37.098 37.036 36.956 36.856 36.731 36.651 36.548 36.451 36.351 36.233 36.123 35.988 35.916 35.841 35.783 35.728 35.703 35.656 35.623 35.583 35.518 35.498 35.461 35.438 35.396 35.373 35.356 35.326 35.323 35.348 35.341 35.338 35.371 35.431 35.466 35.468 35.506 35.588 35.673 35.686 35.656 35.681 35.748 35.781 35.783 35.828 35.868 35.978 35.993 36.048 36.083 36.123 36.166 36.206 36.253 36.238 36.256 36.303 36.393 36.416 36.548 36.603 36.683 36.791 36.896 36.986 37.086 37.156 37.261 37.323 37.446 37.601 37.741 37.848 37.946 38.088 38.193 38.331 38.428 38.518 38.648 38.826 38.946 39.101 39.223 39.351 39.466 39.598 39.681 39.773 39.821 39.923 40.006 40.043 40.126 40.198 40.268 40.293 40.371 40.453 40.511 40.626 40.796 40.886 41.006 41.123 41.233 41.306 41.378 41.416 41.466 41.518 41.563 41.593 41.663 41.663 41.683 41.701 41.701 41.691 41.681 41.666 41.628 41.556 41.493 41.458 41.386 41.376 41.348 41.303 41.296 41.223 41.213 41.198 41.193 41.208 41.168 41.146 41.198 41.296 41.378 41.408 41.486 41.543 41.588 41.673 41.736 41.826 41.931 42.033 42.136 42.258 42.336 42.388 42.521 42.641 42.723 42.826 42.903 42.996 43.121 43.213 43.336 43.441 43.543 43.691 43.836 43.968 44.113 44.213 44.353 44.471 44.628 44.723 44.908 45.058 45.146 45.271 45.426 45.521 45.626 45.728 45.823 45.923 45.983 46.103 46.181 46.318 46.391 46.436 46.473 46.506 46.626 46.721 46.708 46.711 46.653 46.661 46.406 46.381 46.423 46.393 46.453 46.6 47.043 47.075 46.978 46.935 46.933 46.995 46.973 46.983 47.088 47.11 47.11 47.158 47.223 47.218 47.27 47.363 47.375 47.385 47.398 47.41 47.425 47.418 47.415 47.628 47.778 47.66 47.488 47.37 47.363 47.328 47.26 47.298 47.208 47.125 47.095 47.065
29.253 29.231 29.221 29.248 29.251 29.238 29.238 29.263 29.276 29.296 29.323 29.333 29.391 29.436 29.478 29.496 29.513 29.526 29.561 29.581 29.551 29.573 29.588 29.598 29.601 29.591 29.598 29.611 29.586 29.581 29.578 29.598 29.598 29.601 29.598 29.598 29.558 29.576 29.576 29.596 29.606 29.613 29.641 29.691 29.718 29.768 29.841 29.838 29.906 29.953 29.976 30.041 30.076 30.083 30.131 30.153 30.176 30.171 30.233 30.288 30.331 30.366 30.368 30.391 30.408 30.423 30.433 30.481 30.463 30.476 30.478 30.468 30.491 30.508 30.551 30.603 30.658 30.718 30.821 30.883 30.963 31.046 31.198 31.288 31.348 31.383 31.413 31.448 31.486 31.508 31.516 31.566 31.611 31.593 31.598 31.621 31.676 31.726 31.791 31.786 31.868 31.971 32.046 32.133 32.258 32.473 32.721 32.958 33.051 33.173 33.473 33.808 33.933 33.871 33.866 33.893 33.981 34.083 34.131 34.176 34.251 34.341 34.468 34.568 34.691 34.836 34.976 35.061 35.158 35.256 35.333 35.411 35.511 35.593 35.673 35.751 35.831 35.901 35.971 36.038 36.106 36.158 36.201 36.243 36.326 36.381 36.441 36.498 36.573 36.623 36.723 36.811 36.831 36.891 36.943 37.056 37.128 37.201 37.271 37.268 37.366 37.413 37.476 37.528 37.538 37.603 37.658 37.701 37.731 37.793 37.801 37.808 37.813 37.751 37.761 37.713 37.656 37.611 37.568 37.556 37.523 37.481 37.416 37.348 37.318 37.243 37.186 37.181 37.118 37.056 36.996 36.951 36.861 36.768 36.663 36.553 36.446 36.366 36.268 36.136 36.021 35.938 35.843 35.811 35.721 35.706 35.678 35.643 35.598 35.543 35.528 35.483 35.446 35.416 35.356 35.356 35.363 35.378 35.351 35.336 35.348 35.373 35.408 35.406 35.418 35.456 35.513 35.608 35.668 35.653 35.678 35.736 35.738 35.751 35.743 35.828 35.901 35.976 35.938 36.083 36.061 36.111 36.156 36.246 36.238 36.293 36.316 36.381 36.378 36.468 36.586 36.663 36.801 36.856 36.978 37.066 37.103 37.223 37.343 37.443 37.583 37.703 37.786 37.901 38.023 38.188 38.291 38.391 38.481 38.606 38.661 38.858 39.006 39.181 39.306 39.421 39.536 39.668 39.761 39.811 39.876 39.971 40.013 40.066 40.123 40.236 40.273 40.383 40.443 40.508 40.608 40.748 40.881 40.956 41.073 41.233 41.293 41.393 41.471 41.533 41.558 41.611 41.623 41.663 41.711 41.743 41.748 41.778 41.758 41.738 41.711 41.693 41.621 41.546 41.511 41.456 41.401 41.373 41.326 41.306 41.256 41.231 41.228 41.158 41.183 41.176 41.151 41.203 41.278 41.326 41.398 41.458 41.518 41.561 41.638 41.713 41.786 41.878 41.991 42.076 42.156 42.251 42.351 42.416 42.538 42.638 42.731 42.836 42.933 43.026 43.156 43.251 43.371 43.488 43.608 43.751 43.853 44.011 44.133 44.283 44.426 44.571 44.706 44.871 44.988 45.116 45.208 45.391 45.516 45.586 45.713 45.781 45.871 45.958 46.041 46.146 46.256 46.358 46.416 46.451 46.458 46.546 46.666 46.723 46.716 46.763 46.841 46.668 46.408 46.411 46.446 46.458 46.548 46.9 47.215 47.113 46.943 46.93 46.928 46.925 46.958 47.04 47.125 47.12 47.16 47.24 47.25 47.285 47.338 47.36 47.375 47.385 47.4 47.41 47.425 47.44 47.61 47.7 47.608 47.475 47.465 47.473 47.385 47.293 47.395 47.408 47.255 47.173 47.138
29.223 29.238 29.226 29.246 29.253 29.261 29.238 29.233 29.266 29.293 29.318 29.313 29.366 29.418 29.483 29.511 29.493 29.518 29.553 29.551 29.528 29.593 29.571 29.576 29.583 29.583 29.606 29.601 29.608 29.601 29.606 29.571 29.593 29.588 29.588 29.583 29.546 29.561 29.563 29.573 29.601 29.643 29.638 29.681 29.716 29.773 29.806 29.836 29.891 29.948 29.971 30.026 30.043 30.083 30.096 30.143 30.156 30.198 30.241 30.276 30.308 30.348 30.381 30.391 30.416 30.438 30.453 30.468 30.458 30.471 30.448 30.468 30.488 30.508 30.571 30.586 30.696 30.743 30.828 30.901 31.021 31.118 31.181 31.236 31.343 31.373 31.411 31.436 31.453 31.471 31.516 31.538 31.568 31.571 31.603 31.621 31.658 31.703 31.761 31.808 31.861 31.948 32.001 32.086 32.188 32.356 32.606 32.861 33.006 33.101 33.388 33.738 33.938 33.856 33.861 33.866 33.933 34.028 34.106 34.176 34.243 34.321 34.406 34.538 34.648 34.801 34.923 35.021 35.113 35.193 35.283 35.378 35.471 35.556 35.646 35.716 35.771 35.876 35.936 36.011 36.068 36.126 36.188 36.228 36.331 36.386 36.438 36.503 36.556 36.603 36.693 36.776 36.841 36.913 37.061 37.126 37.161 37.226 37.268 37.271 37.331 37.416 37.433 37.518 37.581 37.653 37.696 37.741 37.801 37.838 37.833 37.803 37.773 37.741 37.713 37.701 37.646 37.613 37.596 37.563 37.496 37.431 37.393 37.343 37.306 37.231 37.146 37.093 37.063 37.046 36.986 36.923 36.871 36.791 36.678 36.573 36.506 36.408 36.286 36.168 36.046 35.938 35.866 35.813 35.748 35.696 35.686 35.648 35.613 35.556 35.508 35.473 35.431 35.413 35.366 35.333 35.323 35.348 35.333 35.346 35.343 35.361 35.368 35.383 35.426 35.438 35.458 35.528 35.651 35.651 35.651 35.691 35.728 35.796 35.728 35.763 35.863 35.958 36.036 36.011 36.123 36.091 36.123 36.198 36.258 36.278 36.313 36.378 36.381 36.471 36.511 36.628 36.748 36.821 36.906 37.021 37.081 37.208 37.301 37.366 37.526 37.673 37.766 37.868 37.981 38.118 38.266 38.378 38.506 38.581 38.648 38.783 38.938 39.068 39.206 39.376 39.456 39.566 39.698 39.778 39.843 39.941 39.998 40.033 40.093 40.183 40.283 40.361 40.498 40.541 40.643 40.751 40.841 40.956 41.048 41.213 41.326 41.441 41.506 41.566 41.603 41.676 41.716 41.741 41.771 41.813 41.828 41.853 41.828 41.783 41.768 41.733 41.676 41.598 41.561 41.531 41.468 41.421 41.346 41.306 41.266 41.258 41.236 41.201 41.203 41.191 41.156 41.171 41.273 41.321 41.376 41.423 41.486 41.558 41.631 41.708 41.761 41.828 41.946 42.023 42.083 42.183 42.291 42.358 42.446 42.561 42.628 42.748 42.851 42.971 43.068 43.168 43.278 43.431 43.541 43.666 43.803 43.973 44.103 44.231 44.381 44.523 44.633 44.836 44.938 45.106 45.218 45.318 45.431 45.571 45.681 45.788 45.811 45.946 46.048 46.133 46.208 46.298 46.386 46.451 46.463 46.501 46.588 46.691 46.738 46.748 46.873 46.796 46.683 46.468 46.476 46.498 46.505 46.745 47.018 47.125 47.053 46.95 46.92 46.968 46.998 47.073 47.14 47.138 47.15 47.273 47.33 47.36 47.365 47.383 47.39 47.4 47.408 47.413 47.425 47.46 47.52 47.578 47.565 47.538 47.553 47.558 47.483 47.393 47.518 47.5 47.345 47.23 47.225
29.183 29.216 29.223 29.201 29.218 29.243 29.228 29.236 29.253 29.293 29.311 29.331 29.376 29.401 29.456 29.491 29.521 29.523 29.543 29.558 29.543 29.556 29.606 29.593 29.588 29.588 29.578 29.573 29.591 29.591 29.586 29.583 29.596 29.578 29.596 29.573 29.568 29.566 29.538 29.573 29.593 29.633 29.621 29.666 29.693 29.726 29.768 29.808 29.833 29.908 29.948 29.981 30.018 30.066 30.091 30.118 30.153 30.211 30.233 30.266 30.298 30.311 30.363 30.401 30.401 30.423 30.453 30.433 30.458 30.433 30.443 30.448 30.533 30.531 30.591 30.633 30.701 30.743 30.826 30.908 31.003 31.073 31.133 31.221 31.281 31.333 31.406 31.438 31.468 31.481 31.503 31.508 31.521 31.533 31.576 31.628 31.676 31.701 31.753 31.793 31.828 31.868 31.966 32.058 32.186 32.281 32.511 32.726 32.928 33.093 33.266 33.631 33.866 33.826 33.813 33.838 33.888 33.991 34.053 34.111 34.233 34.303 34.393 34.523 34.643 34.746 34.848 34.953 35.041 35.146 35.223 35.341 35.463 35.531 35.601 35.668 35.761 35.838 35.901 35.991 36.056 36.103 36.171 36.228 36.306 36.386 36.438 36.468 36.561 36.601 36.701 36.846 36.883 36.988 37.121 37.108 37.121 37.141 37.208 37.298 37.351 37.408 37.471 37.546 37.631 37.701 37.731 37.783 37.786 37.821 37.778 37.788 37.766 37.756 37.708 37.698 37.673 37.613 37.576 37.556 37.511 37.438 37.366 37.293 37.253 37.203 37.163 37.113 37.106 37.041 36.981 36.906 36.853 36.793 36.691 36.598 36.506 36.403 36.318 36.191 36.073 35.946 35.876 35.813 35.748 35.711 35.668 35.626 35.603 35.556 35.511 35.468 35.436 35.406 35.383 35.361 35.328 35.336 35.328 35.316 35.331 35.333 35.336 35.348 35.356 35.373 35.426 35.483 35.621 35.638 35.596 35.643 35.723 35.761 35.751 35.753 35.813 35.911 35.958 36.006 36.073 36.123 36.138 36.191 36.198 36.296 36.278 36.353 36.373 36.436 36.558 36.611 36.726 36.758 36.913 36.961 37.081 37.151 37.283 37.358 37.438 37.591 37.728 37.826 37.978 38.086 38.198 38.311 38.383 38.511 38.638 38.778 38.836 38.998 39.141 39.313 39.391 39.563 39.628 39.781 39.818 39.886 39.986 40.016 40.103 40.181 40.271 40.361 40.421 40.491 40.618 40.696 40.781 40.908 41.048 41.226 41.308 41.416 41.503 41.596 41.673 41.718 41.748 41.811 41.826 41.878 41.916 41.906 41.901 41.828 41.828 41.781 41.726 41.651 41.643 41.541 41.476 41.426 41.338 41.286 41.276 41.271 41.246 41.193 41.201 41.203 41.186 41.208 41.238 41.301 41.376 41.396 41.478 41.551 41.618 41.646 41.716 41.786 41.858 42.003 42.048 42.138 42.223 42.336 42.376 42.491 42.588 42.686 42.778 42.901 43.003 43.106 43.221 43.376 43.501 43.598 43.741 43.903 44.048 44.183 44.346 44.451 44.623 44.753 44.888 45.031 45.201 45.311 45.423 45.538 45.656 45.756 45.808 45.903 46.023 46.093 46.158 46.241 46.331 46.401 46.438 46.511 46.548 46.618 46.711 46.766 46.791 46.873 46.721 46.538 46.478 46.508 46.506 46.538 46.713 46.873 47.023 47.041 47.083 47.118 47.106 47.123 47.156 47.166 47.238 47.298 47.373 47.381 47.393 47.411 47.413 47.416 47.431 47.448 47.506 47.578 47.611 47.593 47.583 47.578 47.598 47.556 47.526 47.513 47.523 47.501 47.441 47.373 47.321
29.161 29.191 29.236 29.208 29.196 29.206 29.196 29.213 29.246 29.251 29.291 29.328 29.373 29.408 29.443 29.466 29.516 29.503 29.526 29.538 29.538 29.558 29.598 29.588 29.591 29.583 29.586 29.596 29.608 29.581 29.591 29.591 29.601 29.571 29.583 29.563 29.566 29.548 29.538 29.521 29.583 29.596 29.626 29.661 29.673 29.701 29.723 29.766 29.813 29.858 29.928 29.976 30.016 30.043 30.058 30.106 30.136 30.193 30.233 30.276 30.286 30.303 30.326 30.328 30.363 30.358 30.356 30.386 30.406 30.408 30.406 30.431 30.483 30.496 30.511 30.571 30.651 30.713 30.798 30.893 30.968 31.068 31.143 31.211 31.248 31.321 31.376 31.426 31.473 31.476 31.493 31.498 31.523 31.546 31.586 31.613 31.643 31.676 31.768 31.773 31.811 31.861 31.921 32.003 32.146 32.218 32.391 32.566 32.811 33.033 33.153 33.471 33.763 33.781 33.771 33.803 33.826 33.911 34.003 34.056 34.151 34.246 34.351 34.478 34.598 34.688 34.813 34.941 35.013 35.093 35.218 35.303 35.403 35.503 35.586 35.658 35.738 35.818 35.901 35.966 36.021 36.121 36.166 36.226 36.283 36.363 36.443 36.548 36.611 36.661 36.766 36.816 36.881 36.943 37.011 37.048 37.091 37.163 37.246 37.306 37.396 37.456 37.516 37.551 37.646 37.681 37.701 37.723 37.753 37.793 37.791 37.781 37.753 37.751 37.713 37.698 37.658 37.591 37.561 37.513 37.451 37.381 37.341 37.291 37.243 37.196 37.158 37.096 37.081 37.041 36.976 36.906 36.868 36.776 36.696 36.598 36.513 36.416 36.333 36.228 36.126 35.973 35.898 35.808 35.751 35.696 35.683 35.648 35.576 35.538 35.511 35.478 35.443 35.393 35.346 35.336 35.323 35.308 35.308 35.281 35.306 35.331 35.323 35.316 35.338 35.371 35.386 35.451 35.546 35.598 35.578 35.611 35.693 35.731 35.736 35.748 35.798 35.863 35.941 35.943 36.063 36.093 36.183 36.173 36.208 36.238 36.273 36.321 36.361 36.408 36.526 36.593 36.688 36.796 36.848 36.906 37.028 37.163 37.218 37.348 37.458 37.593 37.693 37.791 37.933 38.056 38.153 38.181 38.316 38.421 38.558 38.691 38.836 38.961 39.093 39.206 39.336 39.481 39.638 39.721 39.818 39.883 40.001 40.021 40.086 40.156 40.266 40.323 40.378 40.473 40.598 40.688 40.846 40.923 41.048 41.188 41.328 41.428 41.533 41.636 41.718 41.756 41.796 41.858 41.921 41.938 41.936 41.938 41.961 41.903 41.868 41.826 41.773 41.723 41.671 41.573 41.511 41.461 41.391 41.331 41.308 41.266 41.246 41.233 41.221 41.203 41.206 41.246 41.236 41.278 41.343 41.383 41.438 41.498 41.548 41.601 41.673 41.738 41.821 41.888 41.986 42.066 42.153 42.261 42.288 42.388 42.511 42.626 42.703 42.816 42.921 43.053 43.151 43.278 43.411 43.558 43.703 43.838 43.971 44.128 44.283 44.411 44.561 44.718 44.833 44.983 45.131 45.271 45.383 45.493 45.638 45.716 45.801 45.891 45.961 46.043 46.116 46.186 46.266 46.366 46.466 46.516 46.533 46.578 46.643 46.758 46.798 46.741 46.646 46.591 46.536 46.513 46.573 46.508 46.603 46.726 46.926 47.136 47.183 47.128 47.108 47.141 47.188 47.246 47.308 47.353 47.401 47.423 47.403 47.396 47.433 47.451 47.483 47.538 47.586 47.616 47.608 47.576 47.618 47.628 47.588 47.543 47.506 47.491 47.506 47.521 47.488 47.481 47.436
29.173 29.171 29.208 29.198 29.188 29.208 29.208 29.213 29.231 29.263 29.323 29.343 29.368 29.388 29.446 29.458 29.496 29.506 29.521 29.511 29.536 29.561 29.566 29.566 29.578 29.591 29.576 29.591 29.601 29.593 29.576 29.571 29.591 29.556 29.553 29.528 29.568 29.531 29.548 29.558 29.561 29.583 29.613 29.638 29.671 29.688 29.713 29.766 29.811 29.866 29.901 29.963 30.003 30.046 30.083 30.118 30.133 30.178 30.216 30.228 30.253 30.243 30.241 30.213 30.226 30.213 30.196 30.261 30.303 30.316 30.348 30.403 30.473 30.508 30.528 30.563 30.638 30.716 30.783 30.861 30.948 31.051 31.133 31.203 31.251 31.293 31.346 31.408 31.451 31.478 31.493 31.516 31.526 31.546 31.583 31.621 31.651 31.676 31.736 31.751 31.793 31.846 31.921 31.996 32.078 32.176 32.306 32.473 32.723 32.976 33.186 33.373 33.656 33.736 33.728 33.733 33.763 33.833 33.928 33.981 34.043 34.153 34.293 34.451 34.588 34.688 34.801 34.906 34.996 35.091 35.181 35.278 35.361 35.478 35.588 35.643 35.736 35.793 35.866 35.926 36.031 36.093 36.148 36.236 36.341 36.468 36.568 36.563 36.593 36.678 36.713 36.778 36.853 36.926 37.008 37.081 37.146 37.221 37.276 37.338 37.386 37.441 37.473 37.536 37.608 37.666 37.658 37.708 37.728 37.763 37.771 37.763 37.748 37.733 37.698 37.688 37.623 37.571 37.523 37.498 37.446 37.391 37.333 37.286 37.218 37.168 37.136 37.093 37.043 37.001 36.968 36.911 36.856 36.786 36.683 36.621 36.538 36.436 36.336 36.246 36.131 36.028 35.908 35.828 35.751 35.688 35.638 35.631 35.583 35.536 35.488 35.458 35.416 35.423 35.361 35.326 35.298 35.308 35.281 35.258 35.288 35.296 35.276 35.301 35.301 35.336 35.368 35.398 35.481 35.581 35.586 35.601 35.636 35.671 35.731 35.713 35.756 35.836 35.913 35.956 36.021 36.113 36.108 36.138 36.156 36.211 36.293 36.358 36.368 36.396 36.453 36.551 36.666 36.718 36.828 36.888 37.048 37.113 37.206 37.308 37.448 37.541 37.651 37.763 37.843 37.973 38.108 38.211 38.283 38.396 38.508 38.628 38.768 38.893 39.043 39.156 39.271 39.423 39.553 39.666 39.781 39.853 39.973 40.056 40.081 40.151 40.201 40.298 40.408 40.533 40.631 40.753 40.846 40.948 41.068 41.203 41.308 41.423 41.516 41.643 41.741 41.811 41.866 41.898 41.966 41.986 41.991 41.988 41.988 41.971 41.886 41.823 41.791 41.763 41.713 41.606 41.541 41.501 41.421 41.346 41.338 41.286 41.243 41.263 41.238 41.231 41.243 41.221 41.218 41.273 41.316 41.361 41.406 41.486 41.531 41.573 41.658 41.703 41.756 41.818 41.893 42.026 42.098 42.181 42.278 42.366 42.471 42.553 42.646 42.741 42.881 43.013 43.098 43.226 43.386 43.498 43.641 43.781 43.946 44.066 44.203 44.393 44.513 44.676 44.791 44.933 45.038 45.216 45.361 45.451 45.558 45.666 45.783 45.863 45.921 45.988 46.103 46.168 46.216 46.293 46.388 46.446 46.533 46.541 46.608 46.663 46.823 46.778 46.726 46.686 46.646 46.673 46.561 46.551 46.543 46.568 46.838 47.076 47.213 47.138 47.088 47.158 47.228 47.238 47.306 47.323 47.383 47.423 47.441 47.443 47.463 47.483 47.516 47.543 47.571 47.598 47.581 47.563 47.646 47.621 47.576 47.531 47.491 47.466 47.471 47.526 47.513 47.503 47.523
29.183 29.168 29.178 29.168 29.186 29.216 29.191 29.216 29.246 29.271 29.308 29.351 29.368 29.381 29.421 29.471 29.473 29.526 29.508 29.493 29.521 29.543 29.563 29.556 29.568 29.568 29.563 29.558 29.583 29.573 29.548 29.551 29.548 29.533 29.546 29.548 29.546 29.531 29.561 29.563 29.568 29.576 29.618 29.658 29.686 29.713 29.738 29.758 29.811 29.861 29.871 29.991 30.003 29.988 30.056 30.066 30.101 30.101 30.143 30.163 30.196 30.193 30.191 30.163 30.133 30.131 30.146 30.173 30.238 30.278 30.296 30.351 30.443 30.473 30.538 30.583 30.651 30.711 30.801 30.856 30.956 31.056 31.123 31.188 31.248 31.296 31.368 31.421 31.448 31.483 31.511 31.526 31.528 31.546 31.583 31.621 31.661 31.703 31.738 31.763 31.806 31.858 31.908 31.993 32.058 32.141 32.258 32.421 32.661 32.888 33.128 33.346 33.636 33.731 33.673 33.668 33.693 33.753 33.841 33.888 33.951 34.066 34.231 34.403 34.573 34.696 34.773 34.893 34.993 35.066 35.171 35.263 35.341 35.476 35.566 35.643 35.738 35.796 35.858 35.938 36.053 36.131 36.201 36.266 36.596 36.636 36.546 36.523 36.556 36.631 36.711 36.788 36.856 36.948 37.031 37.128 37.196 37.251 37.278 37.303 37.333 37.408 37.463 37.513 37.593 37.636 37.663 37.698 37.701 37.733 37.783 37.751 37.736 37.713 37.681 37.668 37.631 37.581 37.518 37.466 37.426 37.388 37.328 37.278 37.173 37.156 37.126 37.076 37.041 36.993 36.961 36.886 36.826 36.763 36.683 36.608 36.528 36.441 36.331 36.263 36.171 36.041 35.911 35.821 35.763 35.696 35.633 35.601 35.583 35.551 35.486 35.461 35.428 35.393 35.378 35.311 35.296 35.278 35.261 35.246 35.251 35.278 35.276 35.268 35.251 35.303 35.341 35.383 35.451 35.561 35.578 35.558 35.591 35.666 35.696 35.691 35.716 35.803 35.918 35.908 35.953 36.036 36.128 36.131 36.176 36.211 36.241 36.318 36.378 36.378 36.456 36.571 36.601 36.658 36.836 36.896 36.968 37.081 37.158 37.231 37.356 37.498 37.608 37.748 37.801 37.923 38.031 38.143 38.258 38.363 38.461 38.606 38.693 38.856 39.006 39.076 39.256 39.378 39.468 39.618 39.743 39.836 39.971 40.021 40.061 40.143 40.208 40.273 40.461 40.541 40.656 40.771 40.798 40.921 41.043 41.176 41.341 41.423 41.538 41.661 41.763 41.818 41.891 41.913 41.981 42.023 42.016 42.048 42.043 41.993 41.931 41.873 41.823 41.771 41.716 41.668 41.586 41.533 41.471 41.396 41.323 41.296 41.298 41.268 41.248 41.243 41.261 41.241 41.221 41.253 41.273 41.326 41.376 41.438 41.483 41.558 41.608 41.713 41.751 41.773 41.823 41.933 42.048 42.133 42.183 42.276 42.376 42.506 42.561 42.683 42.798 42.913 43.048 43.163 43.323 43.461 43.581 43.711 43.911 44.013 44.166 44.338 44.463 44.628 44.741 44.866 45.026 45.188 45.293 45.433 45.556 45.641 45.733 45.818 45.906 45.986 46.056 46.111 46.196 46.256 46.348 46.448 46.526 46.536 46.583 46.628 46.721 46.811 46.838 46.806 46.871 46.831 46.643 46.571 46.558 46.571 46.643 46.841 47.016 47.041 47.081 47.166 47.236 47.278 47.303 47.343 47.403 47.406 47.451 47.491 47.481 47.478 47.501 47.531 47.558 47.586 47.558 47.593 47.583 47.596 47.581 47.546 47.488 47.486 47.493 47.538 47.543 47.541 47.541
29.148 29.168 29.188 29.183 29.208 29.203 29.198 29.213 29.268 29.268 29.286 29.303 29.353 29.383 29.406 29.463 29.466 29.501 29.496 29.498 29.488 29.493 29.496 29.533 29.548 29.546 29.551 29.563 29.553 29.538 29.516 29.528 29.528 29.541 29.541 29.561 29.538 29.551 29.548 29.571 29.586 29.591 29.628 29.666 29.686 29.723 29.726 29.748 29.811 29.853 29.856 29.893 29.926 29.923 29.981 29.993 30.036 30.051 30.086 30.103 30.103 30.136 30.136 30.108 30.083 30.081 30.116 30.156 30.211 30.248 30.286 30.336 30.418 30.468 30.508 30.568 30.633 30.696 30.751 30.856 30.958 31.021 31.118 31.193 31.248 31.308 31.366 31.398 31.443 31.481 31.516 31.536 31.573 31.586 31.618 31.616 31.661 31.703 31.721 31.753 31.788 31.846 31.891 31.956 32.048 32.111 32.213 32.351 32.623 32.863 33.058 33.238 33.508 33.651 33.618 33.573 33.618 33.656 33.703 33.771 33.861 33.971 34.138 34.348 34.551 34.683 34.771 34.856 34.981 35.058 35.156 35.253 35.333 35.433 35.561 35.653 35.738 35.808 35.903 36.021 36.118 36.151 36.178 36.223 36.416 36.491 36.426 36.486 36.553 36.671 36.738 36.813 36.913 36.996 37.058 37.116 37.166 37.218 37.253 37.296 37.358 37.408 37.478 37.498 37.573 37.623 37.626 37.683 37.693 37.716 37.723 37.723 37.711 37.683 37.641 37.643 37.636 37.578 37.478 37.441 37.401 37.371 37.331 37.251 37.198 37.126 37.108 37.046 37.003 36.986 36.951 36.871 36.801 36.778 36.696 36.621 36.503 36.421 36.343 36.258 36.178 36.071 35.951 35.811 35.728 35.681 35.613 35.576 35.561 35.543 35.486 35.446 35.421 35.363 35.356 35.281 35.271 35.243 35.228 35.248 35.236 35.256 35.238 35.238 35.238 35.276 35.298 35.351 35.393 35.496 35.588 35.533 35.546 35.646 35.673 35.703 35.708 35.768 35.868 35.946 35.966 36.043 36.061 36.118 36.181 36.268 36.268 36.341 36.358 36.391 36.436 36.536 36.583 36.676 36.821 36.871 36.946 37.046 37.158 37.191 37.276 37.388 37.553 37.656 37.778 37.881 38.021 38.103 38.183 38.273 38.386 38.533 38.663 38.793 38.883 38.976 39.128 39.311 39.423 39.628 39.703 39.848 39.888 39.991 40.063 40.121 40.166 40.316 40.373 40.496 40.581 40.708 40.823 40.963 41.021 41.133 41.278 41.423 41.536 41.648 41.751 41.821 41.958 41.998 42.036 42.046 42.071 42.048 42.038 42.016 41.958 41.921 41.893 41.821 41.751 41.678 41.591 41.553 41.473 41.423 41.346 41.326 41.338 41.316 41.293 41.263 41.253 41.243 41.216 41.203 41.286 41.336 41.363 41.408 41.473 41.506 41.551 41.631 41.688 41.753 41.803 41.851 41.948 42.073 42.151 42.233 42.308 42.436 42.533 42.631 42.761 42.851 42.948 43.123 43.231 43.438 43.553 43.678 43.821 43.978 44.128 44.266 44.403 44.578 44.673 44.818 44.963 45.133 45.221 45.373 45.488 45.591 45.671 45.801 45.883 45.966 46.051 46.111 46.193 46.231 46.301 46.411 46.483 46.546 46.558 46.613 46.658 46.751 46.846 46.851 46.841 46.766 46.701 46.618 46.568 46.573 46.601 46.673 46.886 46.966 47.053 47.143 47.246 47.306 47.348 47.366 47.393 47.436 47.461 47.496 47.528 47.498 47.516 47.523 47.548 47.566 47.556 47.546 47.556 47.531 47.531 47.528 47.508 47.548 47.571 47.561 47.566 47.578 47.566
29.123 29.181 29.171 29.198 29.226 29.213 29.223 29.221 29.263 29.243 29.281 29.321 29.351 29.381 29.418 29.448 29.458 29.463 29.451 29.451 29.461 29.496 29.486 29.511 29.521 29.521 29.523 29.521 29.518 29.516 29.531 29.516 29.513 29.538 29.543 29.556 29.558 29.556 29.541 29.568 29.578 29.616 29.633 29.651 29.653 29.678 29.688 29.681 29.723 29.746 29.798 29.858 29.858 29.876 29.936 29.978 30.001 30.026 30.016 30.066 30.056 30.093 30.126 30.083 30.048 30.048 30.081 30.086 30.136 30.243 30.276 30.341 30.388 30.436 30.503 30.571 30.653 30.711 30.756 30.853 30.926 31.011 31.086 31.161 31.268 31.303 31.338 31.411 31.441 31.498 31.533 31.578 31.586 31.596 31.616 31.643 31.673 31.711 31.701 31.746 31.781 31.838 31.903 31.986 32.041 32.106 32.196 32.276 32.528 32.748 32.923 33.053 33.243 33.461 33.478 33.443 33.513 33.558 33.583 33.666 33.751 33.838 34.023 34.366 34.546 34.673 34.748 34.846 34.993 35.068 35.141 35.243 35.328 35.423 35.571 35.681 35.791 35.806 35.948 36.023 36.098 36.088 36.143 36.241 36.323 36.368 36.433 36.513 36.603 36.688 36.783 36.836 36.908 36.991 37.051 37.098 37.096 37.183 37.243 37.308 37.373 37.418 37.466 37.491 37.546 37.581 37.618 37.668 37.728 37.706 37.691 37.701 37.721 37.681 37.651 37.638 37.616 37.576 37.496 37.416 37.378 37.351 37.306 37.231 37.193 37.138 37.096 37.056 37.003 36.971 36.938 36.886 36.826 36.753 36.711 36.628 36.533 36.441 36.328 36.268 36.166 36.058 35.968 35.818 35.753 35.673 35.588 35.566 35.538 35.501 35.491 35.426 35.383 35.366 35.321 35.268 35.251 35.231 35.208 35.191 35.201 35.203 35.226 35.243 35.233 35.261 35.281 35.301 35.363 35.461 35.548 35.538 35.556 35.593 35.658 35.673 35.686 35.736 35.833 35.931 35.998 36.016 36.041 36.098 36.201 36.216 36.336 36.321 36.383 36.408 36.471 36.496 36.538 36.646 36.738 36.808 36.896 37.018 37.083 37.141 37.258 37.303 37.423 37.606 37.708 37.838 37.938 38.048 38.118 38.221 38.353 38.463 38.636 38.736 38.863 38.971 39.081 39.193 39.338 39.526 39.668 39.776 39.898 39.928 40.018 40.116 40.203 40.298 40.403 40.481 40.581 40.713 40.888 40.938 41.036 41.126 41.263 41.396 41.498 41.616 41.726 41.816 41.898 41.996 42.056 42.071 42.091 42.098 42.071 42.061 41.988 41.963 41.928 41.876 41.761 41.671 41.641 41.583 41.501 41.466 41.451 41.358 41.333 41.321 41.323 41.306 41.286 41.256 41.238 41.233 41.258 41.343 41.356 41.363 41.431 41.491 41.506 41.583 41.678 41.706 41.743 41.783 41.906 41.981 42.078 42.213 42.273 42.361 42.478 42.591 42.748 42.821 42.916 43.068 43.206 43.343 43.503 43.653 43.766 43.936 44.091 44.231 44.388 44.518 44.648 44.756 44.871 45.023 45.193 45.321 45.446 45.586 45.683 45.766 45.876 45.963 46.013 46.091 46.133 46.203 46.271 46.376 46.416 46.521 46.573 46.631 46.668 46.698 46.771 46.853 46.843 46.818 46.753 46.673 46.626 46.598 46.591 46.533 46.673 46.838 47.003 47.133 47.223 47.311 47.366 47.383 47.423 47.478 47.511 47.521 47.513 47.516 47.508 47.501 47.533 47.521 47.488 47.513 47.556 47.476 47.488 47.466 47.486 47.566 47.581 47.573 47.576 47.598 47.571
29.151 29.176 29.201 29.228 29.221 29.226 29.206 29.223 29.238 29.238 29.271 29.336 29.343 29.338 29.393 29.416 29.421 29.431 29.416 29.421 29.451 29.471 29.473 29.496 29.503 29.521 29.521 29.513 29.511 29.506 29.508 29.506 29.511 29.521 29.523 29.508 29.528 29.511 29.501 29.516 29.503 29.521 29.558 29.583 29.601 29.606 29.613 29.636 29.671 29.701 29.736 29.793 29.836 29.846 29.883 29.916 29.928 29.931 29.981 30.008 30.031 30.038 30.078 30.088 30.061 30.086 30.111 30.093 30.168 30.241 30.273 30.338 30.348 30.413 30.486 30.556 30.618 30.698 30.786 30.856 30.916 31.016 31.081 31.153 31.238 31.283 31.328 31.423 31.478 31.491 31.526 31.553 31.586 31.586 31.613 31.631 31.653 31.698 31.693 31.741 31.788 31.833 31.911 31.981 32.031 32.068 32.133 32.191 32.371 32.588 32.746 32.863 32.961 33.186 33.266 33.266 33.311 33.393 33.498 33.548 33.628 33.726 33.918 34.341 34.598 34.651 34.756 34.866 34.998 35.083 35.178 35.286 35.423 35.488 35.543 35.618 35.753 35.788 35.898 35.936 36.018 36.106 36.173 36.231 36.313 36.378 36.486 36.573 36.656 36.703 36.761 36.833 36.926 36.968 37.018 37.073 37.123 37.178 37.223 37.278 37.356 37.393 37.436 37.453 37.493 37.551 37.608 37.663 37.711 37.721 37.716 37.686 37.691 37.651 37.658 37.621 37.596 37.548 37.486 37.403 37.351 37.318 37.263 37.213 37.186 37.103 37.076 37.046 36.983 36.928 36.898 36.858 36.793 36.756 36.713 36.623 36.508 36.431 36.338 36.236 36.143 36.063 35.966 35.846 35.736 35.641 35.606 35.543 35.508 35.496 35.428 35.403 35.356 35.338 35.316 35.278 35.238 35.211 35.193 35.186 35.181 35.186 35.183 35.213 35.231 35.243 35.243 35.261 35.338 35.403 35.493 35.531 35.538 35.558 35.611 35.663 35.688 35.683 35.776 35.908 35.988 36.018 36.048 36.073 36.178 36.206 36.236 36.278 36.333 36.398 36.451 36.496 36.551 36.661 36.738 36.808 36.901 36.958 37.061 37.093 37.193 37.331 37.433 37.551 37.666 37.713 37.856 38.003 38.106 38.181 38.326 38.428 38.528 38.618 38.743 38.928 39.048 39.156 39.288 39.446 39.606 39.731 39.806 39.918 40.013 40.088 40.193 40.286 40.388 40.531 40.623 40.768 40.841 40.913 41.031 41.131 41.263 41.391 41.493 41.616 41.733 41.766 41.876 41.958 42.023 42.033 42.091 42.093 42.048 42.038 41.986 41.966 41.973 41.893 41.828 41.706 41.691 41.638 41.551 41.536 41.501 41.436 41.393 41.361 41.308 41.303 41.281 41.283 41.268 41.248 41.256 41.336 41.343 41.366 41.411 41.471 41.508 41.541 41.581 41.673 41.716 41.736 41.831 41.906 42.033 42.138 42.216 42.316 42.448 42.566 42.673 42.738 42.926 43.011 43.153 43.311 43.441 43.608 43.743 43.886 44.023 44.178 44.336 44.443 44.601 44.738 44.883 44.991 45.123 45.276 45.426 45.506 45.651 45.741 45.833 45.918 45.958 46.063 46.141 46.176 46.273 46.323 46.358 46.456 46.538 46.608 46.668 46.696 46.728 46.808 46.831 46.863 46.791 46.751 46.773 46.693 46.658 46.653 46.603 46.686 46.906 47.131 47.286 47.326 47.411 47.448 47.488 47.521 47.528 47.518 47.543 47.521 47.508 47.511 47.521 47.513 47.488 47.488 47.501 47.456 47.448 47.503 47.543 47.616 47.578 47.643 47.606 47.621 47.596
29.156 29.173 29.198 29.208 29.233 29.216 29.208 29.233 29.251 29.273 29.278 29.281 29.313 29.328 29.361 29.393 29.398 29.411 29.416 29.413 29.428 29.446 29.463 29.488 29.498 29.496 29.478 29.498 29.506 29.491 29.488 29.471 29.513 29.508 29.526 29.491 29.501 29.466 29.456 29.431 29.446 29.468 29.496 29.556 29.553 29.561 29.616 29.616 29.623 29.653 29.693 29.713 29.736 29.803 29.821 29.843 29.848 29.898 29.928 29.951 29.976 29.976 30.028 30.063 30.068 30.086 30.108 30.128 30.178 30.231 30.268 30.336 30.376 30.443 30.501 30.576 30.638 30.711 30.778 30.851 30.916 30.993 31.076 31.141 31.216 31.268 31.341 31.401 31.451 31.483 31.521 31.571 31.583 31.603 31.638 31.658 31.658 31.693 31.711 31.743 31.776 31.811 31.873 31.926 31.983 32.053 32.113 32.143 32.261 32.406 32.606 32.703 32.758 32.913 33.008 33.096 33.193 33.276 33.378 33.463 33.518 33.601 33.928 34.591 34.703 34.683 34.776 34.888 35.053 35.138 35.236 35.288 35.418 35.471 35.476 35.533 35.676 35.783 35.881 35.953 36.036 36.103 36.193 36.273 36.351 36.381 36.478 36.551 36.581 36.648 36.726 36.816 36.906 36.971 37.008 37.086 37.128 37.171 37.226 37.261 37.301 37.381 37.423 37.443 37.496 37.528 37.571 37.616 37.653 37.691 37.716 37.693 37.681 37.656 37.628 37.603 37.573 37.518 37.483 37.418 37.366 37.326 37.263 37.206 37.136 37.083 37.076 37.031 36.973 36.901 36.871 36.833 36.811 36.756 36.678 36.603 36.513 36.418 36.331 36.228 36.138 36.058 35.968 35.858 35.728 35.641 35.591 35.531 35.473 35.458 35.426 35.393 35.333 35.298 35.278 35.253 35.218 35.178 35.176 35.188 35.171 35.156 35.206 35.221 35.211 35.221 35.236 35.268 35.293 35.356 35.426 35.543 35.563 35.548 35.608 35.658 35.701 35.686 35.748 35.838 35.948 36.018 36.063 36.086 36.173 36.206 36.266 36.311 36.348 36.358 36.471 36.496 36.571 36.611 36.723 36.778 36.876 36.961 37.038 37.073 37.148 37.273 37.378 37.523 37.611 37.713 37.796 37.933 38.063 38.158 38.256 38.373 38.461 38.563 38.678 38.843 38.968 39.086 39.243 39.386 39.551 39.656 39.771 39.863 39.998 40.096 40.168 40.273 40.391 40.516 40.663 40.698 40.831 40.928 41.058 41.156 41.276 41.406 41.453 41.581 41.723 41.821 41.898 41.968 42.016 42.033 42.103 42.098 42.068 42.061 42.026 41.981 41.991 41.926 41.836 41.773 41.726 41.721 41.626 41.558 41.528 41.501 41.441 41.383 41.338 41.333 41.291 41.276 41.248 41.253 41.238 41.291 41.353 41.368 41.388 41.431 41.473 41.528 41.571 41.626 41.686 41.738 41.808 41.888 41.971 42.091 42.166 42.283 42.393 42.506 42.608 42.718 42.851 42.991 43.123 43.261 43.393 43.548 43.698 43.843 43.963 44.103 44.296 44.388 44.531 44.691 44.861 44.943 45.118 45.251 45.346 45.463 45.623 45.726 45.791 45.893 45.961 46.028 46.116 46.151 46.231 46.301 46.348 46.413 46.496 46.571 46.663 46.711 46.731 46.748 46.858 46.893 46.863 46.888 46.901 46.888 46.741 46.681 46.683 46.641 46.778 46.961 47.226 47.336 47.423 47.478 47.513 47.528 47.508 47.578 47.571 47.531 47.533 47.508 47.506 47.531 47.548 47.501 47.481 47.408 47.496 47.541 47.581 47.613 47.596 47.646 47.656 47.608 47.631
29.176 29.176 29.188 29.221 29.206 29.236 29.233 29.243 29.241 29.278 29.273 29.283 29.326 29.341 29.341 29.381 29.416 29.398 29.416 29.418 29.426 29.443 29.446 29.458 29.446 29.456 29.476 29.473 29.483 29.478 29.433 29.418 29.513 29.458 29.366 29.503 29.516 29.503 29.461 29.403 29.438 29.428 29.448 29.486 29.498 29.546 29.571 29.588 29.591 29.596 29.661 29.688 29.741 29.756 29.773 29.798 29.826 29.853 29.893 29.943 29.946 29.968 30.028 30.076 30.086 30.081 30.123 30.161 30.173 30.258 30.288 30.303 30.361 30.431 30.498 30.578 30.608 30.701 30.753 30.818 30.883 30.981 31.036 31.101 31.168 31.256 31.311 31.348 31.418 31.468 31.521 31.548 31.573 31.591 31.603 31.651 31.648 31.658 31.678 31.698 31.718 31.776 31.811 31.868 31.936 31.983 32.061 32.108 32.181 32.273 32.403 32.526 32.616 32.711 32.871 33.003 33.133 33.246 33.338 33.423 33.473 33.551 33.851 34.748 34.826 34.758 34.823 34.951 35.073 35.111 35.203 35.278 35.316 35.401 35.481 35.603 35.703 35.781 35.906 35.986 36.078 36.138 36.171 36.263 36.331 36.383 36.431 36.491 36.531 36.588 36.716 36.801 36.878 36.953 37.006 37.051 37.098 37.123 37.196 37.253 37.301 37.373 37.388 37.431 37.491 37.528 37.568 37.591 37.633 37.666 37.678 37.671 37.686 37.658 37.628 37.636 37.563 37.501 37.448 37.421 37.356 37.296 37.223 37.181 37.123 37.073 37.038 37.008 36.951 36.898 36.851 36.831 36.778 36.733 36.663 36.608 36.518 36.403 36.313 36.231 36.126 36.046 35.956 35.891 35.748 35.638 35.571 35.521 35.473 35.441 35.433 35.381 35.343 35.266 35.263 35.251 35.228 35.171 35.166 35.156 35.166 35.168 35.193 35.178 35.183 35.196 35.233 35.248 35.268 35.298 35.416 35.533 35.558 35.521 35.581 35.646 35.681 35.681 35.711 35.793 35.936 36.008 36.048 36.116 36.138 36.198 36.223 36.333 36.346 36.391 36.431 36.503 36.541 36.596 36.658 36.758 36.811 36.908 36.998 37.063 37.138 37.203 37.313 37.383 37.518 37.643 37.778 37.878 38.023 38.071 38.183 38.291 38.466 38.561 38.668 38.783 38.878 39.013 39.181 39.308 39.441 39.603 39.708 39.823 39.948 40.093 40.133 40.263 40.373 40.491 40.618 40.706 40.826 40.953 41.056 41.136 41.241 41.408 41.486 41.601 41.716 41.806 41.886 41.956 42.046 42.048 42.081 42.063 42.081 42.043 42.031 42.026 41.963 41.928 41.871 41.798 41.761 41.706 41.676 41.606 41.581 41.516 41.453 41.413 41.386 41.348 41.328 41.313 41.268 41.248 41.223 41.261 41.283 41.333 41.378 41.413 41.411 41.491 41.533 41.568 41.643 41.708 41.796 41.831 41.921 42.068 42.156 42.266 42.353 42.466 42.583 42.713 42.841 42.928 43.083 43.223 43.363 43.518 43.653 43.818 43.943 44.081 44.221 44.366 44.496 44.653 44.761 44.913 45.031 45.156 45.303 45.433 45.558 45.688 45.786 45.871 45.961 46.026 46.111 46.168 46.228 46.283 46.308 46.388 46.466 46.543 46.641 46.708 46.736 46.743 46.793 46.888 46.953 46.921 47.013 47.031 46.941 46.736 46.686 46.681 46.713 46.821 47.033 47.301 47.408 47.501 47.551 47.528 47.546 47.646 47.598 47.546 47.543 47.551 47.528 47.541 47.573 47.506 47.446 47.443 47.546 47.598 47.636 47.666 47.671 47.671 47.663 47.678 47.678
29.151 29.191 29.211 29.213 29.231 29.211 29.216 29.231 29.236 29.256 29.273 29.293 29.333 29.316 29.338 29.378 29.368 29.313 29.361 29.393 29.393 29.406 29.413 29.421 29.423 29.421 29.413 29.471 29.436 29.406 29.371 29.373 29.411 29.363 29.373 29.393 29.481 29.501 29.466 29.363 29.468 29.416 29.406 29.441 29.481 29.511 29.536 29.578 29.586 29.598 29.628 29.676 29.726 29.728 29.758 29.788 29.803 29.843 29.868 29.896 29.928 29.948 30.016 30.051 30.083 30.098 30.136 30.146 30.146 30.216 30.246 30.281 30.323 30.426 30.486 30.541 30.553 30.636 30.691 30.768 30.828 30.916 30.966 31.053 31.141 31.223 31.283 31.343 31.373 31.426 31.471 31.493 31.513 31.508 31.526 31.536 31.563 31.593 31.586 31.646 31.653 31.688 31.733 31.791 31.838 31.898 31.988 32.058 32.136 32.241 32.328 32.458 32.573 32.726 32.848 33.001 33.141 33.248 33.308 33.421 33.471 33.576 33.791 34.628 34.908 34.836 34.946 34.983 35.018 35.078 35.143 35.256 35.313 35.401 35.516 35.603 35.703 35.801 35.908 36.003 36.088 36.121 36.161 36.223 36.278 36.326 36.386 36.443 36.538 36.613 36.673 36.751 36.846 36.921 36.973 37.036 37.093 37.103 37.178 37.236 37.311 37.368 37.388 37.418 37.486 37.521 37.551 37.558 37.568 37.621 37.658 37.661 37.653 37.638 37.608 37.578 37.576 37.488 37.428 37.391 37.346 37.278 37.211 37.168 37.091 37.076 37.001 36.968 36.913 36.876 36.783 36.783 36.751 36.708 36.653 36.598 36.523 36.418 36.316 36.226 36.123 36.041 35.938 35.863 35.768 35.648 35.541 35.508 35.453 35.438 35.403 35.366 35.323 35.266 35.261 35.216 35.211 35.178 35.146 35.138 35.138 35.146 35.166 35.158 35.153 35.173 35.181 35.223 35.243 35.298 35.406 35.513 35.581 35.548 35.591 35.656 35.688 35.686 35.716 35.776 35.906 35.971 36.038 36.103 36.163 36.173 36.178 36.271 36.336 36.388 36.426 36.473 36.528 36.546 36.591 36.701 36.796 36.846 36.926 36.986 37.063 37.143 37.271 37.381 37.448 37.576 37.698 37.856 37.953 38.078 38.171 38.291 38.348 38.518 38.588 38.696 38.841 38.948 39.088 39.251 39.363 39.598 39.671 39.786 39.873 40.008 40.108 40.218 40.371 40.538 40.596 40.693 40.828 40.923 41.006 41.138 41.233 41.371 41.468 41.591 41.703 41.816 41.926 41.981 42.033 42.098 42.113 42.146 42.146 42.066 42.063 42.033 42.008 41.961 41.913 41.881 41.813 41.753 41.711 41.651 41.591 41.558 41.481 41.453 41.426 41.351 41.356 41.326 41.283 41.238 41.241 41.243 41.268 41.318 41.348 41.391 41.403 41.421 41.503 41.546 41.613 41.701 41.763 41.813 41.888 42.018 42.143 42.246 42.318 42.466 42.583 42.668 42.773 42.901 43.068 43.211 43.313 43.481 43.608 43.766 43.898 44.033 44.171 44.328 44.488 44.583 44.716 44.898 45.006 45.141 45.248 45.368 45.513 45.626 45.723 45.843 45.943 46.016 46.098 46.148 46.188 46.261 46.323 46.413 46.458 46.513 46.598 46.676 46.763 46.758 46.788 46.841 46.961 46.981 46.991 47.136 47.131 46.968 46.813 46.743 46.733 46.731 46.913 47.121 47.428 47.498 47.548 47.586 47.581 47.663 47.621 47.596 47.586 47.586 47.603 47.606 47.596 47.573 47.548 47.533 47.611 47.663 47.683 47.718 47.706 47.731 47.751 47.768 47.731
29.146 29.186 29.213 29.241 29.233 29.241 29.216 29.238 29.243 29.243 29.273 29.281 29.288 29.273 29.308 29.358 29.326 29.311 29.333 29.328 29.326 29.351 29.401 29.388 29.416 29.411 29.393 29.443 29.413 29.383 29.371 29.356 29.391 29.403 29.421 29.423 29.418 29.503 29.568 29.416 29.488 29.426 29.376 29.401 29.478 29.506 29.546 29.558 29.611 29.611 29.621 29.678 29.703 29.718 29.748 29.758 29.781 29.823 29.808 29.876 29.926 29.928 29.886 29.756 29.776 29.861 29.961 30.138 30.171 30.211 30.226 30.218 30.293 30.378 30.458 30.491 30.548 30.601 30.658 30.743 30.791 30.873 30.918 31.013 31.083 31.161 31.213 31.271 31.321 31.361 31.406 31.431 31.468 31.481 31.491 31.488 31.503 31.546 31.541 31.576 31.578 31.633 31.686 31.756 31.788 31.881 31.951 32.041 32.101 32.206 32.311 32.446 32.576 32.841 33.006 33.108 33.248 33.333 33.358 33.436 33.491 33.621 33.871 34.443 34.816 34.748 34.886 34.946 35.023 35.106 35.183 35.246 35.298 35.406 35.528 35.626 35.741 35.838 35.921 36.013 36.051 36.096 36.141 36.201 36.256 36.306 36.366 36.456 36.508 36.563 36.616 36.698 36.816 36.868 36.941 37.001 37.066 37.113 37.146 37.201 37.281 37.356 37.363 37.401 37.481 37.506 37.516 37.538 37.566 37.601 37.626 37.648 37.636 37.631 37.613 37.556 37.563 37.496 37.428 37.368 37.298 37.266 37.196 37.138 37.086 37.031 36.993 36.938 36.878 36.843 36.786 36.741 36.721 36.683 36.633 36.603 36.511 36.421 36.326 36.231 36.126 36.046 35.953 35.863 35.771 35.651 35.573 35.491 35.438 35.418 35.398 35.348 35.323 35.238 35.231 35.191 35.168 35.166 35.151 35.121 35.131 35.121 35.123 35.156 35.186 35.166 35.193 35.208 35.238 35.303 35.401 35.453 35.563 35.571 35.588 35.646 35.678 35.706 35.708 35.733 35.851 35.946 36.038 36.103 36.158 36.191 36.196 36.233 36.266 36.361 36.396 36.496 36.511 36.506 36.568 36.656 36.753 36.841 36.893 36.941 37.053 37.103 37.228 37.361 37.463 37.551 37.618 37.741 37.898 37.976 38.141 38.228 38.333 38.413 38.521 38.636 38.803 38.901 39.013 39.158 39.311 39.501 39.616 39.746 39.866 39.968 40.081 40.208 40.396 40.486 40.576 40.698 40.816 40.921 41.016 41.153 41.261 41.373 41.498 41.571 41.698 41.826 41.921 41.986 42.018 42.081 42.136 42.196 42.156 42.116 42.081 42.041 41.988 41.948 41.936 41.911 41.868 41.773 41.741 41.711 41.653 41.616 41.536 41.451 41.428 41.353 41.311 41.331 41.288 41.253 41.201 41.201 41.238 41.283 41.326 41.333 41.406 41.438 41.448 41.498 41.588 41.673 41.766 41.811 41.861 41.983 42.083 42.231 42.333 42.411 42.536 42.601 42.721 42.866 42.988 43.116 43.288 43.431 43.561 43.703 43.851 44.001 44.143 44.291 44.466 44.581 44.661 44.828 44.976 45.121 45.221 45.338 45.463 45.573 45.718 45.838 45.921 46.031 46.088 46.181 46.203 46.263 46.338 46.421 46.483 46.506 46.551 46.671 46.736 46.781 46.806 46.838 46.876 46.983 47.038 47.036 47.106 47.251 47.056 46.796 46.791 46.771 46.791 46.988 47.276 47.353 47.468 47.616 47.648 47.681 47.653 47.646 47.638 47.623 47.641 47.656 47.641 47.623 47.631 47.626 47.676 47.693 47.713 47.736 47.756 47.783 47.806 47.798 47.821
29.166 29.178 29.216 29.241 29.218 29.231 29.218 29.246 29.246 29.256 29.268 29.273 29.248 29.261 29.266 29.328 29.343 29.363 29.316 29.316 29.336 29.361 29.393 29.398 29.408 29.388 29.386 29.408 29.408 29.376 29.323 29.311 29.413 29.431 29.443 29.451 29.408 29.471 29.486 29.413 29.523 29.461 29.361 29.373 29.428 29.483 29.541 29.581 29.596 29.606 29.621 29.678 29.693 29.693 29.761 29.753 29.753 29.781 29.798 29.866 29.928 29.838 29.676 29.651 29.678 29.661 29.678 29.993 30.156 30.206 30.218 30.236 30.296 30.313 30.421 30.468 30.543 30.603 30.661 30.723 30.776 30.861 30.941 30.981 31.056 31.101 31.161 31.226 31.276 31.323 31.378 31.396 31.398 31.423 31.441 31.461 31.453 31.486 31.511 31.523 31.558 31.576 31.638 31.711 31.783 31.846 31.923 31.993 32.101 32.171 32.313 32.491 32.736 33.008 33.176 33.276 33.358 33.373 33.383 33.428 33.526 33.651 33.868 34.253 34.673 34.701 34.801 34.926 35.033 35.088 35.171 35.271 35.388 35.461 35.548 35.628 35.678 35.773 35.873 35.956 35.991 36.068 36.161 36.183 36.248 36.286 36.343 36.398 36.453 36.548 36.633 36.703 36.806 36.866 36.926 36.976 37.063 37.116 37.148 37.191 37.276 37.323 37.371 37.398 37.433 37.481 37.481 37.531 37.536 37.571 37.601 37.603 37.626 37.596 37.586 37.578 37.548 37.491 37.406 37.336 37.278 37.253 37.193 37.113 37.031 36.993 36.946 36.888 36.856 36.821 36.786 36.746 36.701 36.691 36.623 36.571 36.518 36.421 36.328 36.221 36.113 36.046 35.973 35.861 35.776 35.638 35.566 35.503 35.476 35.411 35.378 35.341 35.303 35.241 35.233 35.181 35.171 35.151 35.158 35.131 35.116 35.093 35.121 35.143 35.153 35.146 35.171 35.196 35.263 35.288 35.348 35.441 35.543 35.591 35.556 35.618 35.663 35.681 35.721 35.736 35.811 35.933 36.033 36.058 36.141 36.196 36.253 36.236 36.258 36.331 36.388 36.408 36.531 36.523 36.536 36.571 36.718 36.781 36.898 36.911 36.988 37.098 37.166 37.286 37.386 37.473 37.578 37.688 37.821 37.941 38.021 38.136 38.251 38.363 38.463 38.616 38.711 38.873 38.966 39.133 39.241 39.411 39.548 39.711 39.798 39.901 40.046 40.163 40.301 40.421 40.528 40.641 40.798 40.891 41.016 41.143 41.268 41.361 41.463 41.598 41.691 41.788 41.911 41.976 42.058 42.123 42.158 42.196 42.186 42.136 42.113 42.053 42.033 41.971 41.958 41.903 41.898 41.848 41.801 41.733 41.708 41.648 41.591 41.496 41.461 41.398 41.338 41.316 41.281 41.251 41.206 41.168 41.231 41.276 41.298 41.308 41.343 41.441 41.443 41.471 41.571 41.643 41.696 41.811 41.878 41.943 42.061 42.203 42.316 42.396 42.481 42.618 42.703 42.838 42.963 43.093 43.241 43.383 43.543 43.683 43.823 43.963 44.116 44.233 44.413 44.553 44.661 44.766 44.908 45.093 45.168 45.273 45.428 45.548 45.683 45.796 45.888 45.998 46.086 46.156 46.213 46.266 46.338 46.426 46.488 46.511 46.553 46.626 46.708 46.783 46.823 46.828 46.878 46.916 47.046 47.088 47.078 47.326 47.133 47.003 46.843 46.798 46.776 46.821 47.028 47.178 47.331 47.518 47.676 47.701 47.693 47.711 47.718 47.691 47.666 47.658 47.686 47.681 47.676 47.686 47.698 47.688 47.728 47.748 47.778 47.826 47.853 47.826 47.843
29.183 29.181 29.196 29.213 29.223 29.246 29.228 29.226 29.231 29.223 29.226 29.233 29.223 29.201 29.201 29.268 29.273 29.326 29.316 29.313 29.351 29.371 29.386 29.386 29.408 29.411 29.378 29.401 29.388 29.353 29.313 29.266 29.356 29.353 29.348 29.343 29.366 29.441 29.446 29.506 29.506 29.418 29.333 29.351 29.438 29.501 29.513 29.586 29.588 29.598 29.641 29.651 29.673 29.676 29.728 29.733 29.723 29.716 29.751 29.826 29.863 29.776 29.686 29.658 29.666 29.646 29.646 29.923 30.168 30.216 30.243 30.253 30.301 30.341 30.461 30.508 30.521 30.586 30.658 30.691 30.776 30.841 30.923 30.986 31.056 31.083 31.161 31.203 31.263 31.303 31.358 31.373 31.388 31.393 31.396 31.416 31.413 31.461 31.491 31.491 31.558 31.603 31.628 31.696 31.733 31.841 31.928 32.018 32.231 32.388 32.643 32.806 33.021 33.181 33.181 33.243 33.278 33.328 33.376 33.491 33.571 33.701 33.948 34.398 34.758 34.726 34.826 34.913 35.006 35.098 35.176 35.258 35.331 35.396 35.476 35.546 35.631 35.758 35.851 35.951 35.996 36.033 36.108 36.168 36.223 36.276 36.318 36.401 36.466 36.523 36.603 36.693 36.761 36.863 36.913 36.958 37.028 37.078 37.123 37.166 37.228 37.281 37.356 37.378 37.396 37.448 37.443 37.486 37.526 37.561 37.603 37.603 37.603 37.583 37.586 37.556 37.523 37.461 37.408 37.328 37.253 37.198 37.151 37.066 36.991 36.966 36.923 36.883 36.856 36.811 36.783 36.721 36.686 36.651 36.618 36.561 36.511 36.411 36.336 36.236 36.156 36.036 35.956 35.888 35.796 35.691 35.591 35.518 35.458 35.393 35.331 35.311 35.291 35.246 35.213 35.181 35.176 35.163 35.156 35.111 35.106 35.061 35.093 35.148 35.153 35.148 35.178 35.183 35.243 35.301 35.361 35.433 35.516 35.586 35.586 35.616 35.643 35.688 35.708 35.738 35.798 35.893 35.956 36.016 36.088 36.173 36.193 36.273 36.278 36.298 36.358 36.423 36.441 36.466 36.523 36.581 36.656 36.753 36.813 36.871 36.951 37.081 37.138 37.236 37.328 37.403 37.541 37.696 37.828 37.901 38.031 38.083 38.191 38.281 38.401 38.543 38.681 38.781 38.878 39.038 39.181 39.288 39.511 39.611 39.738 39.863 40.016 40.158 40.256 40.381 40.541 40.636 40.793 40.878 40.983 41.136 41.236 41.308 41.431 41.623 41.703 41.848 41.908 41.983 42.051 42.121 42.178 42.206 42.213 42.158 42.128 42.108 42.053 41.998 41.956 41.918 41.931 41.901 41.856 41.753 41.683 41.686 41.606 41.551 41.461 41.408 41.373 41.346 41.318 41.311 41.248 41.203 41.206 41.266 41.313 41.316 41.323 41.396 41.446 41.483 41.558 41.623 41.698 41.801 41.841 41.933 42.023 42.148 42.243 42.378 42.486 42.598 42.708 42.806 42.941 43.063 43.176 43.328 43.461 43.608 43.786 43.903 44.081 44.226 44.333 44.468 44.593 44.723 44.883 45.048 45.163 45.271 45.378 45.528 45.668 45.763 45.888 45.973 46.056 46.141 46.201 46.273 46.348 46.406 46.446 46.516 46.548 46.591 46.666 46.736 46.818 46.851 46.913 46.893 46.981 47.116 47.118 47.076 47.101 47.163 47.058 46.868 46.823 46.833 46.838 47.026 47.201 47.351 47.528 47.668 47.796 47.793 47.758 47.721 47.686 47.658 47.683 47.718 47.731 47.728 47.703 47.701 47.736 47.761 47.791 47.838 47.883 47.921 47.926
29.191 29.188 29.196 29.218 29.228 29.246 29.228 29.186 29.178 29.206 29.206 29.193 29.191 29.163 29.221 29.231 29.223 29.298 29.288 29.316 29.356 29.386 29.383 29.366 29.371 29.371 29.341 29.333 29.338 29.308 29.296 29.236 29.291 29.311 29.336 29.383 29.401 29.458 29.518 29.521 29.488 29.413 29.381 29.373 29.433 29.486 29.498 29.581 29.558 29.568 29.578 29.603 29.621 29.661 29.666 29.678 29.683 29.686 29.736 29.763 29.768 29.756 29.696 29.676 29.656 29.661 29.633 29.876 30.186 30.241 30.256 30.241 30.273 30.318 30.456 30.498 30.516 30.588 30.638 30.711 30.778 30.833 30.913 30.998 31.056 31.091 31.146 31.226 31.278 31.301 31.331 31.341 31.378 31.398 31.393 31.408 31.413 31.426 31.471 31.501 31.568 31.598 31.736 31.828 31.901 32.073 32.173 32.328 32.561 32.736 32.823 32.938 32.976 33.048 33.116 33.176 33.238 33.291 33.396 33.486 33.628 33.743 33.963 34.596 34.821 34.778 34.843 34.916 34.968 35.031 35.146 35.196 35.296 35.373 35.436 35.511 35.618 35.711 35.808 35.893 35.928 36.011 36.073 36.148 36.218 36.291 36.326 36.396 36.451 36.526 36.598 36.696 36.771 36.838 36.911 36.948 37.003 37.061 37.091 37.138 37.198 37.248 37.321 37.341 37.378 37.403 37.426 37.466 37.493 37.506 37.551 37.573 37.598 37.578 37.568 37.513 37.481 37.416 37.381 37.301 37.258 37.178 37.136 37.053 36.998 36.938 36.883 36.861 36.831 36.783 36.733 36.723 36.688 36.636 36.623 36.553 36.491 36.416 36.351 36.241 36.151 36.048 35.963 35.898 35.828 35.718 35.583 35.513 35.476 35.391 35.346 35.291 35.258 35.216 35.208 35.178 35.141 35.128 35.113 35.098 35.083 35.081 35.083 35.116 35.136 35.148 35.158 35.191 35.253 35.263 35.333 35.436 35.483 35.598 35.626 35.603 35.633 35.691 35.711 35.728 35.751 35.858 35.933 35.993 36.063 36.136 36.186 36.273 36.293 36.316 36.358 36.383 36.398 36.423 36.506 36.533 36.678 36.728 36.816 36.848 36.941 37.003 37.103 37.216 37.311 37.383 37.443 37.601 37.713 37.856 37.956 38.046 38.116 38.211 38.343 38.468 38.601 38.748 38.831 38.961 39.133 39.263 39.396 39.543 39.671 39.818 39.973 40.116 40.238 40.386 40.511 40.616 40.771 40.893 41.011 41.108 41.236 41.283 41.428 41.546 41.688 41.796 41.893 41.998 42.063 42.151 42.173 42.218 42.236 42.201 42.186 42.143 42.078 42.033 41.966 41.951 41.978 41.966 41.916 41.793 41.753 41.693 41.663 41.606 41.488 41.431 41.386 41.361 41.331 41.311 41.251 41.233 41.203 41.233 41.278 41.326 41.346 41.391 41.411 41.486 41.561 41.611 41.681 41.756 41.853 41.928 41.993 42.076 42.213 42.336 42.476 42.558 42.653 42.778 42.908 43.013 43.151 43.311 43.441 43.571 43.716 43.878 44.013 44.146 44.286 44.438 44.568 44.693 44.836 44.976 45.081 45.236 45.351 45.506 45.628 45.746 45.866 45.976 46.078 46.178 46.223 46.261 46.358 46.401 46.438 46.503 46.551 46.588 46.606 46.701 46.798 46.843 46.881 46.923 46.958 47.056 47.166 47.173 47.153 47.261 47.373 47.076 46.861 46.861 46.886 46.918 47.008 47.203 47.393 47.611 47.758 47.803 47.783 47.743 47.716 47.673 47.683 47.693 47.723 47.698 47.651 47.721 47.733 47.743 47.783 47.821 47.888 47.921 47.903
29.153 29.181 29.153 29.141 29.183 29.198 29.198 29.191 29.183 29.196 29.208 29.178 29.191 29.143 29.176 29.208 29.208 29.266 29.276 29.288 29.323 29.366 29.383 29.378 29.366 29.353 29.341 29.311 29.318 29.283 29.258 29.218 29.223 29.246 29.301 29.366 29.418 29.446 29.486 29.451 29.456 29.471 29.441 29.421 29.476 29.463 29.498 29.551 29.556 29.496 29.556 29.551 29.601 29.603 29.663 29.651 29.661 29.688 29.731 29.761 29.771 29.756 29.681 29.656 29.671 29.661 29.676 29.781 30.051 30.193 30.273 30.256 30.268 30.321 30.426 30.523 30.551 30.588 30.653 30.736 30.791 30.871 30.918 30.988 31.063 31.111 31.178 31.243 31.296 31.311 31.333 31.371 31.378 31.406 31.411 31.426 31.478 31.528 31.651 31.776 31.861 32.061 32.146 32.138 32.188 32.343 32.371 32.453 32.533 32.606 32.703 32.826 32.893 32.976 33.046 33.161 33.248 33.343 33.463 33.526 33.646 33.798 33.978 34.516 34.848 34.811 34.838 34.876 34.933 35.021 35.118 35.191 35.291 35.376 35.423 35.473 35.566 35.658 35.746 35.841 35.943 36.001 36.063 36.133 36.213 36.298 36.366 36.378 36.426 36.516 36.573 36.686 36.733 36.823 36.866 36.913 36.958 37.041 37.101 37.113 37.181 37.226 37.263 37.301 37.346 37.388 37.416 37.436 37.451 37.486 37.506 37.513 37.561 37.561 37.528 37.513 37.451 37.403 37.348 37.278 37.231 37.178 37.096 37.046 36.983 36.916 36.853 36.828 36.771 36.758 36.741 36.696 36.676 36.656 36.631 36.558 36.493 36.421 36.358 36.268 36.123 36.026 35.933 35.871 35.806 35.736 35.623 35.476 35.446 35.401 35.326 35.268 35.231 35.208 35.191 35.173 35.121 35.113 35.103 35.091 35.078 35.061 35.056 35.088 35.108 35.146 35.151 35.203 35.238 35.281 35.343 35.398 35.496 35.583 35.663 35.606 35.621 35.696 35.726 35.733 35.711 35.828 35.913 35.971 36.063 36.106 36.191 36.241 36.258 36.306 36.346 36.396 36.393 36.433 36.463 36.543 36.591 36.663 36.768 36.863 36.906 36.983 37.068 37.143 37.241 37.368 37.456 37.563 37.636 37.756 37.906 37.986 38.036 38.178 38.308 38.396 38.538 38.638 38.753 38.881 39.031 39.211 39.353 39.488 39.598 39.718 39.878 39.991 40.168 40.331 40.486 40.598 40.778 40.908 41.026 41.128 41.308 41.346 41.438 41.546 41.681 41.786 41.851 41.946 42.073 42.128 42.171 42.231 42.241 42.203 42.181 42.146 42.096 42.043 41.993 41.988 41.963 41.981 41.928 41.851 41.796 41.748 41.711 41.631 41.528 41.476 41.431 41.406 41.348 41.321 41.276 41.231 41.223 41.271 41.303 41.318 41.351 41.398 41.396 41.473 41.568 41.606 41.681 41.753 41.816 41.911 41.991 42.038 42.171 42.286 42.438 42.546 42.636 42.711 42.858 42.961 43.098 43.236 43.401 43.566 43.673 43.838 43.986 44.131 44.248 44.401 44.538 44.653 44.771 44.933 45.038 45.206 45.348 45.476 45.613 45.718 45.848 45.943 46.053 46.153 46.233 46.273 46.348 46.426 46.436 46.483 46.536 46.583 46.618 46.678 46.746 46.808 46.888 46.913 46.951 47.028 47.083 47.176 47.208 47.311 47.411 47.238 47.026 46.876 46.898 46.891 46.928 47.126 47.311 47.476 47.606 47.703 47.763 47.756 47.733 47.758 47.791 47.756 47.701 47.673 47.706 47.753 47.713 47.723 47.766 47.823 47.891 47.936 47.946
29.146 29.163 29.181 29.168 29.166 29.193 29.191 29.173 29.186 29.201 29.181 29.203 29.196 29.168 29.156 29.228 29.211 29.243 29.253 29.268 29.311 29.368 29.396 29.378 29.373 29.361 29.316 29.296 29.263 29.266 29.248 29.226 29.173 29.248 29.306 29.346 29.376 29.416 29.421 29.413 29.408 29.411 29.411 29.453 29.483 29.466 29.503 29.526 29.533 29.528 29.516 29.568 29.613 29.611 29.616 29.646 29.658 29.698 29.741 29.736 29.746 29.761 29.671 29.643 29.646 29.663 29.656 29.778 30.151 30.266 30.283 30.288 30.333 30.376 30.441 30.541 30.596 30.641 30.643 30.733 30.821 30.876 30.958 31.023 31.078 31.163 31.208 31.251 31.298 31.336 31.358 31.418 31.471 31.561 31.618 31.661 31.703 31.806 31.926 31.968 32.018 32.048 32.081 32.111 32.176 32.233 32.273 32.371 32.428 32.531 32.633 32.731 32.841 32.966 33.108 33.226 33.296 33.406 33.533 33.603 33.706 33.823 34.013 34.366 34.771 34.836 34.873 34.873 34.906 34.963 35.058 35.168 35.246 35.326 35.381 35.441 35.563 35.641 35.728 35.816 35.941 35.986 36.078 36.123 36.208 36.303 36.341 36.386 36.421 36.501 36.576 36.643 36.716 36.778 36.846 36.926 36.936 36.993 37.056 37.078 37.103 37.196 37.273 37.283 37.308 37.346 37.381 37.386 37.403 37.453 37.498 37.491 37.508 37.516 37.503 37.473 37.441 37.363 37.298 37.216 37.181 37.146 37.063 37.023 36.976 36.891 36.851 36.806 36.773 36.746 36.701 36.693 36.691 36.646 36.586 36.543 36.478 36.428 36.353 36.253 36.118 36.056 35.941 35.881 35.823 35.728 35.638 35.543 35.436 35.368 35.328 35.256 35.236 35.218 35.168 35.143 35.128 35.098 35.091 35.076 35.053 35.063 35.051 35.096 35.111 35.146 35.161 35.178 35.246 35.283 35.338 35.411 35.473 35.553 35.636 35.638 35.623 35.661 35.718 35.708 35.723 35.748 35.866 35.966 36.033 36.081 36.166 36.198 36.253 36.303 36.356 36.403 36.376 36.418 36.461 36.496 36.541 36.588 36.751 36.806 36.868 36.943 37.028 37.078 37.156 37.286 37.403 37.531 37.626 37.693 37.816 37.921 38.016 38.156 38.241 38.366 38.438 38.546 38.683 38.791 38.981 39.106 39.248 39.408 39.503 39.663 39.793 39.963 40.128 40.298 40.496 40.601 40.743 40.926 41.041 41.163 41.281 41.338 41.433 41.571 41.671 41.761 41.866 41.953 42.083 42.143 42.186 42.218 42.241 42.241 42.181 42.148 42.118 42.096 42.031 42.031 41.996 41.976 41.953 41.888 41.846 41.806 41.748 41.681 41.588 41.496 41.463 41.433 41.363 41.338 41.321 41.288 41.241 41.253 41.281 41.308 41.358 41.396 41.408 41.478 41.551 41.626 41.653 41.696 41.813 41.903 41.951 42.038 42.163 42.253 42.388 42.478 42.593 42.718 42.828 42.951 43.073 43.208 43.346 43.476 43.628 43.786 43.943 44.078 44.223 44.333 44.516 44.623 44.771 44.921 45.058 45.168 45.296 45.451 45.591 45.706 45.821 45.956 46.006 46.101 46.203 46.268 46.333 46.413 46.473 46.506 46.556 46.578 46.648 46.683 46.741 46.788 46.853 46.911 46.943 47.008 47.063 47.151 47.226 47.218 47.246 47.213 47.268 47.088 46.961 46.906 46.908 46.966 47.173 47.328 47.453 47.553 47.648 47.721 47.751 47.798 47.798 47.753 47.686 47.653 47.681 47.666 47.686 47.703 47.753 47.833 47.896 47.951 47.896
29.148 29.166 29.153 29.151 29.153 29.178 29.198 29.178 29.173 29.171 29.156 29.163 29.181 29.156 29.126 29.188 29.213 29.243 29.258 29.261 29.308 29.363 29.371 29.391 29.366 29.328 29.301 29.301 29.263 29.256 29.231 29.203 29.191 29.291 29.333 29.371 29.403 29.396 29.396 29.393 29.383 29.371 29.391 29.416 29.453 29.476 29.521 29.548 29.553 29.561 29.538 29.591 29.598 29.583 29.598 29.648 29.653 29.678 29.723 29.716 29.743 29.706 29.666 29.653 29.656 29.663 29.653 29.708 30.198 30.318 30.311 30.346 30.363 30.423 30.463 30.573 30.616 30.633 30.708 30.758 30.876 30.931 30.996 31.071 31.106 31.176 31.258 31.373 31.478 31.503 31.606 31.606 31.686 31.731 31.738 31.761 31.741 31.726 31.771 31.781 31.831 31.863 31.936 32.011 32.041 32.128 32.223 32.301 32.411 32.501 32.656 32.766 32.876 33.028 33.163 33.246 33.368 33.476 33.541 33.613 33.731 33.838 34.003 34.313 34.783 34.853 34.866 34.883 34.933 34.963 35.051 35.118 35.188 35.288 35.386 35.431 35.553 35.636 35.733 35.833 35.891 35.983 36.043 36.131 36.186 36.261 36.341 36.361 36.398 36.456 36.543 36.638 36.693 36.771 36.833 36.891 36.948 36.983 37.026 37.058 37.071 37.141 37.216 37.263 37.283 37.308 37.303 37.343 37.406 37.428 37.466 37.448 37.473 37.503 37.496 37.443 37.391 37.346 37.288 37.231 37.163 37.113 37.061 36.991 36.943 36.876 36.863 36.796 36.756 36.756 36.723 36.661 36.651 36.626 36.581 36.553 36.476 36.428 36.346 36.258 36.168 36.056 35.953 35.876 35.816 35.743 35.663 35.538 35.448 35.363 35.321 35.263 35.208 35.191 35.186 35.141 35.133 35.086 35.081 35.096 35.058 35.023 35.033 35.088 35.121 35.143 35.191 35.203 35.258 35.311 35.353 35.421 35.476 35.536 35.616 35.656 35.638 35.653 35.666 35.711 35.718 35.741 35.828 35.916 36.001 36.068 36.128 36.163 36.253 36.281 36.346 36.383 36.421 36.416 36.451 36.513 36.536 36.633 36.683 36.771 36.808 36.953 37.011 37.088 37.143 37.223 37.321 37.476 37.561 37.646 37.761 37.838 37.933 38.051 38.203 38.256 38.373 38.498 38.628 38.711 38.868 38.983 39.168 39.316 39.431 39.638 39.781 39.968 40.103 40.281 40.451 40.566 40.738 40.888 41.043 41.193 41.223 41.308 41.416 41.543 41.641 41.743 41.873 41.956 42.068 42.146 42.173 42.238 42.231 42.251 42.206 42.161 42.156 42.116 42.041 42.043 42.046 42.021 41.991 41.928 41.901 41.846 41.801 41.733 41.678 41.588 41.518 41.456 41.411 41.383 41.361 41.336 41.313 41.258 41.278 41.328 41.353 41.403 41.451 41.511 41.536 41.608 41.633 41.666 41.766 41.893 41.941 42.011 42.126 42.166 42.308 42.426 42.576 42.681 42.796 42.891 43.028 43.176 43.316 43.476 43.598 43.726 43.906 44.056 44.226 44.306 44.451 44.613 44.741 44.883 45.006 45.148 45.248 45.403 45.533 45.633 45.786 45.936 46.006 46.096 46.176 46.296 46.358 46.398 46.478 46.506 46.546 46.608 46.633 46.666 46.713 46.781 46.846 46.868 46.926 47.023 47.056 47.118 47.228 47.288 47.283 47.201 47.246 47.233 47.118 46.946 46.923 46.913 47.041 47.198 47.333 47.438 47.536 47.618 47.711 47.731 47.706 47.706 47.683 47.698 47.696 47.703 47.746 47.761 47.753 47.766 47.818 47.881 47.793
29.136 29.131 29.136 29.141 29.158 29.201 29.198 29.183 29.186 29.178 29.148 29.148 29.158 29.156 29.146 29.146 29.196 29.221 29.228 29.213 29.268 29.336 29.363 29.376 29.346 29.308 29.308 29.296 29.253 29.208 29.211 29.178 29.193 29.273 29.371 29.386 29.383 29.371 29.398 29.353 29.378 29.376 29.358 29.378 29.431 29.473 29.508 29.558 29.573 29.566 29.566 29.561 29.576 29.611 29.608 29.623 29.658 29.701 29.721 29.691 29.671 29.681 29.673 29.681 29.666 29.656 29.681 29.673 30.138 30.333 30.328 30.358 30.396 30.433 30.493 30.588 30.626 30.676 30.726 30.801 30.861 30.958 31.091 31.166 31.268 31.388 31.461 31.483 31.571 31.596 31.618 31.593 31.561 31.571 31.553 31.546 31.591 31.603 31.666 31.693 31.711 31.813 31.888 31.963 32.058 32.146 32.241 32.313 32.438 32.581 32.691 32.833 32.951 33.083 33.183 33.261 33.393 33.483 33.566 33.646 33.748 33.838 34.003 34.308 34.778 34.836 34.843 34.873 34.921 34.941 35.046 35.103 35.201 35.308 35.373 35.451 35.526 35.646 35.716 35.813 35.873 35.951 36.026 36.123 36.168 36.246 36.331 36.371 36.401 36.471 36.536 36.611 36.681 36.736 36.801 36.856 36.926 36.981 37.028 37.043 37.076 37.121 37.201 37.246 37.241 37.278 37.281 37.336 37.373 37.363 37.406 37.418 37.438 37.441 37.441 37.403 37.378 37.318 37.276 37.213 37.143 37.096 37.026 36.983 36.916 36.856 36.836 36.793 36.768 36.751 36.731 36.656 36.636 36.581 36.543 36.531 36.478 36.396 36.333 36.251 36.188 36.063 35.953 35.861 35.796 35.751 35.681 35.556 35.458 35.388 35.323 35.268 35.208 35.166 35.166 35.148 35.123 35.078 35.078 35.073 35.066 35.018 35.028 35.068 35.088 35.126 35.186 35.203 35.251 35.323 35.358 35.416 35.478 35.516 35.583 35.636 35.656 35.668 35.718 35.748 35.736 35.736 35.778 35.876 35.983 36.031 36.116 36.146 36.211 36.271 36.303 36.348 36.406 36.428 36.428 36.453 36.531 36.573 36.668 36.718 36.786 36.878 36.988 37.033 37.083 37.181 37.298 37.378 37.491 37.598 37.746 37.781 37.916 38.006 38.098 38.193 38.343 38.431 38.546 38.658 38.771 38.936 39.116 39.258 39.378 39.518 39.718 39.878 40.026 40.211 40.416 40.561 40.743 40.893 41.023 41.111 41.233 41.318 41.401 41.493 41.601 41.693 41.846 41.943 42.071 42.151 42.163 42.218 42.238 42.251 42.253 42.218 42.181 42.098 42.098 42.076 42.068 42.088 42.026 41.998 41.943 41.913 41.848 41.751 41.701 41.641 41.576 41.506 41.466 41.443 41.391 41.411 41.331 41.298 41.291 41.346 41.351 41.413 41.421 41.463 41.551 41.608 41.631 41.663 41.761 41.838 41.933 42.011 42.093 42.176 42.266 42.408 42.553 42.661 42.756 42.866 42.983 43.128 43.251 43.406 43.543 43.686 43.843 43.996 44.181 44.303 44.426 44.538 44.701 44.828 44.986 45.138 45.256 45.401 45.526 45.661 45.763 45.886 45.998 46.083 46.138 46.281 46.336 46.421 46.466 46.511 46.526 46.583 46.613 46.668 46.666 46.751 46.813 46.846 46.916 46.988 47.033 47.093 47.158 47.231 47.336 47.283 47.246 47.306 47.251 47.121 47.001 46.996 46.991 47.081 47.231 47.326 47.438 47.563 47.651 47.701 47.673 47.646 47.696 47.721 47.678 47.708 47.781 47.766 47.746 47.718 47.716 47.761 47.711
29.121 29.118 29.126 29.143 29.166 29.196 29.233 29.188 29.191 29.171 29.148 29.146 29.148 29.163 29.151 29.136 29.151 29.213 29.236 29.226 29.241 29.273 29.353 29.338 29.298 29.286 29.281 29.268 29.211 29.203 29.226 29.188 29.178 29.196 29.283 29.298 29.323 29.348 29.361 29.361 29.381 29.356 29.346 29.356 29.426 29.463 29.493 29.518 29.576 29.546 29.533 29.546 29.601 29.606 29.651 29.636 29.683 29.723 29.713 29.721 29.728 29.683 29.648 29.671 29.698 29.683 29.673 29.716 30.213 30.338 30.351 30.361 30.443 30.486 30.553 30.621 30.636 30.711 30.791 30.896 31.018 31.161 31.201 31.261 31.353 31.373 31.353 31.413 31.443 31.433 31.451 31.421 31.448 31.451 31.468 31.481 31.528 31.571 31.633 31.706 31.761 31.851 31.931 32.003 32.078 32.161 32.308 32.381 32.463 32.596 32.688 32.811 32.958 33.081 33.178 33.318 33.421 33.488 33.546 33.628 33.748 33.841 33.996 34.281 34.756 34.791 34.823 34.873 34.901 34.911 35.033 35.096 35.221 35.323 35.378 35.443 35.523 35.611 35.721 35.826 35.896 35.961 36.016 36.088 36.166 36.233 36.308 36.421 36.426 36.476 36.516 36.588 36.661 36.736 36.791 36.841 36.918 36.943 36.993 37.021 37.051 37.073 37.136 37.201 37.231 37.256 37.281 37.306 37.348 37.328 37.356 37.388 37.393 37.393 37.413 37.386 37.326 37.286 37.241 37.186 37.138 37.096 37.026 36.968 36.906 36.863 36.841 36.791 36.783 36.736 36.701 36.661 36.626 36.586 36.533 36.526 36.466 36.396 36.306 36.223 36.173 36.078 35.966 35.856 35.791 35.743 35.663 35.583 35.473 35.403 35.321 35.268 35.203 35.168 35.131 35.133 35.108 35.086 35.081 35.058 35.053 35.043 35.076 35.081 35.091 35.148 35.181 35.211 35.271 35.306 35.358 35.406 35.463 35.531 35.578 35.633 35.673 35.628 35.643 35.718 35.718 35.701 35.766 35.826 35.928 36.018 36.061 36.106 36.193 36.248 36.288 36.336 36.363 36.416 36.438 36.456 36.501 36.531 36.631 36.711 36.726 36.801 36.881 36.996 37.043 37.153 37.231 37.303 37.423 37.513 37.648 37.808 37.866 37.953 38.038 38.146 38.256 38.373 38.441 38.558 38.708 38.841 38.981 39.173 39.303 39.456 39.643 39.833 40.038 40.211 40.378 40.526 40.693 40.861 40.973 41.091 41.173 41.296 41.383 41.476 41.576 41.713 41.841 41.921 42.026 42.133 42.171 42.228 42.258 42.291 42.278 42.238 42.231 42.176 42.138 42.126 42.078 42.118 42.098 42.026 42.011 41.966 41.898 41.813 41.758 41.701 41.626 41.591 41.533 41.466 41.406 41.418 41.371 41.358 41.328 41.381 41.406 41.443 41.483 41.498 41.528 41.573 41.623 41.686 41.748 41.831 41.898 42.011 42.081 42.161 42.251 42.376 42.493 42.651 42.773 42.853 42.941 43.058 43.211 43.361 43.461 43.638 43.811 43.963 44.136 44.281 44.388 44.526 44.691 44.821 44.956 45.098 45.218 45.346 45.481 45.628 45.718 45.821 45.981 46.038 46.158 46.248 46.336 46.396 46.451 46.511 46.523 46.576 46.601 46.636 46.686 46.718 46.793 46.843 46.901 46.946 46.981 47.088 47.138 47.171 47.271 47.338 47.328 47.323 47.298 47.321 47.153 47.041 47.041 47.018 47.061 47.266 47.383 47.463 47.551 47.653 47.688 47.671 47.768 47.753 47.703 47.698 47.703 47.718 47.718 47.706 47.701 47.653 47.688
29.116 29.103 29.123 29.168 29.168 29.178 29.203 29.183 29.168 29.181 29.158 29.138 29.141 29.106 29.066 29.101 29.113 29.143 29.188 29.178 29.213 29.306 29.333 29.351 29.296 29.268 29.256 29.256 29.201 29.178 29.238 29.206 29.216 29.196 29.251 29.311 29.336 29.331 29.368 29.326 29.316 29.311 29.303 29.353 29.398 29.446 29.481 29.506 29.558 29.556 29.541 29.601 29.638 29.641 29.658 29.638 29.683 29.683 29.686 29.688 29.718 29.718 29.656 29.708 29.711 29.693 29.716 29.816 30.298 30.326 30.346 30.433 30.491 30.518 30.568 30.693 30.798 30.846 30.856 30.968 30.981 31.063 31.091 31.121 31.168 31.203 31.256 31.266 31.313 31.346 31.363 31.371 31.411 31.426 31.466 31.503 31.551 31.608 31.643 31.688 31.766 31.863 31.928 31.988 32.073 32.158 32.268 32.371 32.456 32.586 32.686 32.796 32.943 33.076 33.198 33.323 33.411 33.481 33.536 33.628 33.728 33.831 33.966 34.243 34.631 34.786 34.826 34.861 34.916 34.918 34.998 35.086 35.168 35.278 35.358 35.448 35.523 35.603 35.693 35.781 35.888 35.971 36.011 36.071 36.163 36.233 36.296 36.376 36.426 36.458 36.526 36.571 36.631 36.691 36.773 36.846 36.898 36.926 36.961 36.981 37.008 37.056 37.113 37.148 37.183 37.198 37.248 37.276 37.303 37.323 37.321 37.343 37.366 37.358 37.378 37.378 37.293 37.258 37.221 37.191 37.133 37.088 37.031 36.943 36.898 36.851 36.808 36.771 36.771 36.726 36.671 36.653 36.591 36.578 36.521 36.483 36.436 36.423 36.293 36.251 36.183 36.103 35.958 35.863 35.793 35.736 35.663 35.606 35.506 35.391 35.323 35.261 35.188 35.168 35.136 35.118 35.098 35.076 35.058 35.076 35.088 35.083 35.096 35.106 35.108 35.161 35.181 35.208 35.283 35.321 35.373 35.421 35.448 35.516 35.566 35.638 35.708 35.653 35.641 35.691 35.688 35.701 35.738 35.791 35.903 35.958 36.028 36.048 36.118 36.203 36.256 36.308 36.333 36.401 36.456 36.453 36.463 36.528 36.636 36.621 36.681 36.796 36.898 36.968 37.038 37.086 37.158 37.271 37.363 37.468 37.576 37.718 37.766 37.888 37.938 38.061 38.198 38.261 38.358 38.466 38.588 38.728 38.893 39.078 39.241 39.421 39.596 39.786 40.006 40.201 40.368 40.503 40.651 40.801 40.923 41.061 41.166 41.261 41.371 41.438 41.561 41.681 41.818 41.908 42.001 42.148 42.186 42.243 42.291 42.308 42.311 42.276 42.256 42.223 42.208 42.196 42.161 42.123 42.131 42.088 42.046 42.036 41.991 41.908 41.806 41.738 41.658 41.623 41.588 41.498 41.428 41.433 41.441 41.398 41.356 41.336 41.408 41.456 41.476 41.513 41.536 41.573 41.583 41.666 41.726 41.778 41.866 41.978 42.046 42.108 42.211 42.308 42.433 42.548 42.703 42.806 42.928 43.028 43.146 43.333 43.433 43.578 43.758 43.883 44.081 44.228 44.366 44.523 44.653 44.783 44.913 45.046 45.173 45.318 45.456 45.576 45.711 45.806 45.931 46.021 46.126 46.216 46.301 46.386 46.441 46.498 46.523 46.553 46.631 46.643 46.673 46.696 46.733 46.823 46.853 46.911 46.988 47.076 47.131 47.158 47.211 47.301 47.361 47.343 47.346 47.403 47.341 47.168 47.071 47.091 47.093 47.156 47.271 47.338 47.431 47.543 47.643 47.678 47.763 47.738 47.726 47.756 47.728 47.711 47.711 47.708 47.696 47.676 47.681
29.088 29.126 29.138 29.166 29.183 29.183 29.188 29.173 29.168 29.166 29.146 29.123 29.118 29.098 29.086 29.071 29.093 29.116 29.161 29.166 29.176 29.261 29.296 29.313 29.286 29.226 29.213 29.216 29.221 29.231 29.251 29.261 29.256 29.266 29.251 29.306 29.341 29.333 29.351 29.313 29.296 29.323 29.321 29.353 29.373 29.398 29.448 29.511 29.528 29.543 29.558 29.618 29.611 29.631 29.641 29.646 29.681 29.678 29.678 29.676 29.688 29.703 29.668 29.698 29.716 29.703 30.026 30.241 30.331 30.341 30.398 30.443 30.521 30.576 30.633 30.676 30.721 30.778 30.786 30.836 30.878 30.911 30.993 31.051 31.098 31.176 31.233 31.256 31.281 31.326 31.373 31.398 31.433 31.431 31.491 31.513 31.531 31.576 31.628 31.691 31.763 31.826 31.908 31.986 32.058 32.128 32.248 32.333 32.451 32.556 32.686 32.816 32.933 33.088 33.226 33.346 33.423 33.461 33.533 33.626 33.718 33.791 33.923 34.166 34.526 34.776 34.821 34.868 34.868 34.908 34.988 35.061 35.148 35.263 35.351 35.441 35.541 35.613 35.666 35.753 35.871 35.968 36.006 36.096 36.146 36.233 36.271 36.363 36.436 36.493 36.508 36.558 36.611 36.658 36.748 36.806 36.891 36.913 36.908 36.956 36.976 37.021 37.063 37.101 37.166 37.186 37.208 37.243 37.271 37.296 37.291 37.326 37.323 37.326 37.336 37.346 37.303 37.286 37.238 37.213 37.151 37.083 37.028 36.958 36.883 36.866 36.806 36.773 36.731 36.716 36.648 36.631 36.588 36.551 36.496 36.458 36.423 36.373 36.303 36.228 36.171 36.096 35.971 35.891 35.781 35.706 35.653 35.621 35.521 35.406 35.316 35.251 35.193 35.166 35.131 35.106 35.093 35.093 35.088 35.083 35.086 35.096 35.103 35.118 35.141 35.153 35.183 35.258 35.296 35.341 35.393 35.446 35.448 35.518 35.546 35.606 35.698 35.666 35.626 35.673 35.673 35.721 35.723 35.751 35.836 35.928 35.971 36.023 36.106 36.121 36.218 36.288 36.311 36.328 36.436 36.483 36.496 36.511 36.571 36.613 36.693 36.788 36.863 36.958 37.026 37.108 37.116 37.206 37.328 37.453 37.511 37.621 37.723 37.776 37.866 38.016 38.071 38.173 38.246 38.376 38.486 38.643 38.786 38.951 39.166 39.361 39.558 39.718 39.931 40.146 40.323 40.481 40.598 40.763 40.893 41.048 41.133 41.196 41.336 41.418 41.516 41.661 41.801 41.868 41.976 42.096 42.211 42.291 42.336 42.346 42.348 42.333 42.328 42.288 42.238 42.226 42.213 42.193 42.163 42.111 42.091 42.081 42.018 41.961 41.878 41.806 41.738 41.673 41.641 41.561 41.548 41.483 41.431 41.416 41.401 41.376 41.393 41.458 41.443 41.483 41.518 41.571 41.596 41.676 41.728 41.771 41.848 41.941 42.013 42.096 42.198 42.308 42.421 42.511 42.623 42.796 42.896 43.041 43.126 43.273 43.426 43.536 43.721 43.873 44.041 44.201 44.346 44.476 44.656 44.771 44.888 44.988 45.118 45.266 45.408 45.526 45.631 45.813 45.883 45.991 46.091 46.183 46.291 46.363 46.441 46.508 46.551 46.538 46.623 46.663 46.671 46.703 46.726 46.788 46.851 46.916 46.968 47.036 47.106 47.183 47.208 47.251 47.318 47.396 47.408 47.451 47.396 47.376 47.216 47.136 47.128 47.118 47.106 47.221 47.361 47.498 47.596 47.636 47.703 47.696 47.723 47.741 47.716 47.706 47.708 47.706 47.698 47.691 47.676
29.096 29.111 29.141 29.126 29.148 29.153 29.151 29.131 29.148 29.141 29.141 29.118 29.093 29.063 29.056 29.043 29.053 29.096 29.143 29.158 29.146 29.233 29.276 29.323 29.278 29.216 29.216 29.201 29.188 29.228 29.226 29.241 29.246 29.276 29.278 29.318 29.341 29.303 29.348 29.346 29.266 29.308 29.323 29.348 29.368 29.416 29.493 29.508 29.506 29.556 29.558 29.591 29.628 29.663 29.663 29.671 29.681 29.678 29.678 29.668 29.663 29.678 29.648 29.646 29.716 29.723 30.033 30.268 30.298 30.348 30.376 30.388 30.438 30.473 30.556 30.561 30.611 30.646 30.696 30.741 30.803 30.886 30.951 31.018 31.108 31.173 31.226 31.293 31.298 31.336 31.361 31.398 31.431 31.461 31.481 31.526 31.543 31.571 31.626 31.668 31.728 31.778 31.871 31.981 32.071 32.148 32.258 32.368 32.491 32.603 32.676 32.841 32.973 33.048 33.173 33.276 33.383 33.448 33.541 33.596 33.718 33.773 33.878 34.103 34.533 34.821 34.828 34.873 34.881 34.901 34.966 35.063 35.151 35.281 35.353 35.443 35.523 35.603 35.673 35.761 35.878 35.963 36.026 36.088 36.156 36.208 36.286 36.338 36.406 36.496 36.521 36.523 36.581 36.638 36.723 36.748 36.821 36.896 36.873 36.943 36.953 36.976 37.021 37.063 37.128 37.138 37.166 37.203 37.233 37.261 37.251 37.281 37.311 37.286 37.311 37.303 37.261 37.283 37.238 37.168 37.116 37.068 37.023 36.958 36.901 36.836 36.761 36.746 36.721 36.701 36.656 36.611 36.561 36.523 36.481 36.438 36.396 36.343 36.288 36.216 36.141 36.056 35.978 35.881 35.801 35.708 35.653 35.578 35.496 35.421 35.348 35.256 35.173 35.121 35.138 35.111 35.093 35.101 35.078 35.103 35.078 35.106 35.111 35.121 35.141 35.168 35.208 35.253 35.298 35.346 35.411 35.468 35.476 35.511 35.551 35.573 35.696 35.691 35.653 35.651 35.658 35.691 35.693 35.698 35.763 35.878 35.913 35.981 36.063 36.113 36.173 36.258 36.286 36.341 36.406 36.451 36.516 36.543 36.553 36.596 36.731 36.758 36.848 36.913 37.011 37.001 37.126 37.198 37.241 37.338 37.456 37.556 37.673 37.726 37.783 37.873 37.991 38.078 38.161 38.253 38.378 38.496 38.653 38.863 39.081 39.238 39.478 39.673 39.883 40.051 40.251 40.463 40.576 40.678 40.826 40.981 41.101 41.178 41.303 41.398 41.466 41.631 41.778 41.888 41.976 42.073 42.181 42.273 42.346 42.401 42.411 42.436 42.398 42.376 42.351 42.296 42.263 42.243 42.211 42.181 42.133 42.123 42.058 41.976 41.931 41.888 41.801 41.718 41.681 41.603 41.578 41.513 41.496 41.483 41.428 41.416 41.453 41.466 41.471 41.508 41.543 41.548 41.621 41.671 41.721 41.788 41.823 41.936 41.986 42.096 42.201 42.283 42.396 42.498 42.611 42.773 42.916 43.031 43.146 43.246 43.413 43.556 43.686 43.848 44.028 44.156 44.281 44.423 44.593 44.748 44.861 44.983 45.118 45.238 45.381 45.481 45.598 45.738 45.843 45.996 46.083 46.176 46.251 46.318 46.383 46.451 46.533 46.528 46.601 46.623 46.671 46.708 46.738 46.783 46.833 46.886 46.961 47.028 47.126 47.196 47.206 47.206 47.253 47.358 47.441 47.416 47.373 47.408 47.396 47.191 47.178 47.166 47.128 47.178 47.373 47.478 47.546 47.616 47.691 47.673 47.681 47.711 47.701 47.698 47.698 47.698 47.698 47.696 47.701
29.096 29.086 29.108 29.116 29.111 29.116 29.113 29.108 29.123 29.116 29.098 29.091 29.083 29.071 29.033 28.993 28.986 29.033 29.081 29.123 29.106 29.208 29.243 29.273 29.228 29.231 29.243 29.231 29.231 29.253 29.246 29.236 29.246 29.281 29.321 29.331 29.303 29.298 29.301 29.311 29.306 29.331 29.376 29.386 29.386 29.421 29.471 29.468 29.511 29.531 29.553 29.611 29.633 29.651 29.681 29.686 29.701 29.688 29.671 29.658 29.646 29.658 29.633 29.646 29.751 29.788 29.983 30.106 30.123 30.168 30.208 30.273 30.338 30.403 30.471 30.511 30.528 30.601 30.698 30.736 30.836 30.898 30.961 31.033 31.113 31.168 31.228 31.291 31.311 31.338 31.363 31.391 31.401 31.456 31.466 31.513 31.541 31.561 31.576 31.651 31.718 31.771 31.861 31.983 32.106 32.171 32.291 32.393 32.506 32.596 32.683 32.761 32.926 33.023 33.111 33.258 33.371 33.476 33.561 33.608 33.688 33.768 33.863 34.056 34.481 34.788 34.811 34.858 34.896 34.938 34.958 35.033 35.123 35.286 35.368 35.446 35.518 35.613 35.693 35.758 35.863 35.971 36.026 36.098 36.151 36.201 36.283 36.338 36.398 36.446 36.501 36.523 36.573 36.613 36.676 36.721 36.786 36.861 36.881 36.911 36.941 36.953 36.966 37.011 37.061 37.136 37.141 37.181 37.213 37.256 37.263 37.248 37.308 37.296 37.303 37.291 37.281 37.241 37.221 37.173 37.123 37.053 37.001 36.936 36.881 36.831 36.771 36.756 36.703 36.661 36.648 36.591 36.566 36.496 36.446 36.418 36.378 36.338 36.283 36.191 36.133 36.071 35.971 35.876 35.823 35.733 35.641 35.588 35.483 35.441 35.363 35.253 35.201 35.153 35.138 35.111 35.096 35.111 35.111 35.106 35.126 35.138 35.143 35.151 35.163 35.188 35.223 35.283 35.316 35.371 35.421 35.451 35.473 35.508 35.561 35.581 35.691 35.708 35.643 35.638 35.673 35.673 35.676 35.671 35.731 35.788 35.881 35.898 35.986 36.066 36.141 36.213 36.246 36.306 36.398 36.443 36.538 36.536 36.558 36.583 36.636 36.698 36.788 36.866 36.938 36.968 37.091 37.176 37.236 37.308 37.403 37.468 37.556 37.656 37.721 37.773 37.848 37.948 37.988 38.116 38.243 38.406 38.583 38.766 39.003 39.201 39.461 39.611 39.811 40.013 40.156 40.341 40.501 40.616 40.771 40.916 41.041 41.151 41.258 41.388 41.498 41.621 41.721 41.858 41.956 42.066 42.183 42.286 42.368 42.413 42.406 42.476 42.486 42.446 42.421 42.376 42.318 42.306 42.268 42.218 42.186 42.138 42.081 42.028 41.968 41.918 41.881 41.811 41.706 41.648 41.611 41.583 41.533 41.518 41.473 41.433 41.448 41.458 41.471 41.531 41.558 41.551 41.606 41.696 41.711 41.756 41.823 41.901 41.978 42.073 42.161 42.286 42.388 42.468 42.616 42.746 42.886 43.001 43.113 43.246 43.408 43.541 43.683 43.803 43.966 44.143 44.263 44.406 44.573 44.711 44.851 44.973 45.108 45.201 45.346 45.461 45.583 45.701 45.793 45.961 46.033 46.136 46.183 46.293 46.378 46.426 46.501 46.548 46.596 46.636 46.703 46.731 46.728 46.796 46.811 46.883 46.956 47.026 47.086 47.136 47.201 47.236 47.286 47.346 47.456 47.503 47.421 47.443 47.488 47.453 47.313 47.201 47.171 47.193 47.251 47.426 47.506 47.553 47.593 47.631 47.638 47.671 47.693 47.696 47.698 47.696 47.691 47.716 47.746
