ncols 436
nrows 31
xllcorner    429086
yllcorner    487608
cellsize     2
NODATA_value -9999
35.809 35.809 35.829 35.857 35.892 35.957 35.979 36.046 36.094 36.149 36.229 36.299 36.371 36.391 36.459 36.526 36.579 36.619 36.666 36.741 36.789 36.846 36.896 36.904 36.944 36.979 36.979 37.001 37.006 36.974 36.969 36.981 36.969 36.934 36.906 36.926 36.926 36.911 36.874 36.871 36.896 36.964 36.909 36.941 36.986 36.984 36.964 36.884 36.926 36.946 37.004 37.104 37.036 36.916 36.884 36.826 36.814 36.776 36.783 36.776 36.788 36.746 36.748 36.746 36.743 36.743 36.738 36.701 36.708 36.678 36.686 36.663 36.658 36.651 36.661 36.676 36.666 36.661 36.671 36.683 36.681 36.681 36.723 36.751 36.753 36.786 36.851 36.888 36.891 36.926 36.936 36.948 36.948 36.966 36.983 36.996 37.016 37.063 37.098 37.136 37.166 37.193 37.223 37.283 37.308 37.323 37.356 37.413 37.423 37.453 37.506 37.553 37.583 37.603 37.646 37.678 37.718 37.856 38.036 38.186 38.261 38.281 38.288 38.306 38.343 38.381 38.406 38.436 38.496 38.571 38.616 38.638 38.708 38.761 38.781 38.843 38.898 38.926 38.921 39.011 39.043 39.096 39.133 39.148 39.216 39.273 39.306 39.376 39.433 39.491 39.528 39.541 39.618 39.653 39.733 39.761 39.801 39.871 39.928 39.988 40.021 40.141 40.251 40.233 40.311 40.348 40.421 40.478 40.521 40.551 40.588 40.733 40.783 40.823 40.908 40.918 40.858 40.758 40.736 40.763 40.771 40.713 40.743 40.723 40.728 40.711 40.711 40.711 40.731 40.713 40.731 40.728 40.736 40.778 40.791 40.806 40.793 40.803 40.811 40.806 40.798 40.758 40.768 40.741 40.756 40.751 40.773 40.773 40.765 40.788 40.8 40.76 40.778 40.763 40.753 40.748 40.743 40.765 40.738 40.685 40.715 40.728 40.743 40.745 40.763 40.765 40.773 40.72 40.745 40.738 40.703 40.683 40.688 40.658 40.658 40.643 40.623 40.62 40.575 40.543 40.523 40.508 40.445 40.393 40.353 40.275 40.275 40.235 40.173 40.108 40.063 39.995 39.978 39.925 39.883 39.838 39.805 39.738 39.723 39.655 39.623 39.553 39.478 39.418 39.34 39.323 39.305 39.27 39.215 39.148 39.098 39.035 39.033 39.018 39.028 39.01 38.983 38.95 38.943 38.868 38.883 38.845 38.775 38.763 38.76 38.703 38.678 38.675 38.655 38.613 38.568 38.528 38.495 38.465 38.445 38.41 38.39 38.345 38.35 38.323 38.303 38.308 38.258 38.23 38.248 38.223 38.215 38.23 38.25 38.21 38.188 38.183 38.193 38.203 38.213 38.2 38.223 38.19 38.235 38.245 38.265 38.333 38.428 38.418 38.35 38.315 38.345 38.375 38.268 38.333 38.735 39.223 39.828 39.903 39.9 39.865 39.893 39.93 39.988 40.118 40.18 40.235 40.225 40.205 40.193 40.16 40.183 40.123 39.935 39.8 39.705 39.605 39.575 39.495 39.435 39.388 39.275 39.258 39.185 39.153 39.103 39.165 39.205 39.225 39.221 39.122 39.164 39.245 39.28 39.31 39.332 39.337 39.363 39.388 39.416 39.418 39.481 39.559 39.601 39.591 39.575 39.628 39.678 39.658 39.62 39.66 39.713 39.748 39.78 39.785 39.86 39.943 39.853 39.828 39.828 39.79 39.818 39.818 39.818 39.97 40.158 40.463 40.968 41.56 42.275 43.015 43.703 44.463 44.75 44.858 44.803 44.815 44.85 44.928 44.955 44.985 44.983 44.973 44.975 45.015 45.028 44.343 43.583 43.015 42.558 42.15 41.945 41.913 41.653 41.093 40.425 39.668 39.213 39.058 39.04 39.02
35.754 35.777 35.824 35.872 35.922 35.962 36.032 36.096 36.146 36.219 36.286 36.321 36.414 36.486 36.514 36.594 36.646 36.709 36.734 36.796 36.826 36.891 36.941 36.931 36.971 36.999 37.019 37.029 37.016 37.001 37.006 36.989 36.936 36.919 36.969 36.954 36.921 36.919 36.899 36.879 36.971 37.079 37.056 37.044 37.049 36.986 36.976 36.976 37.011 37.024 37.046 37.006 36.951 36.944 36.911 36.874 36.849 36.821 36.808 36.796 36.808 36.786 36.771 36.756 36.771 36.736 36.733 36.733 36.726 36.736 36.681 36.683 36.706 36.688 36.666 36.671 36.683 36.693 36.688 36.723 36.723 36.711 36.766 36.803 36.823 36.888 36.913 36.921 36.936 36.953 36.938 36.956 36.963 36.988 36.998 37.038 37.063 37.086 37.116 37.168 37.191 37.231 37.241 37.271 37.328 37.358 37.383 37.403 37.441 37.483 37.528 37.588 37.606 37.596 37.668 37.768 37.993 38.133 38.201 38.188 38.196 38.256 38.273 38.306 38.333 38.393 38.433 38.476 38.526 38.578 38.616 38.648 38.716 38.773 38.801 38.841 38.878 38.926 38.936 38.993 39.028 39.031 39.131 39.151 39.198 39.246 39.313 39.343 39.391 39.441 39.486 39.548 39.596 39.643 39.708 39.751 39.831 39.888 39.946 40.023 40.053 40.128 40.223 40.276 40.308 40.356 40.406 40.486 40.523 40.573 40.633 40.726 40.813 40.831 40.886 40.856 40.858 40.821 40.723 40.748 40.798 40.731 40.733 40.756 40.733 40.718 40.693 40.711 40.706 40.716 40.763 40.746 40.738 40.761 40.763 40.768 40.766 40.796 40.801 40.778 40.733 40.741 40.753 40.751 40.748 40.756 40.758 40.735 40.755 40.818 40.788 40.765 40.788 40.77 40.758 40.78 40.783 40.76 40.735 40.74 40.748 40.733 40.75 40.765 40.745 40.733 40.775 40.775 40.763 40.73 40.738 40.738 40.705 40.695 40.708 40.713 40.67 40.678 40.62 40.6 40.563 40.54 40.493 40.445 40.383 40.353 40.303 40.245 40.16 40.135 40.105 40.05 40.008 39.96 39.93 39.875 39.84 39.78 39.763 39.748 39.643 39.588 39.56 39.508 39.415 39.395 39.355 39.28 39.238 39.183 39.148 39.115 39.058 39.038 39.018 39.018 39.023 39.015 38.95 38.96 38.935 38.89 38.85 38.775 38.773 38.735 38.7 38.665 38.653 38.603 38.565 38.55 38.508 38.483 38.47 38.435 38.388 38.368 38.335 38.323 38.313 38.333 38.313 38.275 38.265 38.285 38.273 38.293 38.258 38.233 38.195 38.193 38.198 38.213 38.21 38.185 38.233 38.238 38.24 38.273 38.318 38.433 38.448 38.43 38.36 38.36 38.328 38.288 38.358 38.648 39.368 39.805 39.885 39.848 39.813 39.843 39.903 39.94 40.038 40.15 40.213 40.175 40.133 40.095 40.09 40.125 40.093 40.078 40.053 39.998 39.805 39.735 39.613 39.475 39.378 39.26 39.283 39.163 39.143 39.16 39.125 39.135 39.18 39.195 39.216 39.154 39.14 39.195 39.237 39.263 39.3 39.33 39.322 39.348 39.386 39.391 39.418 39.497 39.503 39.497 39.53 39.6 39.643 39.655 39.628 39.628 39.693 39.715 39.74 39.743 39.778 39.943 39.928 39.883 39.815 39.888 39.885 39.85 39.805 39.835 40.04 40.173 40.473 40.95 41.588 42.253 43 43.86 44.275 44.465 44.695 44.86 44.883 44.89 44.973 45 45.013 44.978 45.013 45.013 45.1 45.018 44.39 43.795 43.255 42.755 42.228 42.023 41.903 41.59 41.04 40.36 39.71 39.258 39.08 39.045
35.749 35.792 35.824 35.912 35.964 36.007 36.099 36.164 36.191 36.241 36.336 36.379 36.464 36.504 36.569 36.666 36.731 36.799 36.819 36.834 36.899 36.906 36.971 36.971 36.991 37.004 37.019 37.029 37.006 36.999 37.006 36.979 36.979 36.981 36.964 36.931 36.894 36.906 37.076 37.044 37.041 37.086 37.051 37.029 37.011 37.031 37.046 37.104 37.096 37.054 37.004 37.001 36.924 36.924 36.894 36.886 36.846 36.858 36.841 36.826 36.798 36.791 36.816 36.801 36.771 36.753 36.751 36.726 36.738 36.758 36.743 36.716 36.711 36.706 36.703 36.688 36.683 36.691 36.698 36.743 36.756 36.798 36.853 36.876 36.923 36.938 36.911 36.933 36.936 36.941 36.953 36.981 37.016 37.018 37.043 37.078 37.126 37.138 37.176 37.191 37.191 37.263 37.273 37.303 37.326 37.383 37.408 37.441 37.468 37.506 37.546 37.573 37.658 37.691 37.831 37.966 38.143 38.153 38.178 38.191 38.208 38.238 38.278 38.306 38.371 38.411 38.461 38.518 38.563 38.581 38.636 38.683 38.731 38.776 38.798 38.841 38.893 38.928 38.968 38.973 39.033 39.063 39.128 39.158 39.196 39.213 39.276 39.328 39.403 39.446 39.496 39.538 39.571 39.638 39.688 39.776 39.848 39.858 39.953 40.021 40.043 40.143 40.211 40.293 40.313 40.351 40.376 40.483 40.528 40.556 40.583 40.723 40.828 40.838 40.856 40.888 40.928 40.841 40.751 40.761 40.811 40.736 40.718 40.768 40.733 40.711 40.708 40.706 40.693 40.693 40.741 40.713 40.716 40.766 40.746 40.768 40.811 40.751 40.761 40.763 40.751 40.748 40.758 40.761 40.781 40.746 40.736 40.73 40.768 40.773 40.793 40.765 40.793 40.838 40.79 40.783 40.788 40.755 40.778 40.775 40.748 40.765 40.788 40.778 40.733 40.735 40.788 40.813 40.778 40.763 40.778 40.773 40.745 40.748 40.738 40.768 40.753 40.733 40.693 40.643 40.623 40.558 40.518 40.485 40.388 40.355 40.308 40.258 40.188 40.185 40.145 40.058 40.02 40.015 39.985 39.92 39.908 39.843 39.77 39.75 39.713 39.645 39.603 39.54 39.475 39.423 39.388 39.335 39.32 39.26 39.218 39.163 39.115 39.105 39.043 39.033 39.028 39.005 38.968 38.978 38.96 38.923 38.908 38.833 38.82 38.763 38.763 38.735 38.683 38.603 38.6 38.565 38.548 38.51 38.485 38.453 38.39 38.313 38.38 38.333 38.345 38.308 38.288 38.3 38.295 38.31 38.308 38.308 38.27 38.233 38.228 38.24 38.208 38.215 38.23 38.223 38.235 38.263 38.26 38.355 38.453 38.443 38.41 38.375 38.388 38.373 38.188 38.285 38.7 39.285 39.708 39.845 39.808 39.778 39.788 39.825 39.91 39.965 40.093 40.108 40.135 40.1 40.09 40.068 40.09 40.06 40.003 39.96 40.065 40.08 39.76 39.59 39.233 39.033 38.928 38.868 38.998 38.993 39.013 39.033 39.068 39.105 39.115 39.11 39.175 39.192 39.117 39.143 39.192 39.216 39.257 39.294 39.301 39.324 39.35 39.351 39.388 39.42 39.414 39.454 39.515 39.548 39.593 39.595 39.628 39.618 39.663 39.693 39.695 39.688 39.755 39.878 39.925 39.913 39.848 39.918 39.918 39.888 39.838 39.84 39.863 40.033 40.185 40.51 40.978 41.595 42.328 43.173 43.778 44.005 44.42 44.763 44.843 44.873 44.94 44.965 45 45.028 45.035 45.025 45.013 45.09 45.09 44.598 43.998 43.418 42.793 42.308 42.058 41.923 41.583 40.998 40.315 39.653 39.265 39.14
35.757 35.832 35.887 35.962 36.014 36.089 36.154 36.214 36.294 36.359 36.421 36.459 36.504 36.574 36.654 36.724 36.774 36.819 36.859 36.904 36.924 36.961 36.966 36.981 37.009 37.021 37.041 37.041 37.016 37.041 37.061 37.024 37.019 36.951 36.959 37.054 37.049 37.084 37.169 37.166 37.124 37.106 37.071 37.079 37.166 37.209 37.136 37.076 37.059 37.031 36.976 36.956 36.946 36.941 36.909 36.904 36.871 36.876 36.833 36.856 36.836 36.816 36.811 36.818 36.776 36.801 36.778 36.761 36.778 36.778 36.768 36.741 36.768 36.756 36.746 36.713 36.741 36.746 36.778 36.826 36.863 36.886 36.896 36.908 36.931 36.928 36.923 36.943 36.938 36.938 36.981 37.018 37.058 37.071 37.093 37.113 37.151 37.178 37.173 37.193 37.221 37.278 37.298 37.303 37.338 37.398 37.436 37.481 37.498 37.516 37.536 37.648 37.796 37.951 38.078 38.091 38.096 38.111 38.153 38.181 38.203 38.263 38.301 38.348 38.386 38.418 38.483 38.503 38.551 38.603 38.668 38.683 38.756 38.773 38.831 38.848 38.886 38.903 38.943 38.958 38.998 39.041 39.068 39.141 39.203 39.226 39.281 39.338 39.418 39.483 39.511 39.538 39.581 39.643 39.716 39.786 39.851 39.878 39.921 40.028 40.063 40.138 40.208 40.278 40.321 40.313 40.363 40.448 40.498 40.496 40.541 40.606 40.733 40.831 40.873 40.873 40.883 40.846 40.731 40.726 40.828 40.771 40.736 40.768 40.756 40.718 40.716 40.728 40.721 40.703 40.721 40.736 40.726 40.721 40.713 40.758 40.781 40.768 40.768 40.781 40.736 40.721 40.763 40.766 40.761 40.773 40.746 40.768 40.778 40.758 40.76 40.768 40.795 40.83 40.798 40.785 40.828 40.803 40.775 40.79 40.788 40.77 40.785 40.785 40.765 40.775 40.79 40.793 40.79 40.81 40.813 40.828 40.81 40.818 40.813 40.805 40.798 40.74 40.733 40.675 40.638 40.575 40.518 40.508 40.405 40.37 40.328 40.31 40.263 40.22 40.198 40.108 40.07 40.073 40.013 39.94 39.92 39.855 39.835 39.768 39.748 39.693 39.64 39.563 39.538 39.493 39.433 39.363 39.345 39.303 39.25 39.208 39.17 39.148 39.118 39.053 39.038 39.023 38.99 39.003 39.008 38.948 38.913 38.863 38.858 38.78 38.728 38.728 38.718 38.663 38.648 38.593 38.565 38.53 38.485 38.46 38.43 38.405 38.41 38.37 38.373 38.36 38.325 38.313 38.335 38.333 38.283 38.3 38.273 38.265 38.255 38.248 38.2 38.238 38.273 38.273 38.273 38.288 38.373 38.445 38.418 38.378 38.385 38.37 38.393 38.265 38.23 38.623 39.325 39.768 39.803 39.765 39.688 39.703 39.783 39.875 39.96 40.055 40.07 40.073 40.073 40.048 40.05 40.008 39.923 39.825 39.758 39.68 39.613 39.505 39.233 38.958 38.748 38.755 38.818 38.868 38.898 38.928 38.933 38.975 39.023 39.015 38.998 39.005 39.075 39.138 39.131 39.102 39.167 39.195 39.229 39.276 39.297 39.289 39.294 39.304 39.312 39.33 39.384 39.446 39.5 39.528 39.528 39.543 39.565 39.613 39.65 39.673 39.673 39.665 39.718 39.813 39.88 39.853 39.885 39.88 39.915 39.918 39.91 39.893 39.853 39.858 40.038 40.253 40.568 41.04 41.603 42.365 43.093 43.725 44.17 44.583 44.87 44.863 44.925 44.95 45.028 45.058 45.075 45.078 45.063 45.05 45.15 45.095 44.735 44.133 43.473 42.935 42.408 42.108 42.013 41.598 40.9 40.255 39.673 39.278
35.827 35.882 35.944 35.994 36.059 36.159 36.224 36.279 36.346 36.379 36.429 36.516 36.571 36.626 36.704 36.774 36.809 36.861 36.889 36.931 36.929 36.954 36.961 37.019 37.029 37.016 37.034 37.059 37.064 37.104 37.104 36.996 36.979 36.991 37.099 37.216 37.239 37.216 37.189 37.176 37.139 37.174 37.259 37.246 37.226 37.166 37.111 37.079 37.056 37.019 36.984 36.991 36.966 36.954 36.959 36.926 36.899 36.911 36.881 36.876 36.863 36.808 36.853 36.833 36.816 36.821 36.806 36.811 36.763 36.773 36.778 36.771 36.801 36.801 36.798 36.791 36.803 36.813 36.841 36.906 36.911 36.916 36.908 36.926 36.911 36.938 36.913 36.948 36.956 36.978 37.011 37.033 37.056 37.093 37.113 37.173 37.168 37.191 37.201 37.228 37.243 37.278 37.316 37.338 37.391 37.428 37.456 37.481 37.491 37.621 37.771 37.866 37.996 38.011 38.066 38.086 38.113 38.123 38.156 38.196 38.236 38.261 38.296 38.383 38.426 38.433 38.526 38.548 38.623 38.616 38.663 38.671 38.728 38.766 38.798 38.838 38.901 38.921 38.923 38.948 39.008 39.068 39.116 39.121 39.186 39.228 39.288 39.353 39.421 39.473 39.493 39.556 39.621 39.676 39.733 39.776 39.848 39.896 39.973 40.053 40.058 40.078 40.166 40.291 40.328 40.301 40.356 40.431 40.491 40.528 40.578 40.628 40.766 40.838 40.873 40.898 40.931 40.888 40.801 40.743 40.826 40.833 40.771 40.726 40.728 40.728 40.716 40.718 40.713 40.691 40.693 40.756 40.741 40.726 40.736 40.751 40.758 40.773 40.766 40.758 40.761 40.736 40.726 40.741 40.738 40.761 40.738 40.773 40.775 40.78 40.763 40.82 40.818 40.838 40.833 40.815 40.81 40.823 40.805 40.785 40.785 40.763 40.788 40.813 40.773 40.785 40.825 40.798 40.81 40.84 40.858 40.873 40.85 40.85 40.84 40.813 40.79 40.788 40.77 40.715 40.663 40.623 40.545 40.515 40.42 40.418 40.383 40.335 40.303 40.27 40.218 40.193 40.11 40.09 40.078 39.998 39.958 39.908 39.85 39.79 39.763 39.72 39.655 39.598 39.56 39.553 39.483 39.428 39.415 39.375 39.323 39.27 39.2 39.188 39.143 39.085 39.05 39.033 38.98 39.008 39.02 39.003 38.94 38.885 38.848 38.77 38.738 38.745 38.738 38.715 38.65 38.595 38.568 38.523 38.473 38.49 38.47 38.398 38.403 38.388 38.373 38.37 38.373 38.36 38.325 38.318 38.293 38.29 38.295 38.315 38.308 38.3 38.265 38.258 38.285 38.298 38.318 38.335 38.435 38.395 38.325 38.34 38.36 38.345 38.243 38.353 38.633 39.37 39.708 39.748 39.678 39.708 39.723 39.775 39.823 39.875 39.953 40.003 39.99 40.035 40.025 39.95 39.845 39.71 39.515 39.475 39.42 39.063 38.818 38.693 38.67 38.663 38.74 38.84 38.84 38.89 38.883 38.905 38.915 38.92 38.91 38.913 38.945 38.938 38.938 39.098 39.137 39.093 39.118 39.168 39.219 39.25 39.258 39.222 39.206 39.253 39.237 39.265 39.36 39.428 39.478 39.506 39.483 39.493 39.503 39.583 39.623 39.628 39.638 39.66 39.695 39.73 39.833 39.858 39.818 39.798 39.893 39.918 39.9 39.898 39.853 39.818 39.853 40.025 40.23 40.545 40.95 41.655 42.35 43.05 43.743 44.3 44.66 44.805 44.9 44.93 44.988 45.055 45.128 45.13 45.103 45.115 45.088 45.18 45.243 44.875 44.165 43.54 42.998 42.52 42.353 42.093 41.573 40.85 40.265 39.67
35.892 35.927 36.004 36.069 36.114 36.184 36.257 36.306 36.364 36.441 36.496 36.584 36.634 36.684 36.751 36.799 36.844 36.856 36.944 36.951 36.949 36.929 36.964 37.016 36.996 37.016 37.076 37.114 37.119 37.099 37.041 37.051 37.149 37.181 37.266 37.276 37.279 37.256 37.246 37.261 37.259 37.329 37.319 37.254 37.211 37.159 37.124 37.086 37.046 37.026 36.986 37.026 37.024 36.999 36.986 36.941 36.939 36.933 36.936 36.891 36.888 36.863 36.863 36.836 36.843 36.846 36.816 36.836 36.826 36.833 36.843 36.843 36.796 36.826 36.843 36.833 36.898 36.913 36.921 36.946 36.963 36.936 36.918 36.906 36.911 36.931 36.943 36.973 36.976 37.013 37.038 37.073 37.083 37.108 37.121 37.146 37.183 37.191 37.211 37.231 37.288 37.321 37.351 37.376 37.416 37.438 37.476 37.553 37.776 37.878 37.993 38.001 38.013 38.023 38.056 38.076 38.116 38.161 38.206 38.261 38.236 38.308 38.358 38.386 38.423 38.476 38.531 38.573 38.641 38.668 38.688 38.711 38.728 38.781 38.801 38.851 38.886 38.918 38.936 38.958 39.013 39.081 39.093 39.191 39.213 39.231 39.283 39.338 39.416 39.496 39.523 39.563 39.618 39.713 39.733 39.776 39.841 39.906 39.968 40.018 40.066 40.038 40.131 40.223 40.268 40.308 40.336 40.403 40.461 40.533 40.606 40.676 40.818 40.896 40.903 40.931 40.956 40.906 40.863 40.796 40.778 40.848 40.778 40.751 40.751 40.733 40.713 40.703 40.751 40.731 40.706 40.718 40.728 40.788 40.726 40.753 40.786 40.793 40.763 40.751 40.756 40.748 40.751 40.738 40.758 40.773 40.726 40.755 40.793 40.813 40.793 40.805 40.813 40.848 40.823 40.833 40.84 40.83 40.823 40.808 40.81 40.78 40.815 40.81 40.805 40.808 40.833 40.843 40.815 40.858 40.875 40.888 40.853 40.85 40.855 40.805 40.803 40.783 40.763 40.683 40.698 40.633 40.583 40.538 40.458 40.47 40.4 40.345 40.363 40.335 40.285 40.245 40.228 40.163 40.113 40.053 39.99 39.93 39.858 39.833 39.8 39.76 39.718 39.65 39.64 39.61 39.573 39.503 39.455 39.44 39.37 39.373 39.293 39.23 39.198 39.16 39.108 39.073 39.013 39.013 38.983 38.985 38.97 38.925 38.863 38.833 38.793 38.77 38.743 38.72 38.665 38.635 38.605 38.543 38.518 38.5 38.493 38.455 38.443 38.425 38.418 38.41 38.42 38.378 38.375 38.358 38.353 38.338 38.333 38.345 38.305 38.318 38.31 38.31 38.328 38.328 38.265 38.318 38.39 38.388 38.328 38.368 38.325 38.295 38.43 38.893 39.34 39.635 39.67 39.698 39.63 39.708 39.775 39.768 39.8 39.898 39.893 39.913 39.925 39.965 39.83 39.643 39.508 39.358 39.183 39.053 39.038 38.643 38.513 38.583 38.628 38.725 38.785 38.825 38.853 38.835 38.84 38.843 38.835 38.863 38.863 38.878 38.918 38.91 38.89 38.998 39.099 39.089 39.132 39.146 39.141 39.184 39.191 39.175 39.16 39.207 39.2 39.207 39.274 39.383 39.452 39.484 39.46 39.473 39.498 39.515 39.588 39.585 39.595 39.618 39.685 39.735 39.773 39.798 39.695 39.71 39.843 39.9 39.923 39.913 39.873 39.85 39.823 39.843 40.085 40.253 40.463 40.968 41.628 42.338 43.11 43.81 44.4 44.678 44.853 44.928 44.998 45.053 45.108 45.13 45.158 45.16 45.113 45.103 45.255 45.29 44.915 44.233 43.648 43.185 42.763 42.45 42.108 41.425 40.833 40.153
35.919 35.989 36.057 36.117 36.187 36.249 36.292 36.356 36.431 36.509 36.544 36.604 36.646 36.719 36.756 36.814 36.839 36.856 36.914 36.956 36.966 36.956 37.001 37.016 37.029 37.084 37.119 37.131 37.099 37.151 37.159 37.256 37.321 37.369 37.346 37.319 37.296 37.289 37.391 37.469 37.404 37.349 37.309 37.249 37.209 37.159 37.134 37.119 37.081 37.071 37.041 37.029 37.016 37.016 36.999 36.989 36.954 36.966 36.951 36.951 36.911 36.928 36.893 36.896 36.873 36.888 36.886 36.881 36.886 36.868 36.858 36.896 36.878 36.921 36.926 36.941 36.931 36.928 36.966 36.941 36.948 36.923 36.908 36.916 36.941 36.961 36.976 37.006 37.031 37.046 37.073 37.081 37.106 37.141 37.136 37.173 37.208 37.243 37.263 37.306 37.336 37.356 37.386 37.376 37.406 37.518 37.688 37.851 38.006 37.963 37.981 37.961 38.023 38.033 38.068 38.088 38.138 38.173 38.186 38.246 38.333 38.396 38.393 38.418 38.491 38.521 38.521 38.576 38.633 38.641 38.708 38.766 38.778 38.803 38.828 38.858 38.893 38.936 38.983 38.998 39.016 39.098 39.146 39.213 39.198 39.281 39.308 39.351 39.448 39.503 39.551 39.566 39.626 39.703 39.741 39.788 39.838 39.911 39.941 39.998 40.023 40.041 40.093 40.186 40.268 40.301 40.331 40.381 40.443 40.508 40.551 40.621 40.778 40.853 40.911 40.911 41.006 40.971 40.896 40.838 40.801 40.853 40.796 40.783 40.736 40.728 40.708 40.718 40.748 40.726 40.706 40.706 40.723 40.751 40.766 40.746 40.728 40.763 40.766 40.751 40.763 40.756 40.768 40.751 40.751 40.761 40.743 40.748 40.798 40.813 40.833 40.83 40.855 40.85 40.823 40.83 40.838 40.82 40.835 40.833 40.803 40.798 40.803 40.805 40.85 40.833 40.848 40.88 40.858 40.858 40.875 40.868 40.89 40.88 40.838 40.815 40.818 40.78 40.74 40.718 40.715 40.64 40.615 40.59 40.548 40.495 40.44 40.4 40.395 40.373 40.323 40.295 40.255 40.173 40.133 40.113 40.045 39.98 39.925 39.868 39.823 39.81 39.778 39.678 39.648 39.623 39.6 39.528 39.498 39.47 39.453 39.393 39.333 39.263 39.23 39.19 39.143 39.085 39.053 39.033 38.96 38.97 38.98 38.948 38.905 38.86 38.813 38.813 38.765 38.7 38.673 38.65 38.655 38.6 38.55 38.535 38.525 38.493 38.483 38.46 38.443 38.42 38.455 38.37 38.363 38.393 38.355 38.363 38.365 38.353 38.355 38.355 38.345 38.37 38.428 38.445 38.275 38.303 38.343 38.36 38.385 38.348 38.26 38.373 38.788 39.355 39.665 39.655 39.625 39.633 39.625 39.683 39.74 39.743 39.763 39.803 39.79 39.833 39.818 39.713 39.543 39.413 39.23 39.063 38.785 38.585 38.59 38.575 38.598 38.673 38.683 38.705 38.73 38.745 38.785 38.785 38.75 38.758 38.79 38.805 38.83 38.863 38.873 38.875 38.873 38.92 39.053 39.079 39.093 39.064 39.074 39.149 39.163 39.151 39.135 39.154 39.162 39.157 39.228 39.335 39.434 39.482 39.461 39.5 39.528 39.533 39.528 39.575 39.588 39.62 39.678 39.75 39.79 39.793 39.748 39.713 39.808 39.835 39.878 39.898 39.915 39.915 39.865 39.865 39.945 40.085 40.215 40.46 41.005 41.635 42.31 43.048 43.865 44.508 44.738 44.9 44.955 45.013 45.065 45.123 45.17 45.193 45.17 45.123 45.16 45.27 45.31 44.968 44.318 43.795 43.37 42.988 42.583 42.063 41.483 40.763
35.969 36.054 36.119 36.174 36.232 36.299 36.342 36.411 36.491 36.549 36.564 36.661 36.704 36.729 36.761 36.849 36.834 36.869 36.926 36.966 36.981 36.976 37.021 37.049 37.074 37.086 37.064 37.081 37.221 37.361 37.401 37.419 37.416 37.396 37.359 37.451 37.506 37.479 37.469 37.421 37.376 37.344 37.299 37.251 37.254 37.221 37.179 37.146 37.104 37.076 37.049 37.049 37.026 37.011 37.009 36.984 36.986 37.008 36.991 36.993 36.966 36.958 36.951 36.953 36.921 36.916 36.906 36.918 36.931 36.941 36.926 36.961 36.973 37.003 36.996 36.983 36.966 36.968 36.936 36.928 36.921 36.913 36.943 36.953 36.971 36.996 36.981 37.026 37.058 37.076 37.071 37.101 37.133 37.168 37.166 37.216 37.241 37.268 37.293 37.326 37.346 37.366 37.373 37.473 37.623 37.856 37.908 37.943 37.928 37.946 37.971 37.996 38.043 38.088 38.116 38.146 38.191 38.218 38.258 38.306 38.363 38.423 38.448 38.463 38.478 38.538 38.556 38.616 38.673 38.678 38.726 38.778 38.781 38.811 38.833 38.881 38.928 38.946 38.973 39.033 39.061 39.103 39.173 39.223 39.251 39.298 39.361 39.386 39.446 39.513 39.571 39.621 39.636 39.698 39.721 39.768 39.833 39.886 39.903 39.953 39.996 40.056 40.106 40.103 40.208 40.263 40.281 40.368 40.406 40.508 40.553 40.618 40.668 40.781 40.893 40.936 41.001 40.963 40.901 40.863 40.833 40.856 40.841 40.803 40.751 40.733 40.758 40.733 40.716 40.681 40.688 40.736 40.708 40.751 40.751 40.743 40.776 40.796 40.763 40.778 40.771 40.746 40.771 40.783 40.791 40.791 40.776 40.788 40.808 40.793 40.833 40.82 40.85 40.865 40.85 40.833 40.865 40.853 40.835 40.835 40.813 40.803 40.828 40.848 40.853 40.873 40.888 40.895 40.868 40.883 40.898 40.858 40.865 40.87 40.85 40.805 40.795 40.753 40.75 40.758 40.723 40.673 40.623 40.608 40.568 40.528 40.518 40.463 40.435 40.4 40.375 40.33 40.258 40.215 40.173 40.108 40.05 40.01 39.96 39.93 39.878 39.843 39.823 39.72 39.695 39.685 39.635 39.58 39.535 39.52 39.478 39.435 39.38 39.285 39.253 39.208 39.193 39.133 39.1 39.028 38.993 38.978 39.005 38.945 38.915 38.898 38.85 38.84 38.79 38.728 38.725 38.673 38.65 38.64 38.61 38.553 38.538 38.543 38.52 38.498 38.485 38.51 38.46 38.398 38.425 38.423 38.418 38.41 38.4 38.395 38.428 38.385 38.375 38.398 38.518 38.518 38.338 38.31 38.388 38.415 38.428 38.358 38.428 38.84 39.473 39.653 39.6 39.603 39.615 39.665 39.723 39.713 39.72 39.698 39.683 39.698 39.695 39.658 39.515 39.468 39.453 39.278 38.935 38.615 38.325 38.533 38.633 38.705 38.73 38.72 38.728 38.695 38.693 38.718 38.778 38.738 38.73 38.733 38.758 38.778 38.8 38.818 38.828 38.828 38.863 38.903 39.01 39.058 39.069 39.043 39.082 39.119 39.136 39.103 39.113 39.113 39.133 39.118 39.198 39.292 39.396 39.455 39.421 39.47 39.463 39.498 39.518 39.56 39.57 39.623 39.658 39.718 39.748 39.755 39.765 39.763 39.695 39.823 39.828 39.815 39.858 39.913 39.893 39.9 39.935 40.008 40.125 40.28 40.603 41.055 41.645 42.323 43.095 43.878 44.448 44.703 44.865 44.978 45.05 45.123 45.153 45.198 45.21 45.165 45.148 45.165 45.248 45.278 44.988 44.518 44.06 43.65 43.158 42.625 42.03 41.405
36.007 36.082 36.152 36.207 36.269 36.354 36.392 36.471 36.531 36.566 36.584 36.651 36.719 36.766 36.756 36.831 36.871 36.874 36.896 36.929 36.984 37.034 37.064 37.064 37.056 37.106 37.184 37.301 37.431 37.469 37.471 37.459 37.444 37.421 37.461 37.541 37.596 37.536 37.481 37.416 37.371 37.356 37.334 37.304 37.261 37.236 37.226 37.186 37.121 37.109 37.079 37.036 37.056 37.039 37.036 37.029 37.049 37.018 37.058 37.036 37.001 36.993 36.978 36.968 36.951 36.961 36.971 36.948 36.986 36.996 37.031 37.071 37.051 37.031 37.023 37.026 36.966 36.968 36.961 36.951 36.938 36.951 36.951 36.968 36.988 36.991 37.006 37.056 37.086 37.086 37.091 37.141 37.153 37.181 37.223 37.233 37.281 37.316 37.341 37.331 37.356 37.426 37.516 37.701 37.816 37.893 37.893 37.908 37.926 37.966 37.998 38.058 38.108 38.106 38.153 38.233 38.226 38.266 38.331 38.328 38.411 38.418 38.471 38.513 38.523 38.561 38.588 38.618 38.658 38.698 38.741 38.781 38.828 38.838 38.898 38.931 38.963 38.991 39.043 39.071 39.093 39.128 39.171 39.236 39.286 39.323 39.361 39.411 39.491 39.523 39.566 39.613 39.636 39.681 39.726 39.778 39.813 39.848 39.861 39.936 40.003 40.026 40.063 40.101 40.191 40.258 40.243 40.313 40.383 40.468 40.543 40.613 40.683 40.798 40.878 40.941 40.998 40.981 40.951 40.896 40.843 40.851 40.878 40.813 40.813 40.786 40.776 40.726 40.703 40.701 40.726 40.723 40.716 40.728 40.736 40.766 40.773 40.773 40.768 40.808 40.783 40.791 40.756 40.786 40.793 40.818 40.821 40.803 40.818 40.823 40.84 40.865 40.84 40.88 40.863 40.843 40.873 40.878 40.863 40.845 40.845 40.86 40.858 40.878 40.888 40.905 40.883 40.893 40.875 40.878 40.9 40.845 40.858 40.848 40.83 40.828 40.795 40.765 40.78 40.785 40.77 40.7 40.678 40.68 40.593 40.583 40.568 40.525 40.463 40.435 40.38 40.335 40.278 40.23 40.163 40.143 40.093 40.048 39.993 39.978 39.958 39.915 39.868 39.788 39.778 39.745 39.715 39.653 39.603 39.555 39.5 39.468 39.398 39.328 39.3 39.255 39.255 39.165 39.115 39.063 39.003 38.985 38.968 38.995 38.97 38.91 38.903 38.858 38.838 38.77 38.753 38.723 38.678 38.653 38.618 38.588 38.565 38.54 38.52 38.51 38.525 38.5 38.478 38.455 38.475 38.46 38.438 38.433 38.45 38.458 38.455 38.458 38.448 38.408 38.395 38.438 38.43 38.405 38.413 38.383 38.395 38.498 39.015 39.5 39.643 39.57 39.565 39.61 39.645 39.725 39.768 39.785 39.71 39.635 39.593 39.545 39.528 39.385 39.078 39.188 39.193 38.95 38.405 37.72 37.708 38.223 38.678 38.683 38.718 38.703 38.695 38.693 38.685 38.69 38.668 38.638 38.713 38.73 38.75 38.753 38.775 38.815 38.818 38.84 38.828 38.858 38.935 39.008 39.018 39.042 39.098 39.102 39.11 39.054 39.082 39.094 39.152 39.179 39.208 39.26 39.359 39.364 39.354 39.386 39.425 39.485 39.495 39.528 39.55 39.613 39.658 39.673 39.718 39.71 39.745 39.733 39.723 39.81 39.808 39.81 39.82 39.893 39.893 39.913 39.945 40.048 40.093 40.163 40.388 40.638 40.97 41.6 42.335 43.103 43.77 44.403 44.775 44.903 45.003 45.1 45.133 45.193 45.223 45.228 45.198 45.193 45.155 45.26 45.305 45.153 44.775 44.383 43.783 43.323 42.74 42.17
36.032 36.122 36.177 36.234 36.309 36.372 36.432 36.479 36.534 36.579 36.626 36.669 36.706 36.736 36.769 36.811 36.864 36.884 36.904 36.946 36.991 37.026 37.016 37.049 37.141 37.356 37.444 37.491 37.504 37.501 37.496 37.519 37.546 37.541 37.561 37.569 37.559 37.509 37.479 37.431 37.401 37.379 37.339 37.331 37.296 37.271 37.254 37.219 37.154 37.126 37.096 37.056 37.071 37.074 37.101 37.091 37.109 37.048 37.103 37.078 37.061 37.041 37.013 37.023 36.996 37.026 37.033 37.043 37.086 37.091 37.108 37.108 37.091 37.058 37.033 37.013 36.988 36.968 36.963 36.981 36.986 36.991 36.998 37.011 37.018 37.043 37.046 37.058 37.078 37.088 37.123 37.156 37.183 37.213 37.233 37.276 37.301 37.306 37.293 37.378 37.536 37.673 37.746 37.828 37.841 37.828 37.861 37.908 37.963 38.003 38.053 38.113 38.116 38.181 38.226 38.268 38.286 38.348 38.393 38.393 38.438 38.453 38.506 38.533 38.568 38.613 38.648 38.671 38.721 38.758 38.778 38.831 38.858 38.891 38.926 38.966 38.968 39.053 39.091 39.123 39.131 39.168 39.196 39.251 39.308 39.386 39.416 39.413 39.458 39.518 39.568 39.596 39.626 39.653 39.706 39.761 39.828 39.841 39.891 39.888 39.946 39.996 40.033 40.058 40.123 40.191 40.286 40.296 40.361 40.473 40.548 40.603 40.661 40.796 40.913 40.948 40.971 40.986 41.003 40.958 40.878 40.868 40.908 40.858 40.801 40.786 40.768 40.748 40.746 40.736 40.738 40.716 40.718 40.736 40.751 40.791 40.763 40.741 40.786 40.773 40.773 40.831 40.801 40.801 40.816 40.831 40.816 40.81 40.805 40.835 40.845 40.875 40.868 40.868 40.87 40.863 40.883 40.875 40.883 40.9 40.873 40.89 40.885 40.9 40.903 40.888 40.898 40.915 40.898 40.86 40.878 40.87 40.84 40.82 40.833 40.82 40.798 40.798 40.803 40.785 40.783 40.73 40.705 40.708 40.69 40.625 40.628 40.558 40.493 40.458 40.41 40.328 40.285 40.27 40.248 40.193 40.103 40.108 40.068 40.03 40.028 39.933 39.928 39.87 39.863 39.785 39.77 39.7 39.615 39.605 39.53 39.47 39.433 39.398 39.34 39.293 39.25 39.185 39.138 39.093 39.068 39.018 38.973 38.958 38.978 38.968 38.955 38.9 38.848 38.835 38.775 38.74 38.735 38.688 38.64 38.635 38.615 38.573 38.555 38.53 38.545 38.515 38.503 38.513 38.495 38.475 38.47 38.468 38.483 38.503 38.488 38.525 38.505 38.498 38.445 38.483 38.493 38.475 38.443 38.453 38.548 39.125 39.523 39.598 39.545 39.543 39.555 39.6 39.658 39.748 39.753 39.723 39.635 39.493 39.38 39.32 39.278 39.143 38.76 38.785 38.853 38.755 37.948 36.853 37.233 37.8 38.433 38.688 38.688 38.648 38.66 38.673 38.7 38.68 38.678 38.65 38.71 38.72 38.735 38.703 38.73 38.76 38.815 38.815 38.813 38.793 38.845 38.95 39.018 39.033 39.081 39.09 39.071 39.028 39.081 39.16 39.178 39.172 39.178 39.206 39.254 39.303 39.349 39.388 39.385 39.435 39.483 39.53 39.56 39.6 39.6 39.673 39.685 39.7 39.695 39.685 39.698 39.73 39.733 39.79 39.803 39.87 39.875 39.915 39.973 40.065 40.05 40.048 40.16 40.338 40.44 40.92 41.603 42.27 43.005 43.873 44.373 44.595 44.883 45.118 45.173 45.133 45.195 45.19 45.203 45.228 45.203 45.213 45.205 45.265 45.3 45.113 44.535 44.225 43.809 43.07
36.069 36.169 36.239 36.292 36.324 36.369 36.449 36.484 36.539 36.579 36.616 36.674 36.711 36.741 36.781 36.809 36.866 36.891 36.921 36.954 36.959 37.001 37.166 37.291 37.381 37.521 37.546 37.546 37.541 37.576 37.666 37.749 37.651 37.614 37.616 37.601 37.569 37.519 37.534 37.481 37.446 37.399 37.386 37.364 37.329 37.334 37.279 37.244 37.176 37.154 37.139 37.151 37.126 37.116 37.126 37.136 37.136 37.121 37.133 37.128 37.108 37.093 37.091 37.063 37.091 37.106 37.126 37.153 37.161 37.136 37.153 37.143 37.098 37.061 37.053 37.038 37.021 37.023 37.011 37.001 37.026 37.006 37.018 37.033 37.051 37.058 37.071 37.068 37.083 37.121 37.141 37.183 37.203 37.246 37.263 37.271 37.316 37.376 37.458 37.543 37.691 37.768 37.791 37.828 37.856 37.856 37.896 37.951 37.983 38.051 38.091 38.116 38.188 38.253 38.283 38.316 38.328 38.366 38.433 38.476 38.461 38.481 38.538 38.571 38.608 38.641 38.671 38.678 38.736 38.791 38.828 38.868 38.916 38.928 38.973 39.053 39.041 39.078 39.101 39.163 39.178 39.208 39.241 39.278 39.341 39.401 39.438 39.453 39.448 39.466 39.536 39.558 39.611 39.606 39.691 39.733 39.778 39.818 39.866 39.876 39.876 39.961 39.981 40.043 40.101 40.198 40.243 40.278 40.363 40.443 40.536 40.606 40.688 40.748 40.913 40.951 41.001 41.058 41.081 41.018 40.913 40.906 40.943 40.871 40.843 40.821 40.778 40.786 40.761 40.763 40.726 40.693 40.721 40.746 40.743 40.761 40.773 40.756 40.771 40.748 40.751 40.818 40.816 40.801 40.856 40.831 40.811 40.808 40.825 40.863 40.843 40.88 40.878 40.858 40.888 40.873 40.885 40.895 40.933 40.93 40.933 40.923 40.91 40.91 40.928 40.898 40.898 40.89 40.888 40.863 40.865 40.858 40.803 40.8 40.818 40.828 40.81 40.823 40.84 40.815 40.823 40.82 40.79 40.743 40.733 40.69 40.65 40.58 40.513 40.48 40.435 40.38 40.35 40.333 40.293 40.205 40.155 40.143 40.088 40.085 40.035 39.99 39.98 39.928 39.89 39.835 39.788 39.698 39.63 39.623 39.57 39.505 39.475 39.423 39.363 39.3 39.255 39.23 39.158 39.13 39.1 39.06 38.998 39 38.995 38.965 38.955 38.918 38.88 38.863 38.813 38.798 38.765 38.69 38.678 38.668 38.668 38.623 38.598 38.583 38.55 38.54 38.51 38.545 38.545 38.53 38.51 38.523 38.533 38.525 38.52 38.48 38.46 38.518 38.463 38.56 38.493 38.438 38.56 38.845 39.123 39.485 39.525 39.528 39.5 39.563 39.58 39.608 39.715 39.753 39.708 39.588 39.438 39.263 39.145 39.078 39.008 38.965 38.77 38.638 38.593 38.64 38.013 36.828 36.69 37.285 38.315 38.665 38.643 38.66 38.68 38.665 38.698 38.678 38.685 38.705 38.723 38.74 38.738 38.695 38.688 38.723 38.728 38.79 38.808 38.808 38.823 38.85 38.95 38.981 39.011 39.008 39.013 39.079 39.107 39.117 39.116 39.122 39.158 39.202 39.238 39.265 39.291 39.344 39.356 39.4 39.45 39.485 39.53 39.575 39.585 39.685 39.69 39.635 39.648 39.688 39.69 39.63 39.72 39.793 39.855 39.873 39.868 39.895 39.965 40.035 40.033 40.02 40.078 40.235 40.3 40.468 40.933 41.588 42.315 43.093 43.82 44.213 44.565 45.013 45.235 45.158 45.143 45.19 45.218 45.233 45.228 45.22 45.188 45.183 45.343 45.403 45.31 45.185 44.763 43.865
36.152 36.209 36.247 36.302 36.324 36.377 36.449 36.481 36.529 36.569 36.626 36.666 36.694 36.739 36.779 36.836 36.879 36.929 36.911 36.931 37.029 37.219 37.371 37.464 37.511 37.539 37.569 37.571 37.644 37.734 37.776 37.696 37.686 37.654 37.646 37.616 37.564 37.546 37.521 37.506 37.481 37.434 37.439 37.396 37.346 37.339 37.306 37.276 37.234 37.209 37.191 37.186 37.181 37.171 37.164 37.171 37.199 37.186 37.163 37.173 37.158 37.166 37.148 37.158 37.198 37.186 37.178 37.188 37.186 37.183 37.151 37.123 37.106 37.111 37.061 37.056 37.063 37.023 37.051 37.053 37.046 37.041 37.041 37.041 37.043 37.068 37.078 37.116 37.123 37.171 37.191 37.208 37.211 37.241 37.293 37.338 37.476 37.563 37.651 37.668 37.703 37.751 37.778 37.816 37.861 37.913 37.966 38.006 38.031 38.091 38.153 38.178 38.223 38.281 38.326 38.383 38.396 38.421 38.468 38.486 38.506 38.541 38.571 38.623 38.626 38.656 38.701 38.736 38.781 38.808 38.853 38.923 38.976 38.993 39.038 39.043 39.098 39.123 39.158 39.216 39.251 39.256 39.311 39.338 39.361 39.401 39.383 39.413 39.438 39.476 39.496 39.536 39.566 39.616 39.673 39.701 39.746 39.781 39.783 39.841 39.863 39.913 39.981 40.036 40.091 40.193 40.263 40.308 40.386 40.463 40.526 40.613 40.686 40.791 40.911 40.948 40.968 41.053 41.146 41.031 40.973 40.913 40.961 40.903 40.861 40.843 40.803 40.806 40.803 40.806 40.763 40.738 40.728 40.743 40.753 40.768 40.768 40.793 40.771 40.796 40.826 40.836 40.826 40.823 40.833 40.816 40.826 40.805 40.82 40.86 40.85 40.863 40.873 40.905 40.885 40.923 40.943 40.955 40.948 40.985 40.935 40.943 40.913 40.898 40.923 40.913 40.903 40.873 40.85 40.875 40.838 40.818 40.833 40.795 40.805 40.833 40.843 40.85 40.853 40.845 40.815 40.84 40.823 40.773 40.75 40.708 40.693 40.6 40.538 40.495 40.413 40.393 40.345 40.345 40.34 40.243 40.215 40.195 40.133 40.093 40.065 40.013 39.96 39.943 39.925 39.878 39.848 39.76 39.688 39.61 39.625 39.59 39.513 39.46 39.39 39.333 39.293 39.223 39.22 39.173 39.11 39.05 39.04 39.025 39.013 38.965 38.965 38.958 38.928 38.893 38.878 38.833 38.795 38.76 38.728 38.693 38.698 38.69 38.633 38.603 38.588 38.583 38.573 38.56 38.565 38.563 38.595 38.575 38.58 38.598 38.568 38.54 38.488 38.485 38.518 38.53 38.468 38.593 38.868 39.258 39.505 39.575 39.515 39.5 39.513 39.545 39.593 39.67 39.693 39.665 39.6 39.413 39.28 39.1 38.935 38.845 38.763 38.728 38.615 38.488 38.478 38.56 38.553 37.73 36.743 36.835 37.603 38.105 38.6 38.625 38.648 38.663 38.665 38.635 38.668 38.73 38.713 38.715 38.715 38.688 38.665 38.683 38.703 38.733 38.793 38.793 38.793 38.758 38.843 38.938 39.006 38.97 39.053 39.088 39.097 39.09 39.083 39.116 39.132 39.177 39.233 39.247 39.257 39.316 39.343 39.378 39.405 39.433 39.475 39.523 39.555 39.588 39.613 39.653 39.668 39.68 39.67 39.68 39.643 39.748 39.838 39.885 39.875 39.855 39.93 39.97 40.003 40.023 40.03 40.153 40.268 40.33 40.47 40.865 41.525 42.185 43.025 43.69 44.165 44.675 45.163 45.253 45.188 45.16 45.208 45.195 45.223 45.215 45.228 45.215 45.335 45.515 45.473 45.505 45.383 44.759
36.162 36.199 36.239 36.284 36.352 36.404 36.449 36.479 36.534 36.574 36.634 36.654 36.691 36.729 36.771 36.831 36.859 36.914 37.029 37.149 37.266 37.421 37.456 37.509 37.539 37.581 37.671 37.694 37.714 37.734 37.726 37.699 37.684 37.656 37.674 37.649 37.614 37.601 37.536 37.551 37.509 37.476 37.439 37.426 37.404 37.351 37.351 37.336 37.319 37.259 37.254 37.244 37.241 37.259 37.209 37.206 37.244 37.233 37.216 37.238 37.231 37.236 37.251 37.268 37.253 37.236 37.231 37.223 37.183 37.153 37.166 37.153 37.118 37.111 37.113 37.103 37.103 37.086 37.076 37.101 37.081 37.066 37.071 37.051 37.086 37.093 37.133 37.158 37.151 37.186 37.211 37.208 37.213 37.313 37.413 37.531 37.641 37.651 37.658 37.713 37.721 37.738 37.766 37.856 37.888 37.941 37.991 38.048 38.113 38.133 38.211 38.243 38.273 38.341 38.391 38.383 38.433 38.481 38.483 38.513 38.566 38.583 38.598 38.648 38.686 38.708 38.733 38.783 38.816 38.866 38.906 38.976 39.023 39.048 39.101 39.111 39.138 39.188 39.203 39.238 39.251 39.301 39.303 39.333 39.373 39.383 39.386 39.418 39.428 39.448 39.448 39.523 39.531 39.566 39.636 39.613 39.683 39.766 39.768 39.793 39.841 39.893 39.943 40.001 40.111 40.203 40.266 40.288 40.391 40.471 40.526 40.626 40.698 40.743 40.861 40.943 40.963 41.013 41.118 41.068 41.021 40.941 40.978 40.936 40.868 40.871 40.843 40.818 40.808 40.803 40.796 40.781 40.771 40.806 40.796 40.801 40.823 40.816 40.846 40.856 40.861 40.883 40.878 40.838 40.808 40.796 40.823 40.845 40.84 40.855 40.868 40.865 40.895 40.915 40.91 40.968 40.968 40.953 40.953 40.96 40.928 40.93 40.928 40.92 40.9 40.903 40.863 40.878 40.855 40.843 40.84 40.825 40.838 40.835 40.848 40.87 40.858 40.863 40.873 40.84 40.873 40.875 40.795 40.79 40.743 40.728 40.69 40.625 40.615 40.538 40.45 40.395 40.363 40.398 40.353 40.295 40.275 40.245 40.22 40.15 40.1 40.05 39.998 39.955 39.91 39.883 39.855 39.803 39.765 39.683 39.62 39.573 39.52 39.47 39.398 39.358 39.313 39.275 39.243 39.215 39.168 39.078 39.078 39.07 39.04 39.018 39 38.963 38.938 38.908 38.903 38.878 38.843 38.83 38.793 38.75 38.738 38.723 38.648 38.645 38.625 38.62 38.6 38.595 38.618 38.645 38.643 38.595 38.588 38.683 38.603 38.56 38.535 38.58 38.57 38.443 38.525 38.943 39.44 39.523 39.538 39.49 39.468 39.485 39.568 39.583 39.615 39.653 39.553 39.523 39.365 39.14 38.965 38.755 38.75 38.63 38.518 38.46 38.5 38.473 38.505 38.605 38.688 38.58 38.04 37.168 36.923 37.528 38.158 38.553 38.593 38.645 38.685 38.72 38.755 38.798 38.698 38.728 38.703 38.66 38.635 38.67 38.688 38.71 38.78 38.765 38.73 38.733 38.748 38.858 38.942 38.932 38.985 38.997 39.017 39.034 39.057 39.083 39.113 39.145 39.2 39.238 39.285 39.287 39.281 39.298 39.348 39.375 39.465 39.523 39.555 39.538 39.608 39.67 39.658 39.643 39.653 39.68 39.618 39.58 39.753 39.84 39.89 39.873 39.868 39.888 39.938 39.99 39.99 40.088 40.203 40.258 40.355 40.458 40.883 41.413 42.24 43.035 43.803 44.378 44.895 45.295 45.255 45.183 45.155 45.193 45.233 45.24 45.25 45.25 45.35 45.573 45.603 45.63 45.658 45.668
36.139 36.207 36.247 36.317 36.374 36.414 36.432 36.474 36.521 36.586 36.604 36.624 36.689 36.751 36.724 36.809 36.911 37.056 37.271 37.389 37.454 37.471 37.504 37.559 37.606 37.709 37.806 37.779 37.736 37.724 37.701 37.704 37.699 37.679 37.676 37.664 37.656 37.639 37.616 37.586 37.564 37.539 37.481 37.471 37.441 37.421 37.396 37.391 37.386 37.354 37.326 37.299 37.294 37.291 37.281 37.261 37.294 37.286 37.298 37.326 37.346 37.368 37.356 37.338 37.321 37.266 37.256 37.216 37.208 37.188 37.186 37.178 37.151 37.136 37.176 37.146 37.136 37.128 37.151 37.081 37.108 37.088 37.111 37.078 37.128 37.143 37.161 37.161 37.176 37.193 37.206 37.293 37.371 37.506 37.561 37.603 37.623 37.621 37.646 37.721 37.748 37.766 37.811 37.878 37.883 37.956 38.051 38.081 38.098 38.168 38.248 38.306 38.341 38.371 38.423 38.398 38.503 38.521 38.548 38.558 38.603 38.628 38.676 38.721 38.736 38.761 38.791 38.868 38.913 38.951 38.976 39.031 39.078 39.108 39.148 39.191 39.203 39.231 39.248 39.258 39.296 39.316 39.336 39.353 39.363 39.368 39.383 39.416 39.396 39.436 39.453 39.516 39.508 39.533 39.568 39.573 39.646 39.713 39.753 39.798 39.853 39.871 39.943 40.028 40.108 40.193 40.313 40.316 40.411 40.441 40.533 40.618 40.688 40.716 40.818 40.951 41.038 41.056 41.106 41.103 41.038 40.948 40.988 40.956 40.891 40.871 40.843 40.856 40.818 40.821 40.836 40.828 40.793 40.843 40.826 40.838 40.841 40.866 40.861 40.856 40.881 40.856 40.858 40.846 40.808 40.841 40.828 40.848 40.87 40.86 40.905 40.895 40.88 40.928 40.965 40.958 40.935 40.938 40.96 40.973 40.94 40.938 40.923 40.903 40.89 40.89 40.878 40.853 40.85 40.858 40.848 40.848 40.848 40.84 40.88 40.9 40.89 40.878 40.883 40.85 40.858 40.86 40.785 40.79 40.748 40.715 40.705 40.663 40.605 40.55 40.528 40.44 40.463 40.43 40.373 40.345 40.31 40.248 40.235 40.185 40.123 40.05 40.028 39.973 39.943 39.94 39.853 39.813 39.78 39.705 39.638 39.615 39.563 39.483 39.423 39.373 39.318 39.3 39.283 39.235 39.205 39.173 39.108 39.108 39.075 39.03 39.045 39.013 38.985 38.943 38.925 38.895 38.88 38.885 38.813 38.808 38.765 38.72 38.71 38.678 38.685 38.638 38.63 38.63 38.638 38.665 38.68 38.65 38.6 38.64 38.633 38.623 38.573 38.57 38.525 38.63 39.033 39.458 39.575 39.535 39.518 39.46 39.448 39.515 39.573 39.653 39.593 39.548 39.373 39.18 38.888 38.663 38.518 38.553 38.52 38.468 38.348 38.375 38.495 38.52 38.56 38.635 38.728 38.733 38.753 38.213 37.123 36.925 37.495 38.095 38.583 38.64 38.678 38.71 38.74 38.77 38.758 38.675 38.698 38.663 38.655 38.673 38.695 38.688 38.738 38.755 38.725 38.708 38.733 38.79 38.857 38.862 38.909 38.944 38.964 38.993 39.04 39.084 39.125 39.16 39.182 39.222 39.218 39.212 39.194 39.233 39.268 39.358 39.413 39.493 39.548 39.54 39.573 39.628 39.648 39.625 39.64 39.685 39.67 39.548 39.695 39.763 39.833 39.875 39.878 39.893 39.898 39.92 39.945 40 40.11 40.21 40.288 40.36 40.488 40.843 41.488 42.335 43.218 44.035 44.628 45.11 45.255 45.23 45.188 45.17 45.223 45.248 45.255 45.265 45.318 45.445 45.528 45.643 45.705 45.78
36.152 36.209 36.262 36.279 36.347 36.392 36.442 36.481 36.519 36.531 36.581 36.649 36.676 36.729 36.841 36.989 37.151 37.231 37.376 37.414 37.431 37.509 37.726 37.789 37.801 37.794 37.759 37.751 37.739 37.731 37.714 37.721 37.701 37.684 37.701 37.694 37.691 37.639 37.621 37.611 37.599 37.554 37.516 37.514 37.489 37.481 37.474 37.454 37.436 37.401 37.396 37.364 37.336 37.346 37.326 37.329 37.349 37.363 37.408 37.428 37.428 37.391 37.393 37.361 37.343 37.286 37.286 37.256 37.253 37.241 37.231 37.196 37.203 37.188 37.196 37.193 37.161 37.151 37.136 37.138 37.146 37.133 37.138 37.138 37.158 37.176 37.181 37.153 37.196 37.238 37.343 37.418 37.556 37.581 37.596 37.606 37.611 37.631 37.658 37.698 37.781 37.828 37.846 37.901 37.938 38.001 38.068 38.131 38.178 38.213 38.276 38.348 38.391 38.436 38.481 38.491 38.541 38.546 38.578 38.633 38.658 38.713 38.716 38.748 38.808 38.843 38.886 38.921 38.981 38.963 39.036 39.093 39.136 39.198 39.238 39.238 39.298 39.318 39.278 39.321 39.331 39.341 39.336 39.391 39.373 39.366 39.381 39.386 39.391 39.428 39.441 39.458 39.491 39.523 39.558 39.581 39.668 39.731 39.743 39.806 39.861 39.891 39.948 40.041 40.108 40.208 40.311 40.341 40.416 40.463 40.578 40.626 40.693 40.756 40.861 40.973 41.036 41.068 41.093 41.076 41.041 40.956 40.981 40.983 40.906 40.876 40.858 40.881 40.848 40.838 40.881 40.866 40.833 40.846 40.856 40.886 40.873 40.886 40.853 40.838 40.883 40.871 40.841 40.856 40.863 40.876 40.868 40.878 40.888 40.9 40.923 40.955 40.92 40.938 40.93 40.94 40.933 40.948 40.96 40.935 40.928 40.925 40.913 40.91 40.863 40.868 40.868 40.835 40.883 40.855 40.818 40.845 40.883 40.898 40.865 40.883 40.895 40.855 40.858 40.873 40.85 40.833 40.83 40.828 40.775 40.748 40.72 40.685 40.625 40.585 40.553 40.53 40.503 40.448 40.375 40.35 40.318 40.288 40.258 40.21 40.148 40.095 40.04 39.985 39.948 39.928 39.86 39.823 39.763 39.728 39.65 39.635 39.593 39.528 39.468 39.413 39.375 39.35 39.323 39.26 39.178 39.223 39.148 39.128 39.128 39.07 39.073 39.055 39.008 38.98 38.97 38.96 38.928 38.895 38.855 38.835 38.78 38.758 38.763 38.725 38.715 38.645 38.66 38.67 38.678 38.695 38.705 38.688 38.68 38.638 38.673 38.718 38.623 38.593 38.818 39.115 39.485 39.628 39.555 39.51 39.473 39.485 39.558 39.563 39.588 39.59 39.523 39.29 38.948 38.615 38.575 38.54 38.438 38.39 38.348 38.348 38.373 38.43 38.49 38.52 38.56 38.625 38.658 38.688 38.748 38.688 38.148 36.95 37.113 37.878 38.478 38.623 38.668 38.7 38.73 38.76 38.803 38.7 38.68 38.64 38.653 38.665 38.67 38.688 38.715 38.725 38.71 38.718 38.74 38.735 38.807 38.841 38.856 38.914 38.934 38.989 39.024 39.084 39.122 39.128 39.13 39.127 39.139 39.151 39.18 39.239 39.27 39.328 39.34 39.433 39.503 39.515 39.54 39.59 39.61 39.65 39.638 39.655 39.68 39.608 39.585 39.688 39.778 39.865 39.888 39.873 39.893 39.89 39.913 39.978 40.025 40.155 40.17 40.28 40.348 40.488 40.88 41.643 42.57 43.5 44.4 45.09 45.273 45.233 45.223 45.198 45.19 45.228 45.283 45.295 45.343 45.373 45.418 45.483 45.58 45.608
36.137 36.192 36.249 36.297 36.357 36.374 36.404 36.451 36.494 36.536 36.571 36.651 36.686 36.814 37.029 37.206 37.264 37.284 37.361 37.436 37.496 37.604 37.791 37.814 37.784 37.789 37.766 37.721 37.731 37.746 37.746 37.704 37.724 37.719 37.729 37.719 37.696 37.674 37.671 37.659 37.611 37.606 37.589 37.586 37.546 37.534 37.529 37.516 37.514 37.464 37.421 37.424 37.426 37.414 37.434 37.444 37.431 37.476 37.516 37.478 37.491 37.443 37.421 37.373 37.361 37.323 37.301 37.281 37.263 37.266 37.251 37.248 37.258 37.238 37.208 37.203 37.183 37.168 37.171 37.191 37.163 37.178 37.171 37.193 37.191 37.206 37.183 37.211 37.318 37.428 37.548 37.501 37.533 37.523 37.556 37.596 37.588 37.611 37.646 37.676 37.753 37.808 37.881 37.921 37.983 38.053 38.118 38.176 38.206 38.273 38.303 38.356 38.406 38.458 38.513 38.583 38.606 38.613 38.628 38.688 38.728 38.796 38.808 38.838 38.881 38.941 38.968 39.001 39.058 39.093 39.108 39.188 39.213 39.238 39.281 39.316 39.326 39.328 39.308 39.351 39.351 39.356 39.366 39.368 39.326 39.358 39.368 39.361 39.338 39.388 39.371 39.441 39.436 39.506 39.533 39.576 39.651 39.706 39.736 39.796 39.866 39.936 39.983 40.051 40.128 40.221 40.331 40.371 40.406 40.483 40.556 40.698 40.736 40.791 40.883 40.988 41.026 41.058 41.146 41.138 41.066 40.976 40.993 41.016 40.953 40.871 40.881 40.888 40.861 40.891 40.918 40.888 40.873 40.881 40.873 40.883 40.908 40.911 40.898 40.886 40.903 40.896 40.878 40.888 40.881 40.853 40.863 40.898 40.898 40.94 40.93 40.94 40.915 40.94 40.948 40.955 40.963 40.948 40.928 40.888 40.94 40.925 40.903 40.923 40.888 40.86 40.88 40.873 40.888 40.893 40.878 40.888 40.895 40.91 40.89 40.898 40.918 40.86 40.863 40.863 40.858 40.845 40.838 40.838 40.785 40.755 40.718 40.688 40.65 40.615 40.55 40.525 40.543 40.49 40.423 40.39 40.325 40.295 40.275 40.235 40.16 40.113 40.068 39.995 39.95 39.898 39.888 39.823 39.82 39.743 39.673 39.643 39.615 39.58 39.558 39.51 39.443 39.393 39.328 39.31 39.243 39.238 39.213 39.165 39.15 39.15 39.073 39.053 39.045 38.998 38.998 38.98 38.943 38.903 38.923 38.88 38.838 38.79 38.8 38.773 38.735 38.708 38.72 38.725 38.715 38.733 38.74 38.755 38.698 38.643 38.71 38.648 38.618 38.735 39.025 39.413 39.595 39.563 39.503 39.52 39.503 39.558 39.605 39.6 39.56 39.35 39.12 38.858 38.605 38.518 38.515 38.413 38.333 38.35 38.345 38.35 38.395 38.42 38.483 38.515 38.493 38.555 38.635 38.665 38.683 38.723 38.645 38.088 36.988 36.983 37.868 38.523 38.658 38.69 38.733 38.798 38.82 38.725 38.675 38.638 38.628 38.633 38.67 38.695 38.71 38.713 38.73 38.718 38.733 38.745 38.785 38.818 38.833 38.888 38.929 38.998 39.037 39.046 39.055 39.063 39.059 39.09 39.11 39.141 39.179 39.216 39.248 39.283 39.33 39.385 39.485 39.495 39.513 39.558 39.588 39.625 39.63 39.62 39.638 39.65 39.593 39.62 39.768 39.828 39.883 39.88 39.86 39.858 39.878 39.948 39.988 40.068 40.13 40.185 40.238 40.283 40.485 41.193 42.088 43.033 43.943 44.715 45.313 45.235 45.248 45.26 45.238 45.248 45.285 45.315 45.365 45.42 45.47 45.5 45.57 45.598
36.129 36.189 36.257 36.274 36.314 36.359 36.397 36.444 36.474 36.549 36.599 36.746 36.891 37.006 37.139 37.224 37.274 37.316 37.426 37.524 37.634 37.709 37.761 37.791 37.761 37.756 37.744 37.719 37.746 37.766 37.789 37.744 37.741 37.769 37.769 37.744 37.739 37.729 37.726 37.691 37.651 37.659 37.656 37.646 37.616 37.604 37.604 37.554 37.564 37.519 37.499 37.504 37.494 37.501 37.531 37.554 37.556 37.538 37.541 37.521 37.516 37.468 37.468 37.428 37.406 37.378 37.348 37.326 37.333 37.323 37.301 37.308 37.308 37.286 37.253 37.238 37.226 37.221 37.231 37.208 37.201 37.198 37.181 37.198 37.191 37.246 37.323 37.393 37.471 37.521 37.516 37.496 37.533 37.561 37.581 37.603 37.641 37.656 37.691 37.753 37.816 37.828 37.896 37.986 38.048 38.101 38.138 38.206 38.246 38.326 38.353 38.401 38.456 38.508 38.576 38.626 38.648 38.673 38.738 38.771 38.788 38.856 38.878 38.893 38.956 39.003 39.038 39.098 39.138 39.161 39.186 39.228 39.268 39.296 39.343 39.366 39.361 39.378 39.373 39.353 39.378 39.376 39.361 39.376 39.358 39.351 39.363 39.346 39.328 39.371 39.346 39.423 39.446 39.496 39.546 39.573 39.648 39.701 39.753 39.791 39.873 39.916 39.988 40.051 40.141 40.258 40.361 40.398 40.416 40.523 40.616 40.708 40.781 40.813 40.896 41.003 40.986 41.068 41.108 41.158 41.078 40.973 41.013 41.056 40.988 40.916 40.906 40.903 40.866 40.911 40.926 40.918 40.911 40.901 40.908 40.898 40.916 40.916 40.911 40.916 40.923 40.928 40.923 40.913 40.916 40.941 40.941 40.923 40.925 40.948 40.96 40.948 40.938 40.938 40.945 40.93 40.92 40.95 40.9 40.895 40.923 40.92 40.898 40.91 40.888 40.873 40.885 40.883 40.913 40.943 40.9 40.918 40.913 40.91 40.873 40.858 40.853 40.86 40.863 40.835 40.858 40.87 40.818 40.823 40.785 40.768 40.693 40.698 40.723 40.65 40.598 40.533 40.528 40.508 40.46 40.42 40.375 40.365 40.25 40.24 40.185 40.133 40.085 40.033 39.983 39.93 39.918 39.843 39.81 39.773 39.713 39.675 39.658 39.61 39.56 39.518 39.48 39.448 39.38 39.343 39.313 39.305 39.233 39.225 39.188 39.175 39.153 39.098 39.078 39.045 39.045 39.008 38.988 38.955 38.945 38.92 38.895 38.863 38.828 38.775 38.775 38.78 38.77 38.795 38.825 38.815 38.77 38.748 38.685 38.678 38.658 38.653 38.788 38.943 39.103 39.34 39.523 39.508 39.51 39.54 39.56 39.583 39.578 39.508 39.303 38.88 38.665 38.583 38.498 38.388 38.348 38.36 38.345 38.34 38.355 38.38 38.383 38.42 38.43 38.468 38.468 38.513 38.598 38.673 38.665 38.67 38.695 38.673 37.95 36.865 37.098 37.898 38.558 38.723 38.788 38.83 38.735 38.688 38.655 38.613 38.618 38.648 38.643 38.678 38.7 38.668 38.685 38.69 38.725 38.715 38.765 38.793 38.812 38.876 38.915 38.956 38.975 38.964 38.972 39.023 39.056 39.065 39.076 39.104 39.14 39.176 39.234 39.268 39.325 39.34 39.398 39.47 39.498 39.535 39.565 39.608 39.623 39.603 39.625 39.67 39.678 39.595 39.77 39.788 39.838 39.863 39.858 39.848 39.848 39.9 39.975 40.035 40.093 40.11 40.185 40.255 40.365 40.928 41.753 42.638 43.568 44.328 45.105 45.248 45.233 45.285 45.308 45.35 45.383 45.32 45.395 45.435 45.483 45.53 45.583 45.598
36.117 36.172 36.207 36.252 36.269 36.332 36.387 36.449 36.496 36.599 36.771 36.971 37.084 37.186 37.189 37.221 37.279 37.414 37.641 37.704 37.721 37.741 37.731 37.739 37.749 37.756 37.751 37.754 37.746 37.759 37.776 37.756 37.784 37.796 37.791 37.771 37.776 37.766 37.761 37.754 37.754 37.734 37.736 37.706 37.706 37.671 37.639 37.614 37.606 37.576 37.591 37.604 37.641 37.651 37.624 37.616 37.609 37.581 37.556 37.528 37.526 37.503 37.476 37.468 37.438 37.456 37.431 37.398 37.376 37.388 37.378 37.366 37.316 37.313 37.298 37.271 37.263 37.248 37.258 37.278 37.268 37.248 37.248 37.263 37.308 37.396 37.481 37.508 37.501 37.488 37.468 37.496 37.528 37.553 37.581 37.628 37.668 37.726 37.766 37.791 37.826 37.863 37.938 38.013 38.056 38.101 38.146 38.231 38.276 38.333 38.383 38.428 38.508 38.543 38.598 38.676 38.711 38.738 38.801 38.838 38.886 38.951 38.968 38.998 39.053 39.101 39.128 39.168 39.218 39.253 39.276 39.303 39.306 39.321 39.333 39.363 39.363 39.401 39.378 39.368 39.358 39.363 39.371 39.361 39.341 39.303 39.313 39.336 39.318 39.323 39.378 39.421 39.461 39.518 39.553 39.573 39.631 39.706 39.758 39.806 39.888 39.951 40.018 40.096 40.118 40.216 40.343 40.438 40.461 40.561 40.618 40.738 40.808 40.823 40.886 40.968 41.031 41.061 41.146 41.156 41.141 41.043 41.028 41.076 41.013 40.951 40.946 40.906 40.883 40.898 40.931 40.948 40.933 40.903 40.928 40.918 40.938 40.946 40.958 40.943 40.951 40.981 40.948 40.953 40.983 40.951 40.948 40.963 40.938 40.945 40.948 40.925 40.918 40.918 40.933 40.935 40.928 40.92 40.878 40.883 40.9 40.898 40.903 40.945 40.933 40.888 40.9 40.905 40.935 40.918 40.933 40.903 40.888 40.88 40.838 40.838 40.818 40.84 40.848 40.848 40.87 40.868 40.855 40.823 40.818 40.778 40.735 40.728 40.695 40.635 40.618 40.558 40.508 40.518 40.463 40.433 40.383 40.35 40.265 40.235 40.155 40.135 40.093 40.013 39.99 39.908 39.903 39.87 39.825 39.793 39.733 39.73 39.688 39.66 39.608 39.543 39.508 39.468 39.45 39.388 39.338 39.348 39.295 39.293 39.258 39.213 39.193 39.143 39.135 39.105 39.065 38.988 38.988 38.99 38.99 38.93 38.913 38.863 38.848 38.86 38.833 38.813 38.813 38.793 38.843 38.843 38.78 38.74 38.693 38.76 38.855 38.95 38.99 39.163 39.333 39.44 39.493 39.528 39.528 39.555 39.578 39.498 39.315 39.143 38.75 38.585 38.48 38.405 38.36 38.38 38.41 38.358 38.365 38.355 38.333 38.32 38.338 38.333 38.385 38.44 38.433 38.455 38.523 38.603 38.668 38.695 38.665 38.65 38.488 37.835 36.888 37.013 37.793 38.68 38.785 38.715 38.66 38.638 38.628 38.62 38.62 38.618 38.598 38.615 38.67 38.678 38.663 38.658 38.66 38.733 38.773 38.8 38.836 38.808 38.847 38.889 38.9 38.898 38.918 38.968 39.017 39.068 39.068 39.068 39.077 39.135 39.183 39.235 39.27 39.323 39.378 39.473 39.493 39.53 39.543 39.6 39.62 39.623 39.615 39.66 39.703 39.663 39.63 39.74 39.795 39.84 39.87 39.865 39.85 39.878 39.93 39.98 40.07 40.07 40.14 40.218 40.318 40.67 41.48 42.335 43.213 44.09 44.925 45.248 45.24 45.24 45.31 45.435 45.498 45.418 45.405 45.46 45.508 45.523 45.565 45.568
36.097 36.132 36.152 36.242 36.287 36.329 36.354 36.501 36.661 36.739 36.924 36.984 37.069 37.131 37.284 37.379 37.406 37.581 37.654 37.659 37.674 37.689 37.709 37.706 37.756 37.736 37.771 37.779 37.784 37.789 37.776 37.769 37.779 37.801 37.791 37.801 37.829 37.806 37.821 37.809 37.804 37.806 37.776 37.741 37.734 37.711 37.686 37.669 37.666 37.694 37.726 37.721 37.706 37.689 37.669 37.634 37.629 37.613 37.603 37.568 37.563 37.531 37.563 37.536 37.541 37.521 37.523 37.483 37.453 37.426 37.398 37.398 37.371 37.368 37.343 37.323 37.306 37.323 37.306 37.286 37.268 37.278 37.363 37.428 37.521 37.523 37.496 37.481 37.466 37.473 37.481 37.518 37.571 37.608 37.631 37.641 37.686 37.738 37.801 37.841 37.916 37.926 37.973 38.038 38.076 38.123 38.206 38.248 38.316 38.371 38.456 38.521 38.588 38.636 38.681 38.721 38.751 38.831 38.878 38.908 38.993 39.018 39.068 39.096 39.116 39.176 39.241 39.251 39.268 39.293 39.331 39.363 39.353 39.393 39.386 39.396 39.426 39.403 39.413 39.398 39.368 39.383 39.348 39.318 39.341 39.301 39.293 39.338 39.336 39.343 39.393 39.421 39.466 39.516 39.561 39.586 39.648 39.688 39.788 39.836 39.918 39.973 40.051 40.113 40.193 40.251 40.368 40.466 40.473 40.593 40.663 40.748 40.848 40.891 40.911 40.981 41.058 41.088 41.131 41.156 41.171 41.118 41.021 41.096 41.083 41.003 40.976 40.951 40.903 40.956 40.951 40.973 40.991 40.986 40.961 40.948 40.948 40.983 41.001 40.988 40.988 40.968 41.013 41.023 41.018 40.971 40.956 40.97 40.955 40.963 40.968 40.903 40.895 40.923 40.91 40.925 40.885 40.915 40.913 40.903 40.93 40.935 40.973 40.96 40.945 40.903 40.94 40.91 40.928 40.943 40.9 40.89 40.853 40.878 40.855 40.833 40.813 40.838 40.843 40.863 40.865 40.85 40.838 40.82 40.82 40.78 40.783 40.768 40.725 40.68 40.648 40.6 40.533 40.503 40.468 40.448 40.4 40.345 40.285 40.225 40.158 40.135 40.098 40.038 40.005 39.948 39.918 39.895 39.848 39.785 39.77 39.77 39.688 39.668 39.635 39.588 39.543 39.485 39.503 39.463 39.408 39.385 39.368 39.285 39.243 39.253 39.205 39.148 39.163 39.125 39.108 39.055 38.998 39.013 38.995 38.965 38.95 38.905 38.905 38.908 38.888 38.828 38.818 38.843 38.783 38.778 38.773 38.805 38.88 38.94 39.053 39.278 39.285 39.343 39.46 39.463 39.513 39.543 39.605 39.578 39.493 39.128 38.89 38.655 38.555 38.458 38.455 38.425 38.43 38.418 38.418 38.37 38.368 38.345 38.328 38.318 38.33 38.29 38.303 38.325 38.385 38.413 38.47 38.518 38.568 38.64 38.65 38.633 38.63 38.563 37.888 36.81 36.995 38.18 38.64 38.628 38.628 38.608 38.643 38.713 38.56 38.588 38.618 38.623 38.655 38.665 38.643 38.655 38.683 38.72 38.758 38.758 38.776 38.728 38.751 38.785 38.846 38.879 38.912 38.925 38.982 39.037 39.053 39.051 39.06 39.098 39.131 39.205 39.238 39.318 39.338 39.403 39.465 39.513 39.52 39.583 39.59 39.628 39.61 39.635 39.7 39.738 39.565 39.633 39.753 39.805 39.843 39.833 39.85 39.853 39.88 39.915 40.038 40.053 40.103 40.168 40.258 40.533 41.265 42.088 42.905 43.825 44.828 45.213 45.243 45.213 45.313 45.398 45.52 45.473 45.433 45.458 45.513 45.525 45.523 45.52
36.069 36.089 36.154 36.212 36.262 36.307 36.557 36.726 36.844 36.886 36.939 36.976 37.029 37.241 37.469 37.554 37.556 37.561 37.616 37.651 37.666 37.674 37.696 37.699 37.756 37.786 37.771 37.759 37.784 37.789 37.789 37.796 37.809 37.824 37.834 37.849 37.851 37.869 37.864 37.856 37.859 37.824 37.831 37.821 37.796 37.786 37.771 37.759 37.779 37.821 37.806 37.781 37.754 37.734 37.689 37.656 37.631 37.638 37.623 37.643 37.638 37.606 37.641 37.611 37.628 37.588 37.561 37.538 37.513 37.488 37.448 37.433 37.413 37.386 37.386 37.368 37.368 37.353 37.333 37.356 37.418 37.471 37.533 37.556 37.518 37.488 37.461 37.468 37.461 37.531 37.533 37.548 37.581 37.618 37.646 37.663 37.693 37.766 37.811 37.866 37.928 37.971 38.008 38.046 38.081 38.158 38.223 38.278 38.366 38.438 38.528 38.566 38.646 38.721 38.766 38.778 38.833 38.911 38.971 39.008 39.066 39.091 39.121 39.133 39.218 39.246 39.263 39.306 39.333 39.373 39.378 39.398 39.401 39.428 39.426 39.403 39.416 39.441 39.418 39.411 39.386 39.376 39.383 39.316 39.316 39.331 39.303 39.323 39.348 39.338 39.391 39.426 39.453 39.506 39.548 39.621 39.653 39.716 39.801 39.853 39.948 40.008 40.056 40.126 40.176 40.283 40.396 40.488 40.533 40.601 40.718 40.796 40.866 40.913 40.978 41.068 41.126 41.121 41.133 41.181 41.213 41.146 41.076 41.113 41.106 41.023 40.958 40.988 40.978 40.991 40.983 40.998 40.993 40.973 40.986 40.978 40.963 40.978 41.008 41.043 41.041 41.013 41.031 41.056 41.048 41.038 41.023 40.973 40.968 40.985 40.948 40.89 40.903 40.893 40.888 40.9 40.923 40.9 40.93 40.938 40.95 40.963 40.97 40.958 40.95 40.955 40.945 40.913 40.903 40.885 40.9 40.918 40.84 40.883 40.895 40.875 40.86 40.843 40.898 40.89 40.888 40.848 40.85 40.82 40.818 40.81 40.773 40.778 40.73 40.683 40.685 40.628 40.563 40.523 40.495 40.463 40.385 40.355 40.288 40.23 40.165 40.123 40.093 40.015 39.98 39.965 39.913 39.918 39.923 39.823 39.813 39.79 39.718 39.698 39.688 39.653 39.583 39.55 39.563 39.48 39.463 39.383 39.363 39.305 39.295 39.27 39.245 39.213 39.153 39.148 39.118 39.073 39.045 39.048 39.023 39.003 38.963 38.94 38.943 38.928 38.925 38.885 38.815 38.818 38.81 38.855 38.943 39.02 39.275 39.383 39.428 39.463 39.463 39.51 39.523 39.53 39.595 39.605 39.563 39.27 39.008 38.753 38.723 38.473 38.423 38.428 38.463 38.44 38.428 38.398 38.405 38.38 38.355 38.343 38.298 38.315 38.29 38.238 38.255 38.258 38.313 38.38 38.423 38.455 38.523 38.525 38.548 38.623 38.63 38.635 38.578 37.87 36.91 37.26 38.188 38.545 38.62 38.605 38.663 38.678 38.57 38.608 38.61 38.61 38.605 38.63 38.63 38.64 38.665 38.665 38.683 38.683 38.681 38.705 38.742 38.789 38.824 38.847 38.907 38.918 38.955 39 39.029 39.018 39.039 39.064 39.124 39.173 39.205 39.27 39.323 39.365 39.44 39.475 39.498 39.555 39.565 39.588 39.59 39.63 39.695 39.7 39.673 39.558 39.705 39.783 39.803 39.778 39.828 39.823 39.858 39.878 39.98 40 40.035 40.085 40.165 40.428 41.13 41.99 42.8 43.78 44.785 45.225 45.248 45.213 45.253 45.345 45.473 45.463 45.4 45.463 45.475 45.485 45.46 45.495
36.044 36.109 36.152 36.199 36.297 36.454 36.627 36.771 36.849 36.876 36.941 37.044 37.174 37.364 37.509 37.514 37.529 37.551 37.561 37.601 37.639 37.681 37.684 37.716 37.736 37.771 37.771 37.779 37.786 37.804 37.824 37.816 37.861 37.861 37.876 37.876 37.906 37.904 37.901 37.919 37.876 37.886 37.884 37.866 37.861 37.876 37.891 37.886 37.896 37.881 37.849 37.791 37.786 37.739 37.706 37.716 37.704 37.716 37.688 37.728 37.711 37.703 37.713 37.676 37.676 37.678 37.606 37.578 37.533 37.538 37.526 37.483 37.491 37.446 37.443 37.441 37.413 37.403 37.471 37.523 37.571 37.566 37.553 37.518 37.488 37.488 37.498 37.508 37.516 37.548 37.556 37.568 37.596 37.618 37.668 37.726 37.751 37.798 37.831 37.861 37.888 37.973 38.043 38.081 38.151 38.226 38.278 38.341 38.411 38.528 38.566 38.623 38.658 38.726 38.803 38.883 38.926 38.986 39.028 39.103 39.148 39.166 39.216 39.253 39.281 39.323 39.316 39.361 39.408 39.408 39.428 39.413 39.433 39.443 39.408 39.418 39.416 39.443 39.418 39.416 39.393 39.378 39.373 39.341 39.348 39.331 39.313 39.308 39.371 39.366 39.416 39.448 39.468 39.543 39.603 39.606 39.678 39.716 39.818 39.863 39.968 40.023 40.106 40.188 40.238 40.298 40.436 40.533 40.583 40.626 40.716 40.791 40.896 40.953 40.971 41.061 41.106 41.116 41.111 41.176 41.228 41.203 41.116 41.148 41.171 41.093 41.023 41.016 41.041 41.028 41.033 41.023 41.051 41.023 41.031 41.058 41.043 41.048 41.038 41.078 41.086 41.083 41.088 41.088 41.061 41.046 41.053 41.018 40.985 40.953 40.94 40.91 40.908 40.913 40.915 40.92 40.94 40.925 40.94 40.978 40.96 40.95 40.953 40.95 40.978 40.97 40.948 40.918 40.89 40.893 40.9 40.888 40.853 40.855 40.878 40.87 40.868 40.893 40.863 40.885 40.865 40.853 40.873 40.853 40.815 40.808 40.785 40.78 40.76 40.708 40.66 40.625 40.573 40.528 40.493 40.44 40.383 40.34 40.265 40.223 40.183 40.16 40.115 40.053 40.003 39.995 39.93 39.963 39.91 39.873 39.863 39.825 39.745 39.733 39.728 39.67 39.645 39.6 39.553 39.518 39.478 39.41 39.368 39.368 39.345 39.323 39.295 39.25 39.19 39.188 39.153 39.118 39.065 39.05 39.048 39.048 39.018 38.97 38.948 38.943 38.968 38.913 38.853 38.848 38.888 39.085 39.268 39.398 39.528 39.518 39.513 39.455 39.503 39.56 39.563 39.55 39.56 39.505 39.288 38.828 38.638 38.513 38.515 38.483 38.47 38.478 38.47 38.445 38.433 38.413 38.418 38.403 38.328 38.29 38.263 38.285 38.265 38.233 38.235 38.253 38.26 38.325 38.385 38.435 38.468 38.498 38.52 38.58 38.583 38.63 38.695 38.633 37.975 37.028 37.5 38.403 38.635 38.613 38.575 38.6 38.585 38.61 38.628 38.623 38.595 38.63 38.63 38.615 38.595 38.6 38.603 38.61 38.628 38.68 38.706 38.731 38.783 38.811 38.859 38.883 38.928 38.97 39.009 39.021 39.032 39.053 39.107 39.15 39.203 39.25 39.288 39.338 39.395 39.47 39.475 39.53 39.553 39.58 39.585 39.608 39.645 39.678 39.683 39.578 39.58 39.743 39.79 39.8 39.803 39.813 39.818 39.868 39.943 39.935 39.993 40.088 40.12 40.315 40.99 41.928 42.823 43.775 44.735 45.27 45.223 45.185 45.223 45.325 45.448 45.445 45.4 45.438 45.438 45.433 45.435 45.505
36.052 36.062 36.164 36.304 36.442 36.602 36.659 36.749 36.804 36.921 37.129 37.294 37.329 37.401 37.449 37.461 37.489 37.526 37.534 37.606 37.654 37.651 37.699 37.711 37.739 37.794 37.789 37.819 37.809 37.826 37.861 37.856 37.914 37.926 37.924 37.944 37.941 37.924 37.941 37.951 37.921 37.934 37.946 37.964 37.956 37.964 37.994 37.954 37.936 37.874 37.846 37.831 37.844 37.786 37.754 37.764 37.799 37.751 37.786 37.788 37.771 37.756 37.771 37.728 37.711 37.691 37.653 37.638 37.596 37.578 37.548 37.551 37.533 37.516 37.468 37.426 37.503 37.568 37.658 37.668 37.608 37.588 37.558 37.501 37.516 37.526 37.521 37.571 37.571 37.586 37.586 37.613 37.643 37.671 37.698 37.723 37.786 37.826 37.848 37.916 37.971 37.998 38.051 38.088 38.163 38.248 38.303 38.408 38.441 38.556 38.578 38.681 38.743 38.806 38.901 38.941 39.028 39.063 39.106 39.141 39.203 39.258 39.248 39.326 39.348 39.386 39.383 39.421 39.448 39.458 39.458 39.461 39.468 39.466 39.461 39.446 39.428 39.438 39.426 39.438 39.411 39.373 39.378 39.368 39.353 39.346 39.336 39.351 39.381 39.406 39.438 39.493 39.531 39.558 39.646 39.683 39.728 39.758 39.843 39.918 39.981 40.058 40.148 40.203 40.291 40.338 40.428 40.533 40.641 40.671 40.778 40.833 40.928 40.981 41.026 41.166 41.166 41.133 41.091 41.176 41.291 41.258 41.181 41.148 41.171 41.143 41.083 41.061 41.066 41.071 41.051 41.023 41.063 41.061 41.083 41.038 41.066 41.098 41.071 41.098 41.113 41.138 41.108 41.081 41.063 41.016 41.051 41.003 40.965 40.953 40.95 40.923 40.93 40.94 40.905 40.925 40.958 40.943 40.94 40.993 40.963 40.943 40.94 40.983 40.965 40.958 40.963 40.893 40.89 40.908 40.893 40.903 40.885 40.843 40.858 40.873 40.873 40.868 40.84 40.868 40.858 40.86 40.86 40.848 40.855 40.853 40.813 40.77 40.743 40.71 40.695 40.63 40.585 40.53 40.468 40.428 40.39 40.345 40.27 40.213 40.183 40.163 40.103 40.075 40.055 39.998 39.96 39.948 39.923 39.9 39.89 39.858 39.828 39.788 39.755 39.723 39.698 39.645 39.57 39.503 39.47 39.455 39.398 39.398 39.368 39.293 39.295 39.265 39.243 39.238 39.18 39.123 39.088 39.088 39.085 39.07 39.043 39.035 39.025 39.033 38.983 38.95 38.935 39.058 39.323 39.453 39.518 39.503 39.425 39.45 39.508 39.513 39.533 39.51 39.59 39.513 39.365 39.065 38.768 38.58 38.485 38.488 38.53 38.498 38.485 38.473 38.473 38.445 38.428 38.405 38.375 38.375 38.3 38.26 38.203 38.218 38.238 38.198 38.208 38.215 38.238 38.255 38.32 38.368 38.388 38.433 38.49 38.54 38.585 38.638 38.69 38.733 38.7 37.98 36.878 37.973 38.615 38.578 38.558 38.578 38.61 38.595 38.598 38.613 38.635 38.588 38.558 38.545 38.548 38.535 38.573 38.603 38.63 38.675 38.69 38.743 38.764 38.782 38.806 38.861 38.886 38.944 38.982 39.022 39.029 39.046 39.072 39.119 39.177 39.218 39.268 39.308 39.353 39.453 39.46 39.493 39.558 39.598 39.605 39.595 39.618 39.66 39.688 39.67 39.555 39.645 39.715 39.75 39.808 39.803 39.805 39.833 39.923 39.918 39.928 40.028 40.07 40.26 40.948 41.913 42.915 43.778 44.78 45.213 45.243 45.21 45.293 45.378 45.468 45.36 45.353 45.395 45.39 45.37 45.405 45.455
35.972 36.137 36.317 36.427 36.529 36.574 36.674 36.896 37.026 37.141 37.291 37.344 37.304 37.344 37.374 37.411 37.446 37.496 37.546 37.594 37.644 37.681 37.719 37.736 37.766 37.786 37.826 37.841 37.854 37.886 37.904 37.924 37.929 37.946 37.959 37.986 37.994 37.986 38.019 37.989 38.004 38.011 38.046 38.059 38.046 38.046 38.024 37.986 37.971 37.931 37.894 37.879 37.861 37.849 37.841 37.836 37.866 37.848 37.856 37.851 37.851 37.833 37.816 37.801 37.771 37.738 37.731 37.718 37.668 37.656 37.618 37.586 37.536 37.538 37.601 37.646 37.673 37.713 37.668 37.626 37.598 37.603 37.581 37.546 37.558 37.556 37.608 37.608 37.573 37.596 37.613 37.651 37.681 37.713 37.756 37.763 37.773 37.848 37.873 37.951 37.968 37.991 38.041 38.136 38.181 38.276 38.366 38.428 38.486 38.568 38.663 38.716 38.788 38.858 38.918 38.998 39.076 39.146 39.191 39.238 39.243 39.298 39.341 39.401 39.411 39.441 39.453 39.481 39.483 39.478 39.496 39.506 39.526 39.511 39.476 39.478 39.471 39.451 39.428 39.443 39.398 39.398 39.413 39.376 39.358 39.366 39.358 39.398 39.388 39.443 39.473 39.528 39.551 39.608 39.653 39.716 39.771 39.796 39.873 39.936 40.003 40.093 40.128 40.186 40.281 40.376 40.481 40.591 40.648 40.688 40.783 40.848 40.953 41.006 41.043 41.128 41.141 41.163 41.128 41.176 41.348 41.321 41.268 41.226 41.221 41.191 41.123 41.118 41.131 41.126 41.126 41.103 41.103 41.093 41.088 41.093 41.091 41.108 41.103 41.128 41.106 41.096 41.086 41.103 41.081 41.058 41.038 41.008 40.96 40.96 40.94 40.948 40.95 40.92 40.923 40.948 40.98 40.94 40.96 40.98 40.948 40.94 40.973 40.968 40.91 40.92 40.918 40.888 40.89 40.888 40.903 40.895 40.875 40.875 40.843 40.85 40.893 40.86 40.845 40.84 40.823 40.845 40.845 40.858 40.845 40.858 40.8 40.755 40.74 40.698 40.67 40.62 40.573 40.483 40.448 40.395 40.373 40.323 40.283 40.22 40.178 40.165 40.148 40.09 40.068 40.053 39.995 39.965 39.94 39.92 39.883 39.87 39.848 39.838 39.79 39.748 39.733 39.668 39.608 39.53 39.498 39.5 39.47 39.44 39.4 39.31 39.3 39.288 39.28 39.255 39.198 39.153 39.13 39.133 39.133 39.073 39.133 39.143 39.08 39.095 39.02 39.058 39.14 39.455 39.665 39.533 39.468 39.443 39.45 39.483 39.495 39.533 39.505 39.533 39.393 38.99 38.75 38.545 38.555 38.558 38.54 38.523 38.493 38.483 38.508 38.443 38.415 38.433 38.398 38.378 38.328 38.29 38.265 38.263 38.215 38.213 38.213 38.215 38.213 38.205 38.205 38.2 38.28 38.32 38.333 38.345 38.413 38.465 38.528 38.598 38.635 38.69 38.728 38.728 37.495 37.125 38.353 38.545 38.505 38.605 38.675 38.64 38.58 38.568 38.56 38.53 38.515 38.49 38.493 38.515 38.563 38.575 38.583 38.611 38.622 38.674 38.708 38.761 38.748 38.803 38.863 38.917 38.966 39.008 39.008 39.031 39.058 39.104 39.157 39.2 39.253 39.3 39.323 39.413 39.453 39.465 39.51 39.543 39.608 39.6 39.625 39.645 39.668 39.698 39.62 39.528 39.645 39.725 39.77 39.815 39.783 39.833 39.895 39.9 39.89 39.963 40.033 40.253 40.948 41.91 43.025 44.048 44.905 45.313 45.28 45.198 45.333 45.418 45.355 45.34 45.348 45.345 45.33 45.348 45.403 45.065
36.144 36.242 36.352 36.409 36.507 36.634 36.867 37.104 37.236 37.226 37.224 37.249 37.264 37.316 37.359 37.414 37.439 37.491 37.546 37.586 37.624 37.674 37.704 37.769 37.789 37.794 37.821 37.864 37.891 37.916 37.941 37.966 37.951 37.991 37.994 38.029 38.044 38.046 38.084 38.084 38.104 38.109 38.111 38.116 38.084 38.044 38.024 38.024 37.999 37.969 37.934 37.946 37.931 37.931 37.926 37.926 37.914 37.923 37.921 37.903 37.871 37.881 37.888 37.861 37.831 37.823 37.773 37.766 37.758 37.693 37.643 37.646 37.663 37.701 37.766 37.803 37.723 37.693 37.698 37.638 37.621 37.608 37.608 37.588 37.581 37.611 37.603 37.618 37.636 37.643 37.676 37.678 37.723 37.716 37.761 37.781 37.823 37.883 37.898 37.963 37.983 38.033 38.108 38.163 38.233 38.303 38.383 38.471 38.496 38.618 38.696 38.746 38.833 38.963 39.006 39.061 39.143 39.201 39.266 39.313 39.353 39.381 39.406 39.408 39.456 39.481 39.501 39.506 39.501 39.541 39.553 39.553 39.551 39.506 39.516 39.511 39.493 39.458 39.476 39.473 39.431 39.426 39.413 39.416 39.391 39.393 39.396 39.428 39.451 39.471 39.496 39.541 39.591 39.646 39.681 39.728 39.798 39.846 39.931 39.988 40.041 40.106 40.173 40.231 40.333 40.386 40.478 40.568 40.693 40.688 40.808 40.866 40.951 41.001 41.061 41.123 41.181 41.138 41.128 41.188 41.353 41.393 41.313 41.246 41.301 41.251 41.191 41.163 41.168 41.153 41.111 41.143 41.153 41.131 41.138 41.123 41.141 41.091 41.143 41.111 41.106 41.061 41.078 41.103 41.068 41.053 41.001 41.023 41.003 40.988 40.973 40.948 40.963 40.958 40.968 40.978 40.99 41.003 41.008 41.008 40.953 40.943 40.933 40.93 40.89 40.91 40.898 40.908 40.895 40.895 40.89 40.898 40.885 40.895 40.865 40.878 40.885 40.848 40.838 40.865 40.868 40.843 40.845 40.848 40.85 40.813 40.79 40.758 40.74 40.69 40.65 40.615 40.53 40.483 40.443 40.398 40.353 40.303 40.295 40.218 40.168 40.185 40.16 40.115 40.065 40.075 40.023 39.988 39.973 39.915 39.935 39.883 39.885 39.843 39.82 39.78 39.735 39.675 39.628 39.585 39.52 39.543 39.503 39.443 39.39 39.338 39.338 39.345 39.298 39.273 39.225 39.205 39.175 39.145 39.125 39.183 39.245 39.148 39.143 39.183 39.263 39.393 39.448 39.59 39.538 39.5 39.46 39.485 39.468 39.518 39.555 39.55 39.408 39.158 38.858 38.695 38.535 38.57 38.578 38.575 38.565 38.553 38.515 38.473 38.468 38.398 38.39 38.38 38.343 38.305 38.305 38.288 38.255 38.238 38.225 38.223 38.233 38.225 38.193 38.198 38.19 38.188 38.233 38.28 38.29 38.343 38.38 38.425 38.498 38.525 38.595 38.605 38.66 38.745 38.42 37.245 37.43 38.1 38.538 38.63 38.7 38.645 38.573 38.52 38.48 38.475 38.48 38.493 38.505 38.5 38.518 38.54 38.558 38.58 38.595 38.636 38.652 38.696 38.73 38.78 38.832 38.874 38.93 38.982 39.008 39.02 39.042 39.089 39.141 39.171 39.213 39.285 39.308 39.35 39.445 39.443 39.465 39.503 39.565 39.6 39.613 39.655 39.653 39.665 39.66 39.523 39.583 39.705 39.768 39.813 39.795 39.823 39.843 39.87 39.905 39.98 40.063 40.278 41.078 42.065 43.178 44.153 44.945 45.25 45.215 45.228 45.333 45.395 45.31 45.3 45.313 45.29 45.33 45.358 45.208 44.525
36.242 36.279 36.367 36.409 36.552 36.759 36.977 37.109 37.111 37.126 37.156 37.199 37.249 37.279 37.339 37.396 37.424 37.461 37.516 37.581 37.626 37.684 37.726 37.761 37.804 37.829 37.871 37.924 37.939 37.941 37.986 37.999 38.014 38.039 38.029 38.051 38.091 38.131 38.139 38.184 38.206 38.199 38.186 38.139 38.106 38.099 38.104 38.021 38.031 38.029 37.999 38.014 38.014 38.004 37.981 37.999 37.989 37.996 37.941 37.941 37.956 37.938 37.936 37.898 37.891 37.866 37.841 37.823 37.768 37.726 37.756 37.816 37.886 37.903 37.821 37.768 37.716 37.701 37.696 37.683 37.673 37.676 37.658 37.636 37.623 37.646 37.656 37.643 37.691 37.681 37.673 37.696 37.718 37.718 37.766 37.796 37.828 37.888 37.903 37.963 38.018 38.071 38.128 38.176 38.261 38.343 38.416 38.503 38.581 38.671 38.726 38.798 38.891 38.968 39.038 39.111 39.188 39.236 39.316 39.346 39.388 39.411 39.458 39.456 39.491 39.528 39.551 39.548 39.548 39.558 39.551 39.571 39.546 39.543 39.526 39.521 39.511 39.501 39.483 39.483 39.451 39.458 39.408 39.406 39.408 39.418 39.448 39.481 39.483 39.503 39.568 39.586 39.636 39.681 39.723 39.778 39.821 39.873 39.933 39.991 40.068 40.141 40.213 40.296 40.333 40.371 40.458 40.551 40.653 40.728 40.831 40.883 40.961 41.011 41.041 41.116 41.203 41.181 41.216 41.273 41.413 41.463 41.398 41.301 41.331 41.318 41.248 41.233 41.216 41.216 41.161 41.221 41.218 41.178 41.188 41.178 41.173 41.148 41.136 41.116 41.108 41.088 41.071 41.086 41.051 41.066 41.053 41.038 41.025 40.995 40.985 40.97 40.975 40.995 41.003 41.003 40.955 40.998 40.973 40.983 40.998 40.963 40.953 40.943 40.938 40.91 40.908 40.925 40.915 40.89 40.895 40.878 40.91 40.915 40.87 40.845 40.873 40.843 40.813 40.843 40.843 40.825 40.833 40.823 40.82 40.803 40.79 40.77 40.718 40.668 40.625 40.595 40.543 40.473 40.428 40.393 40.343 40.313 40.305 40.245 40.185 40.173 40.158 40.145 40.108 40.105 40.05 40.015 40.013 39.975 39.943 39.925 39.93 39.868 39.853 39.788 39.758 39.715 39.66 39.628 39.56 39.56 39.5 39.475 39.448 39.398 39.368 39.375 39.303 39.263 39.255 39.253 39.228 39.243 39.295 39.35 39.293 39.26 39.343 39.47 39.523 39.575 39.585 39.515 39.465 39.493 39.49 39.503 39.553 39.575 39.418 39.173 38.965 38.695 38.69 38.683 38.65 38.615 38.615 38.553 38.548 38.538 38.513 38.463 38.423 38.395 38.395 38.37 38.325 38.29 38.275 38.253 38.258 38.253 38.208 38.168 38.183 38.2 38.21 38.175 38.205 38.188 38.203 38.245 38.265 38.303 38.335 38.36 38.42 38.468 38.5 38.533 38.608 38.66 38.678 38.15 36.915 37.84 38.608 38.66 38.663 38.658 38.565 38.473 38.448 38.48 38.5 38.513 38.473 38.46 38.48 38.495 38.543 38.538 38.57 38.599 38.659 38.699 38.722 38.758 38.804 38.851 38.897 38.958 38.989 39.008 39.031 39.055 39.126 39.146 39.205 39.248 39.305 39.32 39.408 39.425 39.438 39.51 39.555 39.605 39.613 39.623 39.623 39.628 39.683 39.628 39.55 39.668 39.72 39.785 39.78 39.825 39.828 39.83 39.885 39.983 40.073 40.318 41.218 42.358 43.365 44.228 44.973 45.233 45.205 45.265 45.36 45.3 45.27 45.263 45.273 45.228 45.33 45.31 44.775 43.888
36.192 36.227 36.432 36.567 36.729 36.909 36.967 36.996 37.049 37.079 37.081 37.171 37.216 37.281 37.331 37.394 37.441 37.481 37.529 37.596 37.636 37.691 37.739 37.796 37.849 37.859 37.886 37.921 37.956 38.001 38.014 38.036 38.036 38.069 38.109 38.134 38.161 38.191 38.226 38.241 38.244 38.216 38.214 38.176 38.129 38.124 38.134 38.094 38.091 38.084 38.089 38.099 38.099 38.094 38.081 38.061 38.056 38.028 38.001 38.001 38.018 37.993 37.996 37.966 37.931 37.916 37.888 37.871 37.916 37.936 37.986 37.956 37.936 37.858 37.801 37.788 37.781 37.778 37.743 37.751 37.711 37.693 37.706 37.678 37.691 37.691 37.713 37.668 37.693 37.711 37.703 37.726 37.731 37.746 37.771 37.831 37.856 37.881 37.928 37.956 38.053 38.093 38.161 38.218 38.303 38.376 38.448 38.521 38.621 38.698 38.773 38.836 38.933 39.008 39.076 39.158 39.221 39.298 39.341 39.386 39.418 39.443 39.503 39.533 39.541 39.551 39.581 39.578 39.578 39.563 39.578 39.578 39.561 39.541 39.561 39.553 39.538 39.541 39.526 39.506 39.513 39.501 39.446 39.466 39.463 39.463 39.486 39.528 39.531 39.566 39.603 39.613 39.663 39.723 39.756 39.808 39.843 39.886 39.966 40.008 40.103 40.178 40.238 40.296 40.353 40.413 40.516 40.616 40.666 40.713 40.808 40.893 40.946 40.996 41.033 41.108 41.223 41.251 41.266 41.341 41.476 41.521 41.436 41.386 41.386 41.391 41.308 41.266 41.273 41.273 41.248 41.228 41.276 41.226 41.216 41.183 41.173 41.153 41.118 41.123 41.098 41.091 41.071 41.073 41.071 41.073 41.078 41.08 41.038 41.02 41.018 40.993 41.015 41.005 41.013 41.01 40.995 40.963 40.978 40.98 40.953 40.98 40.94 40.945 40.948 40.92 40.895 40.903 40.905 40.888 40.895 40.903 40.873 40.895 40.863 40.848 40.83 40.843 40.815 40.82 40.83 40.823 40.793 40.788 40.795 40.795 40.753 40.763 40.705 40.625 40.595 40.545 40.508 40.448 40.405 40.39 40.328 40.313 40.278 40.278 40.195 40.168 40.17 40.155 40.148 40.09 40.06 40.025 40.015 39.998 39.955 39.958 39.945 39.858 39.845 39.808 39.778 39.75 39.673 39.633 39.593 39.578 39.558 39.49 39.475 39.468 39.378 39.35 39.34 39.288 39.285 39.29 39.285 39.395 39.44 39.41 39.36 39.463 39.618 39.695 39.625 39.593 39.54 39.525 39.523 39.54 39.465 39.44 39.53 39.313 38.948 38.798 38.673 38.705 38.723 38.705 38.668 38.655 38.633 38.585 38.543 38.535 38.488 38.438 38.383 38.348 38.368 38.34 38.33 38.31 38.278 38.248 38.253 38.243 38.238 38.175 38.178 38.173 38.18 38.178 38.153 38.228 38.21 38.208 38.253 38.26 38.27 38.32 38.368 38.42 38.485 38.445 38.545 38.598 38.653 38.355 37.435 37.325 38.24 38.663 38.638 38.62 38.553 38.473 38.445 38.448 38.493 38.478 38.453 38.458 38.473 38.495 38.533 38.543 38.568 38.593 38.635 38.664 38.682 38.729 38.795 38.838 38.882 38.93 38.968 39.012 39.04 39.043 39.075 39.118 39.185 39.213 39.27 39.298 39.348 39.435 39.455 39.498 39.528 39.575 39.613 39.59 39.635 39.643 39.663 39.65 39.598 39.57 39.675 39.748 39.775 39.8 39.818 39.85 39.913 39.973 40.093 40.52 41.408 42.57 43.525 44.378 45.035 45.205 45.195 45.323 45.298 45.223 45.228 45.21 45.18 45.26 45.293 45 44.185 43.3
36.209 36.424 36.729 36.824 36.837 36.852 36.907 36.956 37.004 37.034 37.081 37.134 37.189 37.246 37.301 37.354 37.414 37.509 37.574 37.596 37.641 37.696 37.776 37.841 37.874 37.899 37.899 37.949 37.996 38.049 38.061 38.094 38.111 38.146 38.184 38.236 38.249 38.271 38.279 38.269 38.251 38.239 38.226 38.216 38.199 38.174 38.181 38.186 38.171 38.149 38.179 38.159 38.166 38.146 38.154 38.139 38.111 38.081 38.083 38.093 38.061 38.058 38.033 37.983 37.956 37.958 37.976 38.036 38.033 38.041 38.023 37.956 37.921 37.893 37.838 37.803 37.788 37.796 37.776 37.791 37.783 37.731 37.738 37.706 37.761 37.778 37.733 37.728 37.703 37.718 37.738 37.736 37.761 37.786 37.818 37.858 37.896 37.913 37.953 37.996 38.061 38.113 38.218 38.248 38.358 38.438 38.498 38.586 38.636 38.726 38.823 38.906 38.968 39.028 39.108 39.231 39.243 39.288 39.378 39.418 39.461 39.481 39.513 39.568 39.563 39.603 39.591 39.626 39.606 39.618 39.616 39.596 39.611 39.588 39.573 39.568 39.536 39.568 39.556 39.563 39.553 39.511 39.536 39.501 39.486 39.493 39.548 39.548 39.581 39.613 39.663 39.673 39.701 39.748 39.771 39.846 39.893 39.928 39.993 40.038 40.108 40.196 40.256 40.316 40.398 40.436 40.471 40.591 40.686 40.723 40.753 40.853 40.931 41.001 41.026 41.063 41.191 41.266 41.291 41.278 41.411 41.548 41.468 41.411 41.421 41.433 41.373 41.338 41.331 41.311 41.276 41.286 41.303 41.271 41.218 41.211 41.203 41.171 41.136 41.118 41.133 41.098 41.101 41.088 41.081 41.078 41.081 41.105 41.08 41.063 41.048 41.015 41.03 41.038 41.023 41.03 41 40.935 40.958 40.968 40.953 40.958 40.945 40.973 40.918 40.918 40.9 40.898 40.945 40.878 40.885 40.913 40.87 40.908 40.888 40.86 40.828 40.818 40.818 40.815 40.763 40.785 40.768 40.788 40.765 40.763 40.698 40.703 40.695 40.63 40.568 40.538 40.495 40.475 40.435 40.405 40.375 40.34 40.308 40.288 40.238 40.233 40.18 40.12 40.135 40.123 40.093 40.073 40.033 39.988 39.98 39.96 39.925 39.895 39.848 39.833 39.8 39.74 39.728 39.69 39.635 39.563 39.568 39.538 39.483 39.45 39.395 39.37 39.37 39.313 39.308 39.355 39.465 39.585 39.623 39.54 39.6 39.683 39.685 39.633 39.658 39.62 39.598 39.523 39.565 39.605 39.505 39.23 39.05 38.763 38.773 38.768 38.745 38.765 38.743 38.7 38.688 38.653 38.638 38.568 38.515 38.49 38.478 38.41 38.35 38.338 38.328 38.318 38.343 38.31 38.303 38.263 38.25 38.233 38.218 38.168 38.153 38.173 38.218 38.205 38.175 38.2 38.215 38.198 38.225 38.22 38.27 38.303 38.305 38.353 38.4 38.438 38.508 38.545 38.578 38.095 37.423 36.928 38 38.573 38.573 38.548 38.53 38.493 38.463 38.443 38.458 38.455 38.433 38.443 38.473 38.525 38.538 38.545 38.573 38.57 38.612 38.634 38.656 38.711 38.736 38.815 38.857 38.897 38.953 38.996 38.997 39.018 39.058 39.09 39.12 39.168 39.235 39.27 39.328 39.42 39.44 39.465 39.495 39.553 39.593 39.595 39.608 39.628 39.663 39.638 39.59 39.478 39.635 39.678 39.753 39.8 39.828 39.923 39.975 40.018 40.118 40.6 41.555 42.64 43.705 44.595 45.058 45.188 45.253 45.293 45.245 45.195 45.158 45.155 45.133 45.223 45.305 44.795 43.77 42.928
36.404 36.639 36.729 36.734 36.754 36.777 36.849 36.914 36.971 37.011 37.074 37.096 37.154 37.241 37.286 37.344 37.426 37.509 37.551 37.621 37.676 37.744 37.799 37.864 37.906 37.926 37.959 37.979 38.024 38.064 38.099 38.124 38.201 38.234 38.276 38.281 38.269 38.289 38.311 38.274 38.284 38.276 38.266 38.276 38.254 38.264 38.244 38.234 38.244 38.241 38.261 38.231 38.219 38.224 38.219 38.204 38.161 38.143 38.131 38.148 38.126 38.098 38.046 38.031 38.056 38.111 38.208 38.213 38.126 38.068 38.033 37.978 37.936 37.913 37.883 37.856 37.828 37.811 37.793 37.833 37.828 37.778 37.766 37.791 37.773 37.776 37.746 37.741 37.741 37.726 37.748 37.773 37.776 37.853 37.838 37.866 37.886 37.936 37.981 38.041 38.121 38.173 38.223 38.293 38.378 38.468 38.551 38.596 38.691 38.788 38.861 38.931 39.001 39.081 39.143 39.213 39.273 39.333 39.393 39.433 39.486 39.521 39.563 39.601 39.596 39.606 39.606 39.633 39.623 39.601 39.621 39.638 39.613 39.643 39.603 39.621 39.596 39.588 39.578 39.568 39.558 39.563 39.556 39.536 39.548 39.543 39.578 39.583 39.628 39.653 39.688 39.713 39.728 39.773 39.808 39.871 39.948 39.958 40.003 40.068 40.128 40.181 40.253 40.348 40.406 40.473 40.508 40.616 40.713 40.728 40.778 40.816 40.896 40.966 41.011 41.031 41.146 41.256 41.276 41.298 41.463 41.636 41.543 41.431 41.448 41.461 41.433 41.398 41.363 41.361 41.331 41.338 41.341 41.298 41.233 41.228 41.206 41.188 41.151 41.151 41.148 41.136 41.121 41.093 41.101 41.101 41.153 41.13 41.14 41.103 41.078 41.055 41.078 41.04 41.018 41.013 41.003 40.958 40.948 40.958 40.97 40.975 40.953 40.955 40.913 40.91 40.903 40.87 40.935 40.883 40.898 40.893 40.863 40.843 40.85 40.825 40.813 40.838 40.803 40.788 40.755 40.768 40.73 40.763 40.743 40.71 40.668 40.628 40.66 40.635 40.573 40.528 40.5 40.46 40.433 40.42 40.368 40.295 40.285 40.28 40.26 40.23 40.203 40.14 40.143 40.125 40.095 40.083 40.045 40.02 40.005 39.958 39.93 39.913 39.885 39.848 39.838 39.77 39.748 39.7 39.665 39.633 39.615 39.573 39.488 39.438 39.388 39.37 39.403 39.385 39.38 39.498 39.778 39.833 39.845 39.725 39.633 39.6 39.638 39.683 39.683 39.663 39.638 39.618 39.68 39.463 39.093 38.943 38.79 38.825 38.813 38.81 38.77 38.728 38.733 38.698 38.683 38.638 38.603 38.528 38.455 38.455 38.445 38.38 38.333 38.34 38.31 38.315 38.328 38.3 38.29 38.27 38.248 38.233 38.233 38.153 38.165 38.22 38.238 38.21 38.195 38.195 38.215 38.218 38.238 38.223 38.258 38.28 38.283 38.278 38.328 38.385 38.398 38.475 38.53 38.35 37.838 37.22 37.223 38.405 38.53 38.485 38.51 38.5 38.443 38.435 38.47 38.453 38.453 38.475 38.478 38.503 38.513 38.533 38.55 38.571 38.62 38.624 38.694 38.699 38.725 38.781 38.838 38.893 38.92 38.972 38.989 38.993 39.037 39.052 39.078 39.145 39.213 39.27 39.313 39.39 39.43 39.433 39.463 39.513 39.543 39.575 39.593 39.618 39.643 39.605 39.62 39.533 39.478 39.675 39.735 39.84 39.9 39.958 40.038 40.108 40.233 40.84 41.755 42.79 43.88 44.675 45.028 45.19 45.293 45.213 45.163 45.145 45.113 45.078 45.1 45.185 45.258 45.008 43.833 42.87
36.562 36.609 36.599 36.659 36.709 36.787 36.837 36.891 36.946 36.986 37.046 37.054 37.156 37.214 37.284 37.329 37.436 37.504 37.571 37.644 37.696 37.736 37.779 37.866 37.896 37.951 37.979 37.991 38.071 38.126 38.186 38.236 38.281 38.301 38.306 38.289 38.299 38.306 38.329 38.334 38.319 38.326 38.316 38.319 38.311 38.321 38.339 38.324 38.306 38.314 38.289 38.294 38.274 38.264 38.276 38.246 38.221 38.231 38.213 38.183 38.138 38.138 38.163 38.236 38.286 38.246 38.228 38.156 38.131 38.068 38.031 38.026 37.991 37.971 37.911 37.883 37.901 37.893 37.861 37.836 37.826 37.826 37.818 37.833 37.813 37.783 37.766 37.776 37.791 37.748 37.773 37.813 37.796 37.828 37.853 37.896 37.906 37.981 38.018 38.071 38.143 38.193 38.258 38.328 38.408 38.473 38.558 38.658 38.718 38.801 38.878 38.958 39.003 39.068 39.131 39.243 39.288 39.341 39.378 39.458 39.503 39.533 39.571 39.586 39.591 39.611 39.613 39.636 39.653 39.648 39.651 39.658 39.636 39.646 39.638 39.643 39.603 39.621 39.608 39.601 39.606 39.578 39.618 39.621 39.628 39.598 39.626 39.653 39.666 39.671 39.691 39.716 39.761 39.791 39.851 39.881 39.916 39.983 40.021 40.096 40.163 40.228 40.278 40.348 40.388 40.513 40.551 40.611 40.693 40.701 40.763 40.841 40.861 40.923 40.981 40.991 41.096 41.271 41.326 41.366 41.563 41.746 41.558 41.498 41.486 41.493 41.466 41.446 41.378 41.381 41.391 41.346 41.346 41.333 41.276 41.256 41.206 41.176 41.136 41.141 41.181 41.196 41.168 41.178 41.158 41.163 41.183 41.138 41.138 41.133 41.113 41.08 41.108 41.055 41.033 40.988 41.003 40.953 40.953 41 40.98 40.955 40.958 40.938 40.87 40.925 40.915 40.9 40.87 40.905 40.898 40.87 40.863 40.835 40.845 40.805 40.785 40.78 40.77 40.768 40.738 40.71 40.698 40.703 40.683 40.693 40.668 40.653 40.65 40.62 40.555 40.543 40.515 40.498 40.458 40.428 40.383 40.348 40.313 40.29 40.315 40.23 40.198 40.218 40.178 40.135 40.133 40.085 40.05 40.045 40.023 39.983 39.97 39.955 39.913 39.838 39.838 39.79 39.788 39.715 39.705 39.65 39.628 39.583 39.5 39.458 39.423 39.438 39.47 39.435 39.54 39.745 39.958 39.958 39.835 39.748 39.653 39.66 39.658 39.68 39.63 39.528 39.515 39.458 39.31 38.955 38.96 38.905 38.893 38.858 38.86 38.848 38.803 38.778 38.735 38.683 38.628 38.598 38.55 38.545 38.485 38.463 38.43 38.395 38.335 38.36 38.33 38.31 38.305 38.29 38.268 38.245 38.24 38.23 38.22 38.18 38.185 38.235 38.243 38.19 38.203 38.235 38.243 38.245 38.245 38.22 38.238 38.263 38.28 38.283 38.275 38.345 38.375 38.405 38.47 38.54 38.355 37.51 36.865 37.888 38.445 38.468 38.483 38.498 38.473 38.46 38.463 38.45 38.458 38.485 38.5 38.488 38.513 38.548 38.563 38.59 38.614 38.649 38.682 38.706 38.74 38.76 38.825 38.863 38.909 38.955 38.982 38.989 39.023 39.033 39.089 39.134 39.193 39.245 39.293 39.36 39.398 39.403 39.445 39.488 39.513 39.548 39.57 39.585 39.615 39.603 39.623 39.633 39.533 39.608 39.698 39.818 39.913 40 40.075 40.198 40.338 41.038 41.955 43.01 44.073 44.763 45.048 45.258 45.255 45.158 45.14 45.108 45.05 45.045 45.07 45.125 45.278 45.378 44.425 43.225
36.497 36.499 36.527 36.632 36.692 36.734 36.784 36.854 36.901 36.941 37.014 37.079 37.159 37.229 37.276 37.354 37.421 37.486 37.576 37.626 37.679 37.719 37.784 37.866 37.919 37.964 38.021 38.069 38.151 38.219 38.264 38.314 38.324 38.344 38.349 38.316 38.314 38.339 38.361 38.351 38.371 38.391 38.394 38.391 38.391 38.391 38.404 38.386 38.376 38.359 38.334 38.336 38.329 38.319 38.309 38.321 38.306 38.276 38.231 38.223 38.226 38.261 38.308 38.348 38.311 38.241 38.213 38.161 38.116 38.138 38.078 38.068 38.031 37.976 37.963 37.928 37.898 37.913 37.911 37.911 37.888 37.858 37.841 37.846 37.811 37.828 37.798 37.773 37.768 37.773 37.788 37.813 37.826 37.848 37.903 37.883 37.981 38.016 38.061 38.118 38.188 38.218 38.281 38.358 38.438 38.513 38.578 38.671 38.753 38.808 38.891 38.963 39.006 39.088 39.173 39.226 39.258 39.331 39.386 39.461 39.516 39.543 39.576 39.576 39.618 39.641 39.648 39.651 39.653 39.671 39.661 39.701 39.686 39.678 39.661 39.671 39.671 39.668 39.663 39.626 39.651 39.656 39.678 39.688 39.673 39.673 39.673 39.666 39.698 39.681 39.678 39.721 39.786 39.813 39.853 39.886 39.951 40.023 40.066 40.096 40.156 40.221 40.251 40.343 40.416 40.496 40.531 40.581 40.636 40.701 40.703 40.823 40.868 40.911 40.948 40.953 41.081 41.331 41.371 41.408 41.621 41.718 41.598 41.548 41.513 41.521 41.488 41.456 41.426 41.416 41.418 41.388 41.341 41.331 41.323 41.301 41.246 41.243 41.213 41.181 41.201 41.221 41.213 41.211 41.211 41.206 41.188 41.19 41.178 41.16 41.138 41.115 41.013 41.038 41.01 40.983 41.005 40.975 40.973 41.005 40.973 40.955 40.965 40.96 40.925 40.93 40.905 40.93 40.9 40.888 40.823 40.835 40.853 40.79 40.778 40.775 40.75 40.763 40.713 40.71 40.72 40.718 40.708 40.638 40.638 40.653 40.628 40.613 40.633 40.613 40.588 40.548 40.553 40.528 40.475 40.405 40.395 40.365 40.35 40.293 40.315 40.24 40.208 40.195 40.165 40.173 40.148 40.083 40.015 40.01 40.028 39.975 39.98 39.938 39.938 39.873 39.828 39.805 39.798 39.765 39.733 39.688 39.608 39.585 39.518 39.525 39.503 39.47 39.485 39.635 39.81 39.93 39.868 39.803 39.785 39.78 39.715 39.705 39.688 39.59 39.478 39.24 39.12 39.09 38.958 38.953 38.94 38.913 38.883 38.87 38.873 38.843 38.8 38.768 38.718 38.638 38.573 38.573 38.553 38.51 38.508 38.48 38.433 38.398 38.365 38.345 38.313 38.3 38.283 38.28 38.298 38.268 38.24 38.228 38.233 38.215 38.2 38.205 38.22 38.203 38.21 38.253 38.228 38.26 38.25 38.23 38.265 38.27 38.283 38.28 38.27 38.315 38.37 38.388 38.438 38.51 38.563 38.023 37.148 37.12 38.385 38.48 38.483 38.518 38.498 38.485 38.473 38.485 38.473 38.478 38.52 38.49 38.543 38.54 38.563 38.62 38.605 38.637 38.664 38.709 38.734 38.759 38.802 38.841 38.885 38.92 38.961 38.986 39.011 39.029 39.066 39.085 39.15 39.2 39.24 39.293 39.35 39.398 39.435 39.483 39.525 39.545 39.56 39.553 39.585 39.608 39.625 39.693 39.678 39.568 39.668 39.735 39.878 40.025 40.145 40.2 40.435 41.238 42.213 43.265 44.298 44.875 45.068 45.243 45.19 45.098 45.08 45.043 44.978 45.043 45.063 45.113 45.388 45.635 45.035 43.845
36.409 36.452 36.502 36.602 36.652 36.697 36.774 36.811 36.876 36.939 37.026 37.079 37.126 37.216 37.304 37.366 37.424 37.459 37.551 37.644 37.689 37.741 37.799 37.844 37.926 38.006 38.059 38.144 38.234 38.259 38.291 38.334 38.339 38.329 38.354 38.346 38.364 38.354 38.391 38.416 38.431 38.441 38.456 38.474 38.459 38.461 38.444 38.439 38.399 38.379 38.401 38.391 38.404 38.371 38.386 38.364 38.324 38.283 38.313 38.363 38.423 38.441 38.356 38.318 38.303 38.271 38.228 38.211 38.183 38.178 38.113 38.103 38.053 38.003 38.023 37.988 37.978 37.951 37.941 37.918 37.886 37.888 37.871 37.861 37.813 37.838 37.823 37.811 37.778 37.791 37.828 37.846 37.846 37.901 37.916 37.931 38.013 38.071 38.106 38.141 38.221 38.238 38.338 38.411 38.471 38.556 38.638 38.701 38.761 38.838 38.873 38.956 39.008 39.096 39.121 39.196 39.278 39.341 39.421 39.433 39.478 39.526 39.566 39.598 39.621 39.616 39.646 39.663 39.671 39.666 39.696 39.721 39.681 39.696 39.718 39.698 39.693 39.691 39.666 39.673 39.673 39.688 39.733 39.721 39.713 39.711 39.681 39.683 39.718 39.726 39.736 39.758 39.798 39.816 39.868 39.906 39.988 40.028 40.061 40.111 40.153 40.236 40.308 40.348 40.433 40.478 40.528 40.566 40.648 40.656 40.698 40.761 40.816 40.851 40.893 40.911 41.041 41.291 41.381 41.396 41.566 41.711 41.646 41.588 41.548 41.556 41.516 41.498 41.478 41.483 41.456 41.423 41.333 41.338 41.343 41.346 41.333 41.273 41.278 41.256 41.246 41.263 41.261 41.233 41.226 41.253 41.198 41.22 41.19 41.138 41.1 41.055 41.053 41.02 41.018 41.018 40.983 40.98 40.965 40.98 40.935 40.948 40.933 40.91 40.908 40.888 40.888 40.893 40.843 40.848 40.855 40.815 40.82 40.793 40.785 40.798 40.758 40.715 40.683 40.658 40.645 40.65 40.63 40.623 40.625 40.63 40.618 40.615 40.598 40.6 40.61 40.573 40.53 40.525 40.495 40.42 40.413 40.393 40.37 40.338 40.295 40.253 40.233 40.245 40.228 40.178 40.123 40.095 40.048 40.02 40.005 39.968 39.943 39.905 39.928 39.893 39.843 39.833 39.78 39.753 39.733 39.683 39.633 39.628 39.548 39.56 39.523 39.6 39.67 39.825 39.965 39.923 39.873 39.828 39.798 39.798 39.763 39.753 39.588 39.295 39.168 39.058 39.04 39.038 38.965 38.963 38.975 38.973 38.943 38.918 38.85 38.815 38.773 38.7 38.703 38.625 38.548 38.58 38.575 38.555 38.535 38.458 38.413 38.39 38.37 38.313 38.27 38.295 38.303 38.3 38.295 38.26 38.235 38.215 38.198 38.205 38.2 38.193 38.193 38.223 38.235 38.233 38.235 38.245 38.265 38.273 38.26 38.265 38.27 38.275 38.278 38.295 38.338 38.35 38.373 38.453 38.548 38.473 37.615 36.985 37.995 38.453 38.485 38.488 38.515 38.5 38.463 38.478 38.473 38.493 38.51 38.553 38.583 38.58 38.628 38.64 38.625 38.652 38.685 38.728 38.745 38.764 38.8 38.823 38.868 38.896 38.962 38.976 38.976 39.018 39.029 39.079 39.123 39.165 39.238 39.268 39.335 39.405 39.418 39.458 39.508 39.538 39.548 39.565 39.58 39.61 39.618 39.678 39.685 39.665 39.53 39.655 39.785 39.963 40.118 40.175 40.593 41.488 42.418 43.46 44.318 44.888 45.105 45.235 45.08 45.078 45.018 44.943 44.945 45.045 45.1 45.128 45.355 45.668 45.41 44.34
