ncols 437
nrows 32
xllcorner    429054
yllcorner    485472
cellsize     2
NODATA_value -9999
29.129 29.121 29.049 29.089 29.156 29.121 29.134 29.096 29.016 29.064 29.031 29.011 29.049 29.004 28.831 28.721 28.701 28.621 28.559 28.584 28.596 28.746 28.876 28.869 28.811 28.881 28.906 28.884 28.824 28.834 29.014 29.059 29.056 28.941 28.779 28.681 28.651 28.669 28.684 28.716 28.751 28.729 28.729 28.726 28.734 28.731 28.714 28.694 28.671 28.644 28.644 28.654 28.674 28.651 28.589 28.624 28.636 28.669 28.671 28.711 28.749 28.761 28.771 28.759 28.819 28.824 28.864 28.836 28.819 28.846 28.851 28.836 28.869 28.894 28.861 28.851 28.846 28.816 28.811 28.789 28.784 28.729 28.696 28.671 28.639 28.556 28.511 28.466 28.479 28.474 28.474 28.484 28.514 28.474 28.479 28.481 28.496 28.546 28.591 28.676 28.751 28.794 28.831 28.889 28.974 29.041 29.094 29.171 29.219 29.324 29.419 29.504 29.569 29.694 29.804 29.871 29.941 29.959 29.909 29.814 29.671 29.481 29.359 29.319 29.284 29.321 29.451 29.616 29.744 29.839 29.834 29.906 29.934 29.926 29.959 29.931 29.906 29.909 29.916 29.934 29.964 29.931 29.949 29.946 29.894 29.889 29.884 29.861 29.876 29.884 29.909 29.899 29.874 29.856 29.861 29.821 29.811 29.751 29.606 29.531 29.704 29.821 29.871 29.946 29.924 29.886 29.849 29.861 29.834 29.834 29.824 29.846 29.871 29.861 29.851 29.859 29.866 29.869 29.869 29.921 29.901 29.881 29.914 29.941 29.959 29.966 29.971 29.951 29.949 29.959 29.954 29.911 29.916 29.949 29.989 29.999 30.049 30.059 30.041 30.039 30.044 30.069 30.056 30.079 30.056 30.031 30.079 30.036 29.996 30.004 29.986 30.016 29.991 29.971 30.006 29.974 29.971 29.966 29.981 29.991 29.989 29.981 30.016 30.041 30.016 30.026 30.036 29.984 30.009 29.989 29.961 29.986 29.959 29.959 29.939 29.954 29.981 29.996 29.969 30.011 30.006 30.009 30.069 30.081 29.909 29.871 30.041 30.001 29.966 29.929 29.971 30.036 30.049 30.024 30.016 30.029 30.046 30.046 29.994 30.009 30.051 30.079 30.111 30.154 30.174 30.164 30.141 30.069 29.996 30.129 30.186 30.161 30.149 30.206 30.211 30.256 30.336 30.449 30.591 30.636 30.646 30.676 30.716 30.709 30.706 30.669 30.661 30.621 30.659 30.666 30.739 30.794 30.859 30.921 30.956 30.964 31.199 31.351 31.491 31.584 31.629 31.724 31.839 31.859 31.889 32.011 32.084 32.221 32.381 -9999 -9999 -9999 -9999 -9999 -9999 -9999 -9999 -9999 -9999 -9999 -9999 -9999 -9999 -9999 -9999 -9999 -9999 -9999 -9999 -9999 -9999 -9999 -9999 -9999 -9999 -9999 -9999 -9999 -9999 -9999 -9999 -9999 -9999 -9999 -9999 -9999 -9999 -9999 -9999 -9999 -9999 -9999 -9999 -9999 -9999 -9999 -9999 -9999 -9999 -9999 -9999 -9999 -9999 -9999 -9999 -9999 -9999 -9999 -9999 -9999 -9999 -9999 -9999 -9999 -9999 -9999 -9999 -9999 -9999 -9999 -9999 -9999 -9999 -9999 -9999 -9999 -9999 -9999 -9999 -9999 -9999 -9999 -9999 -9999 -9999 -9999 -9999 -9999 -9999 -9999 -9999 -9999 -9999 -9999 -9999 -9999 -9999 -9999 -9999 -9999 -9999 -9999 -9999 -9999 -9999 -9999 -9999 -9999 -9999 -9999 -9999 -9999 -9999 -9999 -9999 -9999 -9999 -9999 -9999 -9999 -9999 -9999 -9999 -9999 -9999 -9999 -9999
29.159 29.181 29.121 29.111 29.139 29.154 29.149 29.109 29.069 29.039 28.999 29.001 29.024 28.896 28.774 28.669 28.659 28.626 28.594 28.544 28.676 28.729 28.796 28.681 28.664 28.769 28.814 28.871 28.829 28.936 29.024 29.019 29.066 28.979 28.824 28.696 28.636 28.644 28.676 28.716 28.726 28.726 28.704 28.729 28.721 28.696 28.699 28.674 28.654 28.651 28.686 28.666 28.674 28.661 28.634 28.676 28.689 28.681 28.711 28.701 28.734 28.741 28.769 28.794 28.821 28.824 28.841 28.839 28.826 28.831 28.869 28.894 28.886 28.886 28.871 28.846 28.839 28.856 28.861 28.754 28.744 28.676 28.611 28.601 28.564 28.554 28.529 28.501 28.481 28.489 28.461 28.489 28.471 28.489 28.476 28.491 28.511 28.536 28.586 28.656 28.714 28.724 28.746 28.781 28.881 28.989 29.054 29.096 29.139 29.199 29.316 29.424 29.551 29.666 29.809 29.886 29.929 29.956 29.914 29.821 29.739 29.626 29.549 29.526 29.526 29.616 29.654 29.784 29.874 29.871 29.824 29.886 29.896 29.944 29.951 29.931 29.904 29.896 29.906 29.961 29.926 29.919 29.916 29.899 29.886 29.876 29.876 29.851 29.889 29.916 29.891 29.856 29.864 29.761 29.664 29.609 29.554 29.649 29.656 29.896 30.001 29.981 29.854 29.891 29.909 29.876 29.861 29.851 29.824 29.851 29.866 29.844 29.841 29.824 29.826 29.839 29.886 29.884 29.876 29.866 29.881 29.899 29.919 29.926 29.914 29.936 29.966 29.959 29.931 29.954 29.949 29.891 29.934 29.919 29.984 30.014 30.016 30.044 30.051 30.054 30.069 30.074 30.056 30.041 30.069 30.059 30.066 30.024 30.001 30.004 30.039 30.021 30.016 30.009 30.029 29.986 29.956 29.969 29.959 29.979 30.016 30.034 30.016 30.004 29.996 30.009 30.024 30.011 30.004 29.974 29.949 29.951 29.951 29.954 29.969 29.979 30.011 30.009 29.996 29.971 29.984 30.041 30.069 30.099 29.976 29.806 29.844 29.971 30.019 30.024 30.041 30.039 30.049 30.011 29.999 30.041 30.046 30.049 30.034 30.049 30.061 30.074 30.081 30.144 30.164 30.146 30.156 30.124 30.111 30.174 30.206 30.176 30.174 30.244 30.256 30.319 30.424 30.521 30.616 30.664 30.674 30.676 30.736 30.769 30.721 30.691 30.666 30.666 30.696 30.634 30.671 30.789 30.849 30.914 30.939 30.941 31.106 31.321 31.479 31.539 31.621 31.714 31.696 31.791 31.911 32.084 32.136 32.171 32.249 32.365 -9999 -9999 -9999 -9999 -9999 -9999 -9999 -9999 -9999 -9999 -9999 -9999 -9999 -9999 -9999 -9999 -9999 -9999 -9999 -9999 -9999 -9999 -9999 -9999 -9999 -9999 -9999 -9999 -9999 -9999 -9999 -9999 -9999 -9999 -9999 -9999 -9999 -9999 -9999 -9999 -9999 -9999 -9999 -9999 -9999 -9999 -9999 -9999 -9999 -9999 -9999 -9999 -9999 -9999 -9999 -9999 -9999 -9999 -9999 -9999 -9999 -9999 -9999 -9999 -9999 -9999 -9999 -9999 -9999 -9999 -9999 -9999 -9999 -9999 -9999 -9999 -9999 -9999 -9999 -9999 -9999 -9999 -9999 -9999 -9999 -9999 -9999 -9999 -9999 -9999 -9999 -9999 -9999 -9999 -9999 -9999 -9999 -9999 -9999 -9999 -9999 -9999 -9999 -9999 -9999 -9999 -9999 -9999 -9999 -9999 -9999 -9999 -9999 -9999 -9999 -9999 -9999 -9999 -9999 -9999 -9999 -9999 -9999 -9999 -9999 -9999 -9999
29.164 29.216 29.149 29.101 29.156 29.164 29.121 29.086 29.051 28.991 28.966 28.986 28.939 28.821 28.759 28.619 28.591 28.601 28.634 28.654 28.611 28.541 28.529 28.461 28.604 28.671 28.711 28.774 28.851 28.926 28.921 28.956 28.989 28.994 28.906 28.749 28.649 28.669 28.709 28.701 28.679 28.684 28.671 28.671 28.711 28.701 28.724 28.726 28.709 28.689 28.691 28.681 28.681 28.699 28.686 28.736 28.759 28.754 28.746 28.701 28.691 28.721 28.769 28.754 28.804 28.811 28.854 28.884 28.869 28.851 28.874 28.866 28.869 28.861 28.899 28.849 28.854 28.864 28.829 28.749 28.719 28.629 28.496 28.384 28.436 28.476 28.534 28.551 28.516 28.529 28.499 28.491 28.461 28.451 28.449 28.511 28.541 28.554 28.589 28.671 28.694 28.686 28.706 28.736 28.816 28.934 29.016 29.056 29.064 29.114 29.204 29.381 29.509 29.649 29.776 29.861 29.894 29.934 29.919 29.841 29.811 29.769 29.736 29.731 29.736 29.776 29.799 29.921 29.976 29.919 29.894 29.909 29.924 29.914 29.934 29.919 29.899 29.894 29.889 29.914 29.894 29.904 29.919 29.914 29.931 29.909 29.889 29.886 29.884 29.884 29.871 29.849 29.784 29.611 29.491 29.559 29.789 29.866 29.936 29.981 29.954 29.909 29.871 29.821 29.911 29.901 29.836 29.829 29.856 29.884 29.854 29.819 29.824 29.856 29.839 29.816 29.839 29.834 29.856 29.844 29.864 29.914 29.901 29.886 29.959 29.976 29.961 29.959 29.949 29.946 29.971 29.939 29.926 29.929 29.984 30.036 30.074 30.059 30.044 30.031 30.046 30.091 30.059 30.031 30.039 30.036 30.059 30.001 30.044 30.034 30.036 30.021 30.046 30.034 30.044 30.021 30.019 30.031 29.986 29.989 29.994 29.994 30.016 29.999 30.011 30.006 30.021 30.011 29.986 29.974 29.954 29.971 29.974 29.974 29.971 29.971 30.021 30.039 29.991 30.009 30.029 30.031 30.011 30.029 30.024 29.821 29.841 30.026 30.064 30.044 30.021 30.019 30.014 29.996 30.046 30.066 30.071 30.051 30.029 30.049 30.091 30.074 30.089 30.111 30.131 30.144 30.184 30.189 30.106 30.144 30.186 30.264 30.259 30.299 30.334 30.439 30.551 30.606 30.671 30.696 30.719 30.689 30.731 30.756 30.759 30.704 30.654 30.676 30.729 30.709 30.661 30.721 30.794 30.831 30.869 30.879 31.054 31.229 31.344 31.346 31.431 31.459 31.566 31.711 31.886 32.041 32.064 32.114 32.216 32.336 -9999 -9999 -9999 -9999 -9999 -9999 -9999 -9999 -9999 -9999 -9999 -9999 -9999 -9999 -9999 -9999 -9999 -9999 -9999 -9999 -9999 -9999 -9999 -9999 -9999 -9999 -9999 -9999 -9999 -9999 -9999 -9999 -9999 -9999 -9999 -9999 -9999 -9999 -9999 -9999 -9999 -9999 -9999 -9999 -9999 -9999 -9999 -9999 -9999 -9999 -9999 -9999 -9999 -9999 -9999 -9999 -9999 -9999 -9999 -9999 -9999 -9999 -9999 -9999 -9999 -9999 -9999 -9999 -9999 -9999 -9999 -9999 -9999 -9999 -9999 -9999 -9999 -9999 -9999 -9999 -9999 -9999 -9999 -9999 -9999 -9999 -9999 -9999 -9999 -9999 -9999 -9999 -9999 -9999 -9999 -9999 -9999 -9999 -9999 -9999 -9999 -9999 -9999 -9999 -9999 -9999 -9999 -9999 -9999 -9999 -9999 -9999 -9999 -9999 -9999 -9999 -9999 -9999 -9999 -9999 -9999 -9999 -9999 -9999 -9999 -9999 -9999
29.109 29.146 29.086 29.119 29.144 29.196 29.056 28.941 28.936 28.906 28.946 28.931 28.889 28.879 28.789 28.656 28.524 28.534 28.571 28.589 28.506 28.434 28.484 28.621 28.684 28.686 28.659 28.709 28.766 28.839 28.901 28.979 29.004 29.014 28.971 28.759 28.636 28.624 28.661 28.684 28.634 28.634 28.624 28.611 28.664 28.669 28.701 28.706 28.731 28.734 28.701 28.681 28.671 28.736 28.771 28.781 28.796 28.806 28.779 28.736 28.711 28.731 28.756 28.771 28.784 28.831 28.871 28.884 28.874 28.856 28.869 28.906 28.884 28.874 28.896 28.866 28.829 28.831 28.764 28.744 28.714 28.639 28.464 28.424 28.389 28.466 28.541 28.561 28.541 28.526 28.509 28.489 28.479 28.476 28.479 28.496 28.524 28.574 28.626 28.701 28.726 28.694 28.716 28.724 28.801 28.909 28.981 29.009 28.994 29.044 29.124 29.274 29.439 29.569 29.681 29.761 29.824 29.846 29.879 29.879 29.846 29.861 29.846 29.844 29.814 29.861 29.961 30.009 30.006 29.976 29.931 29.931 29.921 29.919 29.934 29.911 29.856 29.884 29.884 29.906 29.926 29.929 29.916 29.919 29.924 29.881 29.884 29.864 29.849 29.814 29.721 29.761 29.684 29.539 29.724 29.916 29.956 29.954 29.919 29.899 29.884 29.874 29.901 29.839 29.836 29.891 29.841 29.829 29.824 29.829 29.834 29.816 29.834 29.844 29.826 29.846 29.841 29.854 29.854 29.874 29.879 29.886 29.871 29.944 29.986 29.961 29.944 29.981 29.959 29.924 29.921 29.949 29.939 29.961 29.986 30.019 29.994 30.004 30.069 30.026 30.066 30.059 30.061 30.044 30.014 30.001 30.029 30.039 30.056 30.054 30.036 30.046 30.026 30.034 30.009 30.054 30.074 30.054 30.011 29.979 30.001 29.954 29.994 30.019 30.014 29.999 30.029 30.029 30.021 29.986 29.941 29.969 29.961 29.956 29.991 30.014 30.011 30.016 30.019 30.004 30.001 29.976 30.004 30.056 30.069 29.944 29.861 29.996 30.044 30.019 30.021 30.026 29.996 29.994 30.034 30.081 30.051 30.041 30.069 30.056 30.069 30.059 30.091 30.096 30.119 30.154 30.156 30.144 30.174 30.251 30.289 30.381 30.391 30.426 30.484 30.601 30.664 30.666 30.704 30.711 30.741 30.736 30.744 30.731 30.729 30.689 30.676 30.689 30.729 30.724 30.681 30.674 30.706 30.751 30.796 30.824 30.921 31.084 31.111 31.146 31.249 31.409 31.481 31.656 31.809 31.894 31.974 32.086 32.241 32.374 32.544 -9999 -9999 -9999 -9999 -9999 -9999 -9999 -9999 -9999 -9999 -9999 -9999 -9999 -9999 -9999 -9999 -9999 -9999 -9999 -9999 -9999 -9999 -9999 -9999 -9999 -9999 -9999 -9999 -9999 -9999 -9999 -9999 -9999 -9999 -9999 -9999 -9999 -9999 -9999 -9999 -9999 -9999 -9999 -9999 -9999 -9999 -9999 -9999 -9999 -9999 -9999 -9999 -9999 -9999 -9999 -9999 -9999 -9999 -9999 -9999 -9999 -9999 -9999 -9999 -9999 -9999 -9999 -9999 -9999 -9999 -9999 -9999 -9999 -9999 -9999 -9999 -9999 -9999 -9999 -9999 -9999 -9999 -9999 -9999 -9999 -9999 -9999 -9999 -9999 -9999 -9999 -9999 -9999 -9999 -9999 -9999 -9999 -9999 -9999 -9999 -9999 -9999 -9999 -9999 -9999 -9999 -9999 -9999 -9999 -9999 -9999 -9999 -9999 -9999 -9999 -9999 -9999 -9999 -9999 -9999 -9999 -9999 -9999 -9999 -9999 -9999
29.179 29.186 29.114 29.111 29.056 29.076 29.029 29.016 28.959 28.956 29.006 28.951 28.909 28.936 28.891 28.749 28.551 28.449 28.499 28.481 28.431 28.434 28.539 28.626 28.676 28.631 28.626 28.631 28.724 28.829 28.899 28.964 28.979 28.996 28.946 28.799 28.614 28.579 28.581 28.621 28.654 28.656 28.589 28.591 28.616 28.639 28.681 28.726 28.719 28.744 28.741 28.696 28.711 28.724 28.794 28.804 28.816 28.824 28.816 28.796 28.774 28.776 28.824 28.841 28.819 28.819 28.831 28.834 28.846 28.849 28.864 28.906 28.924 28.911 28.881 28.861 28.809 28.799 28.764 28.776 28.771 28.706 28.574 28.489 28.486 28.564 28.611 28.581 28.591 28.536 28.519 28.481 28.471 28.476 28.519 28.529 28.569 28.619 28.671 28.724 28.761 28.759 28.759 28.764 28.796 28.876 28.941 28.964 28.994 29.021 29.094 29.194 29.314 29.421 29.529 29.619 29.709 29.736 29.806 29.849 29.874 29.909 29.911 29.904 29.821 29.941 30.016 30.004 29.976 29.949 29.909 29.944 29.954 29.966 29.909 29.891 29.854 29.866 29.869 29.861 29.904 29.916 29.924 29.921 29.879 29.884 29.789 29.799 29.676 29.601 29.514 29.684 29.749 29.784 29.874 29.899 29.896 29.921 29.884 29.876 29.886 29.889 29.919 29.879 29.764 29.824 29.874 29.834 29.816 29.854 29.846 29.839 29.821 29.861 29.864 29.844 29.844 29.856 29.881 29.921 29.919 29.914 29.891 29.919 29.946 29.914 29.976 29.976 29.961 29.936 29.946 29.961 29.941 29.959 29.991 29.996 29.991 30.039 30.064 30.069 30.066 30.056 30.089 30.066 30.031 30.026 30.034 30.046 30.061 30.064 30.024 30.021 30.029 30.024 30.031 30.044 30.059 30.039 29.984 30.001 29.971 29.981 29.991 30.006 29.986 30.006 30.036 30.021 30.016 29.994 29.999 29.989 29.976 29.961 29.964 30.016 30.016 30.004 29.964 29.971 29.979 29.994 30.039 30.046 30.114 30.014 29.836 29.949 30.041 30.006 30.016 30.029 30.004 30.019 30.064 30.076 30.059 30.061 30.061 30.046 30.086 30.099 30.091 30.106 30.129 30.159 30.171 30.239 30.339 30.421 30.489 30.521 30.489 30.519 30.596 30.604 30.674 30.689 30.724 30.734 30.754 30.754 30.709 30.706 30.709 30.661 30.646 30.669 30.719 30.709 30.669 30.646 30.611 30.679 30.774 30.801 30.881 30.989 31.159 31.184 31.279 31.399 31.461 31.616 31.714 31.829 31.946 32.119 32.294 32.391 32.509 32.619 -9999 -9999 -9999 -9999 -9999 -9999 -9999 -9999 -9999 -9999 -9999 -9999 -9999 -9999 -9999 -9999 -9999 -9999 -9999 -9999 -9999 -9999 -9999 -9999 -9999 -9999 -9999 -9999 -9999 -9999 -9999 -9999 -9999 -9999 -9999 -9999 -9999 -9999 -9999 -9999 -9999 -9999 -9999 -9999 -9999 -9999 -9999 -9999 -9999 -9999 -9999 -9999 -9999 -9999 -9999 -9999 -9999 -9999 -9999 -9999 -9999 -9999 -9999 -9999 -9999 -9999 -9999 -9999 -9999 -9999 -9999 -9999 -9999 -9999 -9999 -9999 -9999 -9999 -9999 -9999 -9999 -9999 -9999 -9999 -9999 -9999 -9999 -9999 -9999 -9999 -9999 -9999 -9999 -9999 -9999 -9999 -9999 -9999 -9999 -9999 -9999 -9999 -9999 -9999 -9999 -9999 -9999 -9999 -9999 -9999 -9999 -9999 -9999 -9999 -9999 -9999 -9999 -9999 -9999 -9999 -9999 -9999 -9999 -9999 -9999
29.096 29.121 29.124 29.114 29.129 29.056 29.029 29.006 28.996 29.026 29.044 28.921 28.834 28.794 28.679 28.589 28.391 28.379 28.479 28.444 28.441 28.499 28.541 28.571 28.596 28.611 28.609 28.651 28.719 28.834 28.894 28.939 28.971 28.954 28.889 28.769 28.589 28.481 28.524 28.561 28.649 28.656 28.636 28.606 28.619 28.636 28.666 28.721 28.704 28.739 28.756 28.709 28.734 28.751 28.806 28.809 28.794 28.814 28.829 28.819 28.819 28.839 28.866 28.874 28.849 28.821 28.824 28.829 28.871 28.859 28.856 28.881 28.921 28.879 28.856 28.821 28.816 28.809 28.844 28.874 28.826 28.794 28.701 28.654 28.649 28.659 28.686 28.636 28.599 28.564 28.549 28.506 28.496 28.499 28.516 28.559 28.586 28.621 28.661 28.739 28.786 28.804 28.819 28.836 28.841 28.884 28.964 29.014 29.009 29.041 29.036 29.096 29.184 29.311 29.391 29.451 29.496 29.579 29.664 29.761 29.799 29.906 29.971 29.921 29.886 29.834 29.971 29.929 29.924 29.921 29.926 29.976 29.969 29.964 29.876 29.859 29.859 29.864 29.866 29.881 29.901 29.941 29.981 29.879 29.761 29.661 29.439 29.436 29.464 29.529 29.691 29.741 29.774 29.751 29.786 29.829 29.839 29.856 29.839 29.864 29.879 29.891 29.871 29.889 29.784 29.791 29.909 29.879 29.839 29.834 29.846 29.834 29.854 29.851 29.854 29.856 29.886 29.919 29.919 29.926 29.944 29.916 29.929 29.934 29.941 29.924 29.956 29.966 29.969 29.974 29.964 29.971 29.971 29.966 30.006 30.024 30.031 30.064 30.056 30.066 30.111 30.099 30.036 30.024 30.044 30.031 29.999 30.019 30.006 30.046 30.016 30.059 30.061 30.051 30.046 30.031 30.034 30.021 29.969 29.994 29.966 29.964 29.976 30.034 30.049 30.011 30.039 30.011 30.026 30.034 30.016 30.016 30.004 30.016 30.004 29.931 29.969 29.989 29.986 30.006 29.979 30.006 30.011 30.041 30.111 30.061 29.899 29.901 30.021 30.056 30.034 30.034 30.039 30.061 30.061 30.061 30.059 30.061 30.064 30.064 30.099 30.081 30.101 30.134 30.139 30.154 30.216 30.321 30.416 30.529 30.551 30.531 30.549 30.581 30.626 30.636 30.684 30.706 30.726 30.731 30.741 30.749 30.739 30.696 30.691 30.651 30.599 30.651 30.664 30.651 30.691 30.659 30.599 30.666 30.716 30.794 30.866 30.936 31.069 31.164 31.274 31.349 31.454 31.569 31.674 31.764 31.884 32.084 32.281 32.411 32.494 32.566 -9999 -9999 -9999 -9999 -9999 -9999 -9999 -9999 -9999 -9999 -9999 -9999 -9999 -9999 -9999 -9999 -9999 -9999 -9999 -9999 -9999 -9999 -9999 -9999 -9999 -9999 -9999 -9999 -9999 -9999 -9999 -9999 -9999 -9999 -9999 -9999 -9999 -9999 -9999 -9999 -9999 -9999 -9999 -9999 -9999 -9999 -9999 -9999 -9999 -9999 -9999 -9999 -9999 -9999 -9999 -9999 -9999 -9999 -9999 -9999 -9999 -9999 -9999 -9999 -9999 -9999 -9999 -9999 -9999 -9999 -9999 -9999 -9999 -9999 -9999 -9999 -9999 -9999 -9999 -9999 -9999 -9999 -9999 -9999 -9999 -9999 -9999 -9999 -9999 -9999 -9999 -9999 -9999 -9999 -9999 -9999 -9999 -9999 -9999 -9999 -9999 -9999 -9999 -9999 -9999 -9999 -9999 -9999 -9999 -9999 -9999 -9999 -9999 -9999 -9999 -9999 -9999 -9999 -9999 -9999 -9999 -9999 -9999 -9999 -9999
29.039 29.056 29.129 29.149 29.121 29.081 29.124 29.059 29.034 28.981 28.841 28.711 28.626 28.621 28.431 28.384 28.361 28.419 28.466 28.466 28.431 28.461 28.506 28.549 28.596 28.641 28.671 28.674 28.719 28.811 28.849 28.896 28.924 28.914 28.854 28.816 28.654 28.544 28.514 28.549 28.624 28.686 28.641 28.624 28.651 28.644 28.641 28.651 28.681 28.724 28.731 28.716 28.721 28.741 28.781 28.781 28.754 28.794 28.829 28.866 28.856 28.866 28.861 28.869 28.844 28.811 28.774 28.856 28.909 28.924 28.924 28.894 28.886 28.889 28.859 28.856 28.841 28.831 28.876 28.894 28.866 28.804 28.769 28.751 28.751 28.724 28.684 28.656 28.616 28.606 28.576 28.576 28.544 28.531 28.561 28.591 28.596 28.649 28.721 28.784 28.829 28.874 28.896 28.929 28.959 28.981 28.959 29.004 28.999 28.979 29.016 29.031 29.126 29.221 29.291 29.304 29.301 29.421 29.516 29.656 29.749 29.816 29.914 29.909 29.859 29.806 29.876 29.909 29.889 29.889 29.944 29.944 29.944 29.921 29.886 29.846 29.871 29.854 29.881 29.849 29.869 29.839 29.859 29.691 29.609 29.449 29.381 29.384 29.471 29.664 29.809 29.719 29.671 29.679 29.729 29.794 29.839 29.819 29.834 29.844 29.866 29.869 29.844 29.849 29.809 29.769 29.866 29.834 29.861 29.856 29.884 29.871 29.859 29.884 29.894 29.924 29.921 29.919 29.934 29.941 29.954 29.934 29.939 29.931 29.954 29.979 29.984 29.991 29.971 29.961 29.971 29.981 29.989 29.989 30.001 30.029 30.039 30.084 30.061 30.081 30.104 30.069 30.036 30.044 30.051 30.016 30.021 29.984 30.004 30.051 30.036 30.014 29.999 30.054 30.046 30.064 30.039 30.009 30.016 29.989 29.994 29.951 30.004 30.031 30.036 30.044 30.026 30.044 30.066 30.059 30.029 30.016 30.009 30.009 29.986 29.936 30.001 30.001 29.979 29.994 30.001 30.019 30.036 30.056 30.094 30.091 29.939 29.846 30.016 30.111 30.084 30.046 30.049 30.069 30.114 30.104 30.071 30.046 30.039 30.061 30.079 30.086 30.101 30.111 30.126 30.169 30.269 30.346 30.429 30.556 30.584 30.579 30.554 30.591 30.654 30.661 30.691 30.684 30.699 30.711 30.729 30.766 30.706 30.646 30.624 30.596 30.564 30.601 30.611 30.644 30.656 30.671 30.621 30.679 30.756 30.781 30.804 30.836 30.981 31.146 31.244 31.319 31.406 31.496 31.576 31.716 31.884 32.041 32.221 32.374 32.449 32.556 32.664 -9999 -9999 -9999 -9999 -9999 -9999 -9999 -9999 -9999 -9999 -9999 -9999 -9999 -9999 -9999 -9999 -9999 -9999 -9999 -9999 -9999 -9999 -9999 -9999 -9999 -9999 -9999 -9999 -9999 -9999 -9999 -9999 -9999 -9999 -9999 -9999 -9999 -9999 -9999 -9999 -9999 -9999 -9999 -9999 -9999 -9999 -9999 -9999 -9999 -9999 -9999 -9999 -9999 -9999 -9999 -9999 -9999 -9999 -9999 -9999 -9999 -9999 -9999 -9999 -9999 -9999 -9999 -9999 -9999 -9999 -9999 -9999 -9999 -9999 -9999 -9999 -9999 -9999 -9999 -9999 -9999 -9999 -9999 -9999 -9999 -9999 -9999 -9999 -9999 -9999 -9999 -9999 -9999 -9999 -9999 -9999 -9999 -9999 -9999 -9999 -9999 -9999 -9999 -9999 -9999 -9999 -9999 -9999 -9999 -9999 -9999 -9999 -9999 -9999 -9999 -9999 -9999 -9999 -9999 -9999 -9999 -9999 -9999 -9999
29.124 28.991 29.106 29.179 29.179 29.204 29.091 28.966 28.886 28.696 28.569 28.511 28.529 28.534 28.436 28.371 28.371 28.444 28.479 28.474 28.416 28.439 28.524 28.619 28.691 28.696 28.686 28.699 28.714 28.784 28.831 28.844 28.846 28.884 28.881 28.849 28.749 28.619 28.561 28.569 28.606 28.641 28.631 28.641 28.669 28.631 28.609 28.626 28.671 28.696 28.729 28.731 28.719 28.744 28.804 28.819 28.814 28.809 28.819 28.851 28.874 28.849 28.839 28.856 28.859 28.834 28.836 28.886 28.926 28.954 28.936 28.909 28.896 28.896 28.909 28.921 28.911 28.904 28.929 28.899 28.846 28.834 28.831 28.819 28.801 28.771 28.726 28.664 28.616 28.609 28.584 28.606 28.606 28.586 28.606 28.629 28.666 28.711 28.724 28.806 28.874 28.946 28.986 29.001 29.021 28.986 28.981 28.986 28.986 28.979 28.969 29.026 29.059 29.111 29.144 29.159 29.176 29.276 29.396 29.566 29.681 29.746 29.799 29.804 29.801 29.854 29.854 29.911 29.906 29.911 29.914 29.911 29.926 29.951 29.941 29.911 29.869 29.804 29.789 29.699 29.674 29.581 29.546 29.574 29.626 29.641 29.586 29.526 29.571 29.771 29.834 29.721 29.669 29.641 29.694 29.751 29.794 29.796 29.816 29.826 29.854 29.841 29.834 29.846 29.846 29.771 29.789 29.854 29.881 29.889 29.856 29.866 29.884 29.921 29.924 29.921 29.914 29.906 29.934 29.944 29.949 29.939 29.954 29.964 29.954 29.966 29.959 29.986 29.976 29.971 30.014 30.004 30.006 30.021 30.036 30.066 30.056 30.079 30.099 30.084 30.091 30.084 30.016 30.034 30.044 30.029 30.049 30.011 30.006 30.026 30.011 30.029 30.019 30.054 30.041 30.039 30.056 30.041 30.034 30.036 30.004 29.991 30.011 30.034 30.039 30.051 30.039 30.046 30.079 30.071 30.014 29.989 29.964 29.996 30.049 30.004 30.024 30.009 30.006 30.009 30.026 30.024 30.024 30.044 30.064 30.124 29.999 29.879 29.989 30.094 30.114 30.071 30.051 30.079 30.066 30.069 30.076 30.061 30.034 30.049 30.076 30.076 30.126 30.141 30.179 30.264 30.351 30.436 30.526 30.566 30.584 30.591 30.584 30.626 30.736 30.711 30.739 30.719 30.746 30.734 30.736 30.739 30.681 30.644 30.644 30.581 30.601 30.606 30.634 30.659 30.686 30.654 30.674 30.751 30.789 30.824 30.764 30.814 30.941 31.091 31.164 31.239 31.311 31.369 31.516 31.669 31.821 31.994 32.176 32.284 32.416 32.516 32.664 32.739 -9999 -9999 -9999 -9999 -9999 -9999 -9999 -9999 -9999 -9999 -9999 -9999 -9999 -9999 -9999 -9999 -9999 -9999 -9999 -9999 -9999 -9999 -9999 -9999 -9999 -9999 -9999 -9999 -9999 -9999 -9999 -9999 -9999 -9999 -9999 -9999 -9999 -9999 -9999 -9999 -9999 -9999 -9999 -9999 -9999 -9999 -9999 -9999 -9999 -9999 -9999 -9999 -9999 -9999 -9999 -9999 -9999 -9999 -9999 -9999 -9999 -9999 -9999 -9999 -9999 -9999 -9999 -9999 -9999 -9999 -9999 -9999 -9999 -9999 -9999 -9999 -9999 -9999 -9999 -9999 -9999 -9999 -9999 -9999 -9999 -9999 -9999 -9999 -9999 -9999 -9999 -9999 -9999 -9999 -9999 -9999 -9999 -9999 -9999 -9999 -9999 -9999 -9999 -9999 -9999 -9999 -9999 -9999 -9999 -9999 -9999 -9999 -9999 -9999 -9999 -9999 -9999 -9999 -9999 -9999 -9999 -9999 -9999
29.139 29.036 28.964 29.196 29.126 29.124 28.839 28.559 28.601 28.591 28.606 28.651 28.584 28.481 28.426 28.429 28.441 28.511 28.534 28.486 28.454 28.471 28.531 28.644 28.726 28.726 28.714 28.676 28.744 28.756 28.796 28.826 28.806 28.856 28.906 28.896 28.804 28.659 28.606 28.586 28.609 28.601 28.616 28.676 28.671 28.626 28.609 28.624 28.646 28.666 28.681 28.704 28.731 28.786 28.839 28.851 28.884 28.866 28.866 28.876 28.861 28.866 28.869 28.906 28.896 28.881 28.861 28.899 28.944 28.941 28.916 28.939 28.954 28.979 28.979 28.941 28.931 28.929 28.931 28.926 28.874 28.871 28.894 28.869 28.859 28.826 28.754 28.664 28.634 28.619 28.599 28.634 28.629 28.624 28.651 28.659 28.696 28.759 28.789 28.879 28.926 28.966 28.986 28.986 28.991 29.006 28.989 28.971 28.974 28.966 28.964 29.001 29.011 29.041 29.039 29.046 29.099 29.149 29.324 29.439 29.564 29.629 29.659 29.756 29.834 29.881 29.816 29.861 29.889 29.936 29.914 29.924 29.946 29.961 29.974 29.906 29.744 29.614 29.601 29.474 29.564 29.661 29.806 29.956 29.991 29.941 29.839 29.691 29.691 29.796 29.801 29.734 29.659 29.664 29.674 29.691 29.711 29.751 29.809 29.824 29.826 29.794 29.801 29.814 29.821 29.821 29.769 29.859 29.884 29.871 29.874 29.901 29.911 29.914 29.924 29.931 29.939 29.949 29.956 29.954 29.964 29.971 29.929 29.949 29.954 29.959 29.999 30.004 29.996 29.996 29.991 29.989 30.011 30.006 30.014 30.056 30.066 30.104 30.131 30.126 30.096 30.051 30.009 30.051 30.056 30.046 30.044 30.041 30.029 30.056 30.034 30.031 30.054 30.061 30.046 30.044 30.051 30.034 30.024 30.021 30.021 30.024 30.021 30.034 30.049 30.024 30.036 30.006 29.996 30.049 30.029 30.069 30.036 30.019 30.009 30.014 30.019 30.016 30.009 30.014 30.024 30.066 30.056 30.064 30.069 30.124 30.071 29.901 29.971 30.074 30.116 30.094 30.074 30.081 30.056 30.064 30.029 30.041 30.041 30.044 30.079 30.089 30.116 30.171 30.284 30.384 30.449 30.516 30.544 30.529 30.539 30.569 30.601 30.661 30.719 30.731 30.751 30.761 30.774 30.754 30.716 30.684 30.646 30.639 30.636 30.619 30.629 30.634 30.636 30.641 30.701 30.701 30.689 30.739 30.804 30.851 30.786 30.771 30.899 31.009 31.064 31.109 31.186 31.301 31.454 31.586 31.716 31.916 32.116 32.264 32.376 32.539 32.609 32.724 32.829 -9999 -9999 -9999 -9999 -9999 -9999 -9999 -9999 -9999 -9999 -9999 -9999 -9999 -9999 -9999 -9999 -9999 -9999 -9999 -9999 -9999 -9999 -9999 -9999 -9999 -9999 -9999 -9999 -9999 -9999 -9999 -9999 -9999 -9999 -9999 -9999 -9999 -9999 -9999 -9999 -9999 -9999 -9999 -9999 -9999 -9999 -9999 -9999 -9999 -9999 -9999 -9999 -9999 -9999 -9999 -9999 -9999 -9999 -9999 -9999 -9999 -9999 -9999 -9999 -9999 -9999 -9999 -9999 -9999 -9999 -9999 -9999 -9999 -9999 -9999 -9999 -9999 -9999 -9999 -9999 -9999 -9999 -9999 -9999 -9999 -9999 -9999 -9999 -9999 -9999 -9999 -9999 -9999 -9999 -9999 -9999 -9999 -9999 -9999 -9999 -9999 -9999 -9999 -9999 -9999 -9999 -9999 -9999 -9999 -9999 -9999 -9999 -9999 -9999 -9999 -9999 -9999 -9999 -9999 -9999 -9999 -9999
29.244 29.184 28.944 29.011 28.774 28.644 28.546 28.689 28.831 28.804 28.766 28.681 28.571 28.449 28.386 28.439 28.531 28.604 28.594 28.571 28.534 28.526 28.561 28.639 28.711 28.719 28.701 28.681 28.686 28.746 28.761 28.796 28.799 28.814 28.854 28.861 28.781 28.666 28.639 28.649 28.604 28.629 28.614 28.634 28.641 28.629 28.589 28.581 28.619 28.639 28.666 28.734 28.794 28.789 28.781 28.806 28.856 28.849 28.861 28.904 28.904 28.859 28.871 28.904 28.894 28.881 28.864 28.906 28.929 28.961 28.991 29.024 29.014 29.021 29.004 28.991 28.966 28.969 28.984 28.956 28.919 28.896 28.891 28.896 28.839 28.764 28.696 28.641 28.609 28.599 28.604 28.666 28.694 28.691 28.704 28.736 28.771 28.834 28.931 28.949 28.971 28.944 28.981 29.009 29.021 29.021 29.009 29.011 29.006 28.964 28.976 29.004 29.026 29.051 29.006 29.034 29.039 29.134 29.294 29.416 29.454 29.514 29.651 29.744 29.804 29.839 29.749 29.656 29.701 29.759 29.904 29.899 29.871 29.766 29.736 29.684 29.579 29.449 29.546 29.771 29.931 30.026 30.069 30.051 29.999 30.009 29.919 29.806 29.754 29.799 29.799 29.774 29.726 29.706 29.689 29.676 29.711 29.751 29.781 29.789 29.791 29.774 29.776 29.811 29.836 29.824 29.831 29.901 29.929 29.876 29.884 29.889 29.899 29.936 29.954 29.966 29.941 29.971 29.984 29.966 29.969 29.954 29.944 29.939 29.991 29.981 29.969 29.944 30.014 29.999 30.004 30.014 30.021 30.011 30.036 30.081 30.124 30.121 30.094 30.091 30.079 30.036 30.041 30.056 30.019 30.051 30.034 30.041 30.051 30.041 30.036 30.064 30.086 30.121 30.089 30.081 30.046 30.049 30.054 30.049 30.059 30.056 30.034 30.029 30.036 30.026 30.019 30.004 30.024 30.044 30.051 30.071 30.021 30.004 30.001 30.031 30.054 30.026 30.029 30.036 30.024 30.046 30.046 30.039 30.074 30.116 30.059 29.971 29.954 30.049 30.139 30.124 30.086 30.081 30.039 30.044 30.016 30.019 30.046 30.069 30.094 30.076 30.066 30.199 30.299 30.401 30.464 30.514 30.489 30.469 30.489 30.526 30.591 30.621 30.676 30.731 30.746 30.784 30.766 30.739 30.694 30.644 30.606 30.626 30.616 30.604 30.646 30.661 30.614 30.601 30.644 30.659 30.674 30.694 30.761 30.826 30.826 30.821 30.866 30.904 30.976 31.086 31.186 31.294 31.361 31.549 31.636 31.856 32.044 32.251 32.376 32.471 32.569 32.689 32.821 32.909 -9999 -9999 -9999 -9999 -9999 -9999 -9999 -9999 -9999 -9999 -9999 -9999 -9999 -9999 -9999 -9999 -9999 -9999 -9999 -9999 -9999 -9999 -9999 -9999 -9999 -9999 -9999 -9999 -9999 -9999 -9999 -9999 -9999 -9999 -9999 -9999 -9999 -9999 -9999 -9999 -9999 -9999 -9999 -9999 -9999 -9999 -9999 -9999 -9999 -9999 -9999 -9999 -9999 -9999 -9999 -9999 -9999 -9999 -9999 -9999 -9999 -9999 -9999 -9999 -9999 -9999 -9999 -9999 -9999 -9999 -9999 -9999 -9999 -9999 -9999 -9999 -9999 -9999 -9999 -9999 -9999 -9999 -9999 -9999 -9999 -9999 -9999 -9999 -9999 -9999 -9999 -9999 -9999 -9999 -9999 -9999 -9999 -9999 -9999 -9999 -9999 -9999 -9999 -9999 -9999 -9999 -9999 -9999 -9999 -9999 -9999 -9999 -9999 -9999 -9999 -9999 -9999 -9999 -9999 -9999 -9999
29.219 28.979 28.766 28.564 28.586 28.714 28.836 28.901 28.846 28.786 28.724 28.619 28.524 28.474 28.441 28.501 28.631 28.681 28.644 28.604 28.541 28.516 28.589 28.671 28.716 28.716 28.654 28.654 28.694 28.746 28.719 28.744 28.824 28.809 28.824 28.806 28.754 28.671 28.679 28.654 28.676 28.666 28.659 28.581 28.591 28.619 28.589 28.589 28.621 28.659 28.716 28.729 28.804 28.779 28.794 28.841 28.829 28.834 28.846 28.876 28.901 28.854 28.871 28.844 28.849 28.884 28.896 28.901 28.929 28.996 29.041 29.076 29.084 29.046 29.041 29.049 29.054 29.026 29.059 28.969 28.961 28.911 28.911 28.869 28.679 28.536 28.546 28.541 28.576 28.579 28.606 28.661 28.724 28.761 28.791 28.834 28.854 28.899 28.926 28.959 28.981 28.979 29.036 29.034 29.044 29.039 29.071 29.026 29.006 28.984 28.964 28.946 28.981 28.996 28.969 29.001 29.059 29.144 29.221 29.311 29.376 29.471 29.696 29.779 29.811 29.839 29.721 29.549 29.514 29.594 29.789 29.694 29.509 29.291 29.319 29.461 29.596 29.786 29.941 30.011 30.061 30.074 30.086 30.051 29.959 29.906 29.861 29.814 29.766 29.771 29.799 29.771 29.754 29.756 29.749 29.721 29.681 29.724 29.744 29.789 29.789 29.764 29.786 29.831 29.846 29.869 29.896 29.826 29.889 29.871 29.874 29.874 29.886 29.929 29.916 29.944 29.976 29.984 29.976 29.961 29.949 29.979 30.006 29.956 29.969 29.991 30.014 30.016 30.036 30.021 30.016 30.036 30.059 30.044 30.049 30.094 30.099 30.121 30.116 30.121 30.096 30.051 30.046 30.049 30.041 30.046 30.039 30.026 30.059 30.044 30.046 30.051 30.066 30.061 30.074 30.051 30.054 30.084 30.076 30.089 30.051 30.039 30.019 29.996 30.001 30.044 30.054 30.059 30.056 30.031 30.039 30.036 30.041 30.054 30.036 30.059 30.036 30.046 30.036 30.076 30.036 30.039 30.061 30.021 30.056 30.086 29.999 29.924 29.884 30.009 30.096 30.106 30.084 30.086 30.041 29.994 30.016 30.029 30.066 30.099 30.104 30.074 30.116 30.239 30.296 30.359 30.431 30.444 30.451 30.441 30.434 30.469 30.536 30.629 30.706 30.749 30.759 30.764 30.724 30.704 30.669 30.609 30.591 30.576 30.601 30.641 30.636 30.641 30.586 30.589 30.631 30.621 30.609 30.621 30.684 30.761 30.816 30.791 30.869 30.921 31.014 31.081 31.154 31.226 31.339 31.479 31.671 31.839 31.994 32.209 32.394 32.451 32.561 32.671 32.781 32.846 -9999 -9999 -9999 -9999 -9999 -9999 -9999 -9999 -9999 -9999 -9999 -9999 -9999 -9999 -9999 -9999 -9999 -9999 -9999 -9999 -9999 -9999 -9999 -9999 -9999 -9999 -9999 -9999 -9999 -9999 -9999 -9999 -9999 -9999 -9999 -9999 -9999 -9999 -9999 -9999 -9999 -9999 -9999 -9999 -9999 -9999 -9999 -9999 -9999 -9999 -9999 -9999 -9999 -9999 -9999 -9999 -9999 -9999 -9999 -9999 -9999 -9999 -9999 -9999 -9999 -9999 -9999 -9999 -9999 -9999 -9999 -9999 -9999 -9999 -9999 -9999 -9999 -9999 -9999 -9999 -9999 -9999 -9999 -9999 -9999 -9999 -9999 -9999 -9999 -9999 -9999 -9999 -9999 -9999 -9999 -9999 -9999 -9999 -9999 -9999 -9999 -9999 -9999 -9999 -9999 -9999 -9999 -9999 -9999 -9999 -9999 -9999 -9999 -9999 -9999 -9999 -9999 -9999 -9999 -9999 -9999
28.811 28.716 28.766 28.821 28.766 28.884 28.906 28.804 28.781 28.731 28.661 28.611 28.531 28.549 28.569 28.576 28.661 28.704 28.656 28.586 28.566 28.521 28.601 28.671 28.754 28.736 28.699 28.644 28.691 28.791 28.794 28.729 28.781 28.799 28.786 28.789 28.734 28.691 28.704 28.741 28.749 28.729 28.666 28.616 28.601 28.651 28.676 28.621 28.609 28.624 28.639 28.681 28.714 28.744 28.784 28.846 28.849 28.834 28.801 28.854 28.879 28.876 28.846 28.831 28.869 28.919 28.951 28.951 28.981 29.024 29.051 29.071 29.086 29.081 29.079 29.111 29.119 29.116 29.086 29.029 29.006 28.949 28.876 28.731 28.549 28.461 28.439 28.459 28.464 28.509 28.589 28.666 28.791 28.859 28.889 28.906 28.891 28.921 28.936 28.949 29.001 29.031 29.034 29.081 29.064 29.059 29.039 29.021 29.014 28.974 28.966 28.966 28.966 28.926 28.894 28.951 29.056 29.151 29.281 29.346 29.446 29.536 29.661 29.794 29.826 29.831 29.691 29.519 29.359 29.426 29.454 29.299 29.314 29.446 29.644 29.899 29.959 29.959 29.964 30.024 30.079 30.071 30.076 30.044 29.949 29.906 29.866 29.819 29.789 29.766 29.766 29.801 29.764 29.789 29.789 29.746 29.721 29.729 29.784 29.774 29.771 29.781 29.821 29.806 29.859 29.889 29.896 29.834 29.886 29.921 29.914 29.904 29.881 29.909 29.926 29.961 29.959 29.959 29.974 29.974 29.964 29.956 29.944 29.979 29.999 30.019 30.044 30.014 30.026 30.049 30.059 30.059 30.046 30.046 30.061 30.076 30.109 30.111 30.101 30.096 30.066 30.069 30.056 30.069 30.031 30.019 30.024 30.046 30.059 30.066 30.039 30.071 30.051 30.069 30.079 30.066 30.084 30.094 30.114 30.086 30.009 30.006 30.019 30.031 30.044 30.046 30.041 30.059 30.051 30.041 30.029 30.049 30.059 30.049 30.059 30.026 30.044 30.034 30.029 30.046 30.054 30.064 30.051 30.066 30.031 30.024 29.921 29.834 29.779 29.841 30.006 30.099 30.101 30.086 30.061 29.979 30.011 30.071 30.109 30.124 30.141 30.059 30.174 30.289 30.329 30.311 30.381 30.386 30.406 30.404 30.411 30.464 30.524 30.619 30.721 30.784 30.776 30.766 30.676 30.651 30.631 30.569 30.564 30.584 30.601 30.634 30.641 30.599 30.554 30.554 30.584 30.579 30.571 30.584 30.596 30.684 30.754 30.759 30.831 30.944 31.024 31.059 31.126 31.179 31.281 31.461 31.671 31.851 31.989 32.154 32.364 32.429 32.484 32.619 32.706 32.809 32.886 -9999 -9999 -9999 -9999 -9999 -9999 -9999 -9999 -9999 -9999 -9999 -9999 -9999 -9999 -9999 -9999 -9999 -9999 -9999 -9999 -9999 -9999 -9999 -9999 -9999 -9999 -9999 -9999 -9999 -9999 -9999 -9999 -9999 -9999 -9999 -9999 -9999 -9999 -9999 -9999 -9999 -9999 -9999 -9999 -9999 -9999 -9999 -9999 -9999 -9999 -9999 -9999 -9999 -9999 -9999 -9999 -9999 -9999 -9999 -9999 -9999 -9999 -9999 -9999 -9999 -9999 -9999 -9999 -9999 -9999 -9999 -9999 -9999 -9999 -9999 -9999 -9999 -9999 -9999 -9999 -9999 -9999 -9999 -9999 -9999 -9999 -9999 -9999 -9999 -9999 -9999 -9999 -9999 -9999 -9999 -9999 -9999 -9999 -9999 -9999 -9999 -9999 -9999 -9999 -9999 -9999 -9999 -9999 -9999 -9999 -9999 -9999 -9999 -9999 -9999 -9999 -9999 -9999 -9999 -9999
28.911 28.921 29.074 29.141 28.889 28.844 28.854 28.804 28.734 28.746 28.711 28.649 28.626 28.616 28.624 28.629 28.674 28.706 28.649 28.606 28.519 28.569 28.644 28.731 28.764 28.766 28.731 28.671 28.684 28.771 28.814 28.741 28.734 28.756 28.759 28.749 28.721 28.779 28.821 28.819 28.819 28.809 28.761 28.704 28.656 28.694 28.736 28.679 28.651 28.611 28.591 28.641 28.681 28.714 28.771 28.794 28.814 28.791 28.791 28.836 28.849 28.891 28.894 28.891 28.924 28.946 28.981 29.004 28.999 29.014 29.049 29.086 29.139 29.121 29.096 29.131 29.149 29.126 29.091 29.041 29.009 28.981 28.846 28.641 28.479 28.426 28.456 28.439 28.434 28.474 28.591 28.671 28.804 28.874 28.906 28.901 28.931 28.934 28.961 28.999 29.041 29.071 29.054 29.074 29.076 29.089 29.054 29.059 29.039 28.999 28.971 28.931 28.914 28.916 28.916 29.041 29.164 29.296 29.404 29.464 29.536 29.609 29.706 29.801 29.836 29.821 29.664 29.474 29.269 29.256 29.296 29.531 29.721 29.909 30.004 30.041 30.024 30.021 30.011 30.049 30.074 30.076 30.066 30.014 29.954 29.879 29.879 29.879 29.841 29.799 29.784 29.809 29.821 29.814 29.794 29.774 29.759 29.756 29.796 29.811 29.826 29.846 29.879 29.881 29.896 29.919 29.974 29.959 29.889 29.909 29.926 29.956 29.961 29.931 29.961 29.926 29.964 29.956 29.994 29.996 29.999 29.976 29.984 29.996 30.021 30.006 30.031 30.051 30.056 30.069 30.074 30.039 30.069 30.084 30.079 30.081 30.076 30.096 30.091 30.111 30.106 30.089 30.076 30.049 29.999 30.016 30.044 30.036 30.031 30.049 30.051 30.046 30.046 30.106 30.094 30.084 30.059 30.036 30.031 30.024 30.009 30.056 30.041 30.041 30.029 30.046 30.051 30.051 30.061 30.051 30.066 30.064 30.046 30.036 30.041 30.026 30.019 30.056 30.026 30.046 30.039 30.044 30.079 30.104 30.071 29.934 29.824 29.716 29.604 29.606 29.849 30.021 30.071 30.076 30.089 30.011 30.101 30.139 30.186 30.181 30.149 30.111 30.219 30.354 30.421 30.349 30.349 30.351 30.384 30.451 30.441 30.429 30.506 30.621 30.714 30.774 30.744 30.724 30.656 30.619 30.629 30.596 30.556 30.584 30.606 30.604 30.606 30.559 30.519 30.534 30.586 30.574 30.586 30.586 30.589 30.671 30.754 30.766 30.789 30.874 30.959 31.021 31.106 31.159 31.246 31.384 31.564 31.814 31.914 32.074 32.254 32.334 32.399 32.521 32.606 32.724 32.874 32.981 -9999 -9999 -9999 -9999 -9999 -9999 -9999 -9999 -9999 -9999 -9999 -9999 -9999 -9999 -9999 -9999 -9999 -9999 -9999 -9999 -9999 -9999 -9999 -9999 -9999 -9999 -9999 -9999 -9999 -9999 -9999 -9999 -9999 -9999 -9999 -9999 -9999 -9999 -9999 -9999 -9999 -9999 -9999 -9999 -9999 -9999 -9999 -9999 -9999 -9999 -9999 -9999 -9999 -9999 -9999 -9999 -9999 -9999 -9999 -9999 -9999 -9999 -9999 -9999 -9999 -9999 -9999 -9999 -9999 -9999 -9999 -9999 -9999 -9999 -9999 -9999 -9999 -9999 -9999 -9999 -9999 -9999 -9999 -9999 -9999 -9999 -9999 -9999 -9999 -9999 -9999 -9999 -9999 -9999 -9999 -9999 -9999 -9999 -9999 -9999 -9999 -9999 -9999 -9999 -9999 -9999 -9999 -9999 -9999 -9999 -9999 -9999 -9999 -9999 -9999 -9999 -9999 -9999 -9999
29.204 29.124 29.126 29.151 29.024 28.869 28.891 28.844 28.771 28.714 28.699 28.656 28.649 28.631 28.646 28.694 28.764 28.736 28.651 28.611 28.574 28.601 28.669 28.766 28.801 28.789 28.731 28.694 28.704 28.759 28.841 28.799 28.724 28.731 28.739 28.719 28.746 28.821 28.884 28.899 28.854 28.904 28.884 28.804 28.746 28.706 28.701 28.694 28.676 28.626 28.591 28.606 28.654 28.676 28.719 28.754 28.739 28.766 28.814 28.841 28.894 28.909 28.939 28.954 28.979 28.979 28.991 28.996 28.996 29.056 29.119 29.146 29.161 29.126 29.124 29.149 29.139 29.109 29.064 29.026 28.999 28.966 28.821 28.644 28.466 28.326 28.336 28.426 28.441 28.441 28.494 28.614 28.726 28.839 28.916 28.964 28.984 29.011 29.016 29.024 29.024 29.064 29.084 29.111 29.149 29.159 29.089 29.074 29.034 29.036 28.981 28.924 28.896 28.884 28.951 29.089 29.214 29.391 29.504 29.586 29.619 29.661 29.731 29.771 29.756 29.699 29.496 29.234 29.266 29.466 29.666 29.854 29.971 30.001 29.989 30.011 30.009 30.051 30.066 30.069 30.034 30.014 29.991 29.951 29.924 29.871 29.854 29.874 29.856 29.831 29.804 29.801 29.826 29.856 29.829 29.804 29.814 29.804 29.811 29.849 29.874 29.869 29.924 29.959 29.949 29.931 29.951 29.961 29.856 29.851 29.971 29.981 29.996 29.974 30.016 29.989 29.979 29.959 29.996 30.014 30.029 30.021 29.999 30.001 30.016 30.039 30.051 30.066 30.021 30.049 30.059 30.069 30.069 30.084 30.079 30.081 30.134 30.124 30.126 30.114 30.111 30.106 30.089 30.066 30.044 30.009 29.994 30.049 30.019 30.054 30.061 30.056 30.079 30.106 30.104 30.066 30.024 30.031 30.061 30.041 30.009 30.039 30.066 30.016 30.046 30.051 30.069 30.064 30.054 30.069 30.051 30.049 30.081 30.046 30.054 30.049 30.061 30.079 30.046 30.041 30.026 30.049 30.084 30.096 30.054 29.879 29.739 29.586 29.499 29.606 29.946 30.079 30.036 30.034 30.061 30.079 30.126 30.156 30.201 30.211 30.161 30.161 30.261 30.381 30.499 30.419 30.339 30.326 30.366 30.461 30.499 30.471 30.541 30.666 30.724 30.724 30.751 30.706 30.684 30.626 30.629 30.606 30.579 30.589 30.596 30.564 30.506 30.501 30.501 30.491 30.519 30.551 30.571 30.579 30.599 30.664 30.751 30.749 30.761 30.794 30.914 31.019 31.106 31.176 31.251 31.374 31.531 31.724 31.919 31.979 32.131 32.256 32.376 32.426 32.531 32.631 32.774 32.889 32.975 -9999 -9999 -9999 -9999 -9999 -9999 -9999 -9999 -9999 -9999 -9999 -9999 -9999 -9999 -9999 -9999 -9999 -9999 -9999 -9999 -9999 -9999 -9999 -9999 -9999 -9999 -9999 -9999 -9999 -9999 -9999 -9999 -9999 -9999 -9999 -9999 -9999 -9999 -9999 -9999 -9999 -9999 -9999 -9999 -9999 -9999 -9999 -9999 -9999 -9999 -9999 -9999 -9999 -9999 -9999 -9999 -9999 -9999 -9999 -9999 -9999 -9999 -9999 -9999 -9999 -9999 -9999 -9999 -9999 -9999 -9999 -9999 -9999 -9999 -9999 -9999 -9999 -9999 -9999 -9999 -9999 -9999 -9999 -9999 -9999 -9999 -9999 -9999 -9999 -9999 -9999 -9999 -9999 -9999 -9999 -9999 -9999 -9999 -9999 -9999 -9999 -9999 -9999 -9999 -9999 -9999 -9999 -9999 -9999 -9999 -9999 -9999 -9999 -9999 -9999 -9999 -9999 -9999
29.289 29.204 29.119 29.186 29.199 28.939 28.891 28.849 28.804 28.726 28.684 28.671 28.709 28.666 28.716 28.786 28.781 28.726 28.671 28.624 28.599 28.651 28.729 28.781 28.811 28.801 28.746 28.689 28.706 28.746 28.836 28.824 28.714 28.714 28.699 28.711 28.771 28.881 28.976 28.986 28.934 28.971 29.001 28.926 28.831 28.756 28.721 28.706 28.709 28.694 28.649 28.624 28.614 28.646 28.701 28.729 28.766 28.806 28.826 28.841 28.879 28.906 28.944 28.944 28.984 29.011 29.009 29.009 29.019 29.051 29.109 29.156 29.176 29.161 29.124 29.106 29.126 29.121 29.061 29.054 29.014 28.946 28.851 28.709 28.561 28.436 28.406 28.379 28.434 28.454 28.469 28.549 28.716 28.836 28.926 28.989 29.014 29.016 29.039 29.069 29.031 29.059 29.104 29.116 29.204 29.159 29.066 29.076 29.034 29.019 28.954 28.916 28.914 28.906 28.994 29.166 29.306 29.524 29.654 29.694 29.699 29.671 29.676 29.634 29.584 29.531 29.466 29.561 29.626 29.646 29.696 29.856 29.959 29.956 29.916 29.914 29.956 29.991 30.021 30.014 29.981 29.959 29.909 29.894 29.876 29.851 29.834 29.836 29.861 29.869 29.876 29.866 29.844 29.859 29.871 29.886 29.901 29.876 29.849 29.904 29.946 29.984 29.999 30.009 29.954 29.964 29.974 29.974 29.919 29.856 30.041 30.051 30.031 29.994 29.999 29.989 29.984 30.009 30.031 30.021 30.016 30.016 30.029 30.069 30.051 30.041 30.039 30.039 30.059 30.074 30.061 30.066 30.061 30.076 30.086 30.139 30.174 30.151 30.119 30.106 30.124 30.131 30.106 30.091 30.059 30.054 30.044 30.029 30.034 30.034 30.051 30.064 30.059 30.054 30.071 30.049 30.089 30.059 30.054 30.021 30.034 30.039 30.049 29.999 30.059 30.034 30.069 30.064 30.036 30.049 30.039 30.046 30.071 30.064 30.066 30.024 30.096 30.081 30.061 30.036 30.031 30.046 30.091 30.076 30.036 29.856 29.631 29.499 29.441 29.536 30.059 30.119 30.049 30.051 30.061 30.076 30.114 30.144 30.176 30.169 30.169 30.224 30.331 30.401 30.496 30.509 30.394 30.336 30.384 30.449 30.496 30.514 30.586 30.699 30.771 30.746 30.724 30.701 30.666 30.639 30.624 30.624 30.596 30.566 30.534 30.519 30.479 30.486 30.494 30.496 30.494 30.531 30.564 30.564 30.579 30.636 30.716 30.751 30.766 30.804 30.879 31.026 31.071 31.124 31.226 31.331 31.461 31.629 31.826 31.931 32.041 32.151 32.336 32.344 32.424 32.566 32.706 32.834 32.979 33.012 -9999 -9999 -9999 -9999 -9999 -9999 -9999 -9999 -9999 -9999 -9999 -9999 -9999 -9999 -9999 -9999 -9999 -9999 -9999 -9999 -9999 -9999 -9999 -9999 -9999 -9999 -9999 -9999 -9999 -9999 -9999 -9999 -9999 -9999 -9999 -9999 -9999 -9999 -9999 -9999 -9999 -9999 -9999 -9999 -9999 -9999 -9999 -9999 -9999 -9999 -9999 -9999 -9999 -9999 -9999 -9999 -9999 -9999 -9999 -9999 -9999 -9999 -9999 -9999 -9999 -9999 -9999 -9999 -9999 -9999 -9999 -9999 -9999 -9999 -9999 -9999 -9999 -9999 -9999 -9999 -9999 -9999 -9999 -9999 -9999 -9999 -9999 -9999 -9999 -9999 -9999 -9999 -9999 -9999 -9999 -9999 -9999 -9999 -9999 -9999 -9999 -9999 -9999 -9999 -9999 -9999 -9999 -9999 -9999 -9999 -9999 -9999 -9999 -9999 -9999 -9999 -9999
29.274 29.231 29.119 29.151 29.111 28.949 28.874 28.879 28.844 28.774 28.711 28.681 28.721 28.741 28.799 28.851 28.799 28.674 28.636 28.631 28.629 28.676 28.756 28.811 28.809 28.794 28.766 28.711 28.699 28.741 28.781 28.811 28.746 28.706 28.726 28.774 28.876 28.949 28.979 28.999 28.994 28.999 29.011 28.979 28.891 28.796 28.749 28.714 28.739 28.749 28.684 28.621 28.596 28.626 28.681 28.716 28.766 28.801 28.844 28.876 28.901 28.909 28.929 28.979 28.979 29.014 28.999 29.004 29.056 29.064 29.094 29.129 29.156 29.179 29.184 29.134 29.144 29.116 29.079 29.099 29.099 29.041 28.929 28.761 28.596 28.441 28.419 28.429 28.441 28.429 28.441 28.534 28.726 28.886 28.996 29.009 29.029 29.054 29.054 29.081 29.059 29.064 29.106 29.144 29.201 29.116 29.019 29.031 29.021 29.004 28.949 28.929 28.956 28.999 29.076 29.256 29.424 29.614 29.674 29.594 29.514 29.471 29.624 29.606 29.561 29.639 29.744 29.821 29.854 29.789 29.664 29.601 29.774 29.849 29.869 29.891 29.931 29.919 29.929 29.919 29.934 29.921 29.884 29.909 29.844 29.826 29.856 29.876 29.886 29.884 29.896 29.901 29.861 29.876 29.906 29.921 29.931 29.941 29.921 29.964 29.996 30.034 30.019 30.004 30.016 30.001 29.999 30.021 30.009 29.961 29.981 30.079 30.066 29.991 30.006 30.024 29.986 29.981 30.014 30.021 30.049 30.064 30.064 30.044 30.026 30.064 30.074 30.079 30.089 30.059 30.044 30.021 30.079 30.091 30.101 30.126 30.126 30.169 30.144 30.141 30.124 30.114 30.094 30.074 30.074 30.096 30.066 30.016 30.029 30.019 30.004 30.011 30.016 30.034 30.064 30.074 30.049 30.074 30.081 30.071 30.031 29.996 30.006 30.031 30.049 30.046 30.071 30.051 30.046 30.049 30.044 30.044 30.049 30.079 30.071 30.081 30.061 30.051 30.039 30.034 30.034 30.006 30.069 30.036 30.014 29.841 29.604 29.534 29.456 29.429 29.781 30.101 30.101 30.076 30.099 30.101 30.099 30.119 30.144 30.159 30.179 30.186 30.291 30.434 30.511 30.536 30.454 30.386 30.409 30.481 30.531 30.539 30.661 30.741 30.784 30.746 30.696 30.689 30.671 30.651 30.594 30.604 30.589 30.536 30.519 30.509 30.496 30.476 30.456 30.481 30.514 30.531 30.539 30.559 30.596 30.621 30.689 30.716 30.751 30.789 30.871 30.989 31.064 31.121 31.194 31.279 31.394 31.519 31.726 31.899 32.009 32.121 32.276 32.291 32.384 32.481 32.641 32.756 32.899 32.981 -9999 -9999 -9999 -9999 -9999 -9999 -9999 -9999 -9999 -9999 -9999 -9999 -9999 -9999 -9999 -9999 -9999 -9999 -9999 -9999 -9999 -9999 -9999 -9999 -9999 -9999 -9999 -9999 -9999 -9999 -9999 -9999 -9999 -9999 -9999 -9999 -9999 -9999 -9999 -9999 -9999 -9999 -9999 -9999 -9999 -9999 -9999 -9999 -9999 -9999 -9999 -9999 -9999 -9999 -9999 -9999 -9999 -9999 -9999 -9999 -9999 -9999 -9999 -9999 -9999 -9999 -9999 -9999 -9999 -9999 -9999 -9999 -9999 -9999 -9999 -9999 -9999 -9999 -9999 -9999 -9999 -9999 -9999 -9999 -9999 -9999 -9999 -9999 -9999 -9999 -9999 -9999 -9999 -9999 -9999 -9999 -9999 -9999 -9999 -9999 -9999 -9999 -9999 -9999 -9999 -9999 -9999 -9999 -9999 -9999 -9999 -9999 -9999 -9999 -9999 -9999 -9999
29.326 29.294 29.124 29.096 29.086 28.976 28.919 28.874 28.791 28.734 28.696 28.699 28.749 28.814 28.839 28.891 28.864 28.726 28.639 28.629 28.659 28.701 28.769 28.841 28.849 28.844 28.769 28.711 28.696 28.739 28.756 28.771 28.771 28.759 28.791 28.884 28.934 28.924 28.951 28.981 29.001 29.004 29.016 29.026 28.976 28.859 28.774 28.746 28.776 28.791 28.751 28.676 28.606 28.606 28.646 28.639 28.684 28.746 28.799 28.849 28.879 28.901 28.929 28.944 28.959 28.996 29.011 29.041 29.036 29.086 29.111 29.134 29.141 29.186 29.194 29.181 29.209 29.199 29.164 29.184 29.219 29.156 29.011 28.836 28.606 28.451 28.439 28.464 28.451 28.456 28.451 28.576 28.754 28.884 28.991 29.049 29.054 29.061 29.104 29.124 29.096 29.094 29.121 29.149 29.171 29.076 29.044 29.006 28.981 28.989 28.981 28.969 29.044 29.111 29.219 29.339 29.419 29.459 29.539 29.491 29.364 29.534 29.724 29.704 29.701 29.786 29.889 29.939 29.921 29.924 29.884 29.761 29.701 29.736 29.739 29.811 29.869 29.874 29.854 29.854 29.869 29.869 29.896 29.811 29.816 29.829 29.886 29.894 29.886 29.916 29.909 29.939 29.914 29.906 29.931 29.991 29.971 29.946 29.961 29.954 30.031 30.036 30.014 30.014 30.039 30.061 30.024 30.036 30.049 30.001 29.946 30.059 30.079 30.029 30.024 29.994 29.976 30.009 30.066 30.066 30.051 30.049 30.034 30.096 30.084 30.091 30.106 30.084 30.099 30.114 30.119 30.071 30.079 30.084 30.111 30.169 30.176 30.191 30.146 30.141 30.109 30.139 30.119 30.111 30.109 30.076 30.074 30.046 30.029 30.029 30.016 30.014 30.059 30.074 30.059 30.071 30.059 30.094 30.084 30.051 30.061 30.031 30.016 30.036 30.041 30.069 30.044 30.034 30.026 30.024 30.029 30.039 30.059 30.066 30.056 30.061 30.044 30.016 29.999 29.996 29.999 29.989 29.991 29.981 29.999 29.954 29.721 29.569 29.501 29.599 29.846 30.039 30.086 30.109 30.074 30.024 30.089 30.149 30.191 30.179 30.179 30.209 30.244 30.421 30.526 30.576 30.521 30.461 30.439 30.479 30.519 30.569 30.679 30.726 30.771 30.746 30.706 30.689 30.666 30.634 30.579 30.581 30.529 30.464 30.474 30.484 30.504 30.471 30.459 30.451 30.504 30.526 30.541 30.549 30.584 30.636 30.706 30.676 30.689 30.786 30.841 30.969 31.081 31.121 31.186 31.254 31.314 31.456 31.696 31.849 31.909 32.034 32.186 32.251 32.419 32.476 32.546 32.699 32.794 32.919 32.966 -9999 -9999 -9999 -9999 -9999 -9999 -9999 -9999 -9999 -9999 -9999 -9999 -9999 -9999 -9999 -9999 -9999 -9999 -9999 -9999 -9999 -9999 -9999 -9999 -9999 -9999 -9999 -9999 -9999 -9999 -9999 -9999 -9999 -9999 -9999 -9999 -9999 -9999 -9999 -9999 -9999 -9999 -9999 -9999 -9999 -9999 -9999 -9999 -9999 -9999 -9999 -9999 -9999 -9999 -9999 -9999 -9999 -9999 -9999 -9999 -9999 -9999 -9999 -9999 -9999 -9999 -9999 -9999 -9999 -9999 -9999 -9999 -9999 -9999 -9999 -9999 -9999 -9999 -9999 -9999 -9999 -9999 -9999 -9999 -9999 -9999 -9999 -9999 -9999 -9999 -9999 -9999 -9999 -9999 -9999 -9999 -9999 -9999 -9999 -9999 -9999 -9999 -9999 -9999 -9999 -9999 -9999 -9999 -9999 -9999 -9999 -9999 -9999 -9999 -9999 -9999
29.376 29.331 29.154 29.081 29.051 29.001 28.964 28.919 28.826 28.731 28.696 28.699 28.806 28.866 28.936 28.929 28.884 28.741 28.676 28.649 28.656 28.724 28.826 28.879 28.884 28.864 28.771 28.716 28.731 28.771 28.784 28.756 28.811 28.826 28.861 28.916 28.911 28.911 28.929 28.969 28.991 29.024 29.056 29.044 29.009 28.934 28.814 28.766 28.746 28.754 28.769 28.746 28.721 28.669 28.669 28.641 28.694 28.734 28.784 28.794 28.849 28.924 28.946 28.964 28.999 29.019 29.049 29.059 29.041 29.101 29.144 29.166 29.194 29.221 29.241 29.254 29.244 29.239 29.251 29.269 29.271 29.159 29.061 28.919 28.684 28.496 28.446 28.444 28.449 28.426 28.481 28.616 28.801 28.911 28.984 29.054 29.086 29.074 29.066 29.121 29.121 29.116 29.109 29.129 29.104 29.056 29.001 29.006 28.974 28.961 28.944 28.974 29.029 29.099 29.149 29.206 29.304 29.361 29.384 29.474 29.514 29.739 29.801 29.731 29.671 29.799 29.879 29.916 29.909 29.914 29.914 29.834 29.789 29.724 29.646 29.771 29.864 29.844 29.839 29.819 29.846 29.884 29.884 29.841 29.854 29.884 29.879 29.901 29.924 29.951 29.944 29.954 29.944 29.979 29.994 30.029 29.999 29.994 30.001 30.044 30.044 30.044 30.004 30.024 30.039 30.069 30.049 30.034 30.029 30.026 29.979 29.999 30.094 30.061 30.054 30.004 30.014 30.039 30.026 30.031 30.051 30.086 30.096 30.104 30.096 30.109 30.104 30.104 30.136 30.156 30.124 30.124 30.101 30.136 30.161 30.191 30.176 30.191 30.209 30.181 30.139 30.139 30.096 30.154 30.096 30.049 30.041 30.074 30.114 30.076 30.026 30.031 30.061 30.094 30.081 30.081 30.064 30.104 30.079 30.066 30.056 30.031 30.051 30.034 30.046 30.076 30.064 30.046 30.026 30.044 30.054 30.084 30.081 30.086 30.081 30.044 29.996 29.964 29.961 29.961 29.994 30.014 30.011 30.019 30.064 30.064 29.941 29.744 29.674 29.779 29.966 30.046 30.071 30.074 30.006 29.981 30.031 30.111 30.164 30.166 30.181 30.214 30.259 30.371 30.526 30.556 30.544 30.514 30.476 30.529 30.536 30.651 30.724 30.766 30.749 30.721 30.681 30.699 30.676 30.616 30.561 30.516 30.486 30.459 30.454 30.469 30.461 30.476 30.444 30.454 30.481 30.539 30.531 30.561 30.584 30.631 30.691 30.704 30.714 30.821 30.861 30.911 31.049 31.106 31.164 31.216 31.301 31.471 31.629 31.756 31.816 31.921 32.041 32.139 32.399 32.384 32.406 32.569 32.686 32.786 32.864 32.924 -9999 -9999 -9999 -9999 -9999 -9999 -9999 -9999 -9999 -9999 -9999 -9999 -9999 -9999 -9999 -9999 -9999 -9999 -9999 -9999 -9999 -9999 -9999 -9999 -9999 -9999 -9999 -9999 -9999 -9999 -9999 -9999 -9999 -9999 -9999 -9999 -9999 -9999 -9999 -9999 -9999 -9999 -9999 -9999 -9999 -9999 -9999 -9999 -9999 -9999 -9999 -9999 -9999 -9999 -9999 -9999 -9999 -9999 -9999 -9999 -9999 -9999 -9999 -9999 -9999 -9999 -9999 -9999 -9999 -9999 -9999 -9999 -9999 -9999 -9999 -9999 -9999 -9999 -9999 -9999 -9999 -9999 -9999 -9999 -9999 -9999 -9999 -9999 -9999 -9999 -9999 -9999 -9999 -9999 -9999 -9999 -9999 -9999 -9999 -9999 -9999 -9999 -9999 -9999 -9999 -9999 -9999 -9999 -9999 -9999 -9999 -9999 -9999 -9999 -9999
29.429 29.387 29.239 29.137 29.024 29.042 29.009 28.942 28.849 28.789 28.712 28.729 28.832 28.919 28.997 28.987 28.864 28.732 28.664 28.592 28.662 28.739 28.827 28.916 28.894 28.839 28.761 28.744 28.759 28.801 28.799 28.776 28.841 28.916 28.946 28.966 28.954 28.926 28.944 29.004 29.009 29.034 29.051 29.061 29.001 28.981 28.941 28.849 28.781 28.756 28.749 28.781 28.786 28.749 28.721 28.711 28.746 28.764 28.799 28.831 28.906 28.929 28.946 28.994 29.069 29.084 29.079 29.099 29.126 29.171 29.186 29.219 29.236 29.274 29.306 29.296 29.276 29.294 29.306 29.284 29.259 29.241 29.184 29.096 28.896 28.676 28.496 28.454 28.464 28.514 28.621 28.756 28.896 28.971 29.006 29.059 29.091 29.076 29.081 29.109 29.121 29.121 29.064 29.066 29.104 29.066 28.999 28.936 28.924 28.914 28.896 28.974 29.059 29.059 29.074 29.174 29.349 29.541 29.511 29.571 29.649 29.769 29.824 29.756 29.649 29.746 29.824 29.876 29.876 29.879 29.876 29.864 29.891 29.821 29.726 29.659 29.834 29.841 29.806 29.829 29.864 29.864 29.864 29.854 29.876 29.876 29.871 29.889 29.926 29.941 29.959 29.971 29.959 30.009 30.021 30.051 30.016 29.994 29.994 30.024 30.056 30.031 30.016 30.041 30.051 30.041 30.009 30.049 30.024 30.046 30.019 29.931 30.066 30.084 30.071 30.029 30.044 30.061 30.039 30.066 30.071 30.091 30.129 30.106 30.119 30.131 30.121 30.124 30.131 30.151 30.151 30.124 30.099 30.139 30.186 30.194 30.209 30.216 30.211 30.189 30.164 30.124 30.081 30.081 30.074 30.064 30.074 30.104 30.106 30.061 30.021 30.036 30.059 30.074 30.064 30.074 30.094 30.074 30.061 30.071 30.054 30.041 30.046 30.066 30.036 30.056 30.056 30.079 30.086 30.089 30.084 30.089 30.069 30.039 30.026 30.011 29.969 29.939 29.934 30.014 30.049 30.054 30.086 30.071 30.026 30.116 30.094 30.004 29.926 29.981 29.986 30.019 30.061 30.074 30.014 30.011 30.034 30.061 30.059 30.099 30.114 30.191 30.244 30.331 30.496 30.536 30.591 30.569 30.531 30.531 30.571 30.679 30.689 30.751 30.749 30.706 30.674 30.674 30.654 30.624 30.521 30.489 30.469 30.474 30.461 30.484 30.461 30.439 30.434 30.451 30.496 30.531 30.514 30.561 30.591 30.629 30.646 30.654 30.709 30.791 30.854 30.906 31.029 31.101 31.141 31.234 31.304 31.444 31.581 31.714 31.809 31.879 31.954 32.134 32.406 32.449 32.364 32.424 32.559 32.681 32.789 32.811 32.835 -9999 -9999 -9999 -9999 -9999 -9999 -9999 -9999 -9999 -9999 -9999 -9999 -9999 -9999 -9999 -9999 -9999 -9999 -9999 -9999 -9999 -9999 -9999 -9999 -9999 -9999 -9999 -9999 -9999 -9999 -9999 -9999 -9999 -9999 -9999 -9999 -9999 -9999 -9999 -9999 -9999 -9999 -9999 -9999 -9999 -9999 -9999 -9999 -9999 -9999 -9999 -9999 -9999 -9999 -9999 -9999 -9999 -9999 -9999 -9999 -9999 -9999 -9999 -9999 -9999 -9999 -9999 -9999 -9999 -9999 -9999 -9999 -9999 -9999 -9999 -9999 -9999 -9999 -9999 -9999 -9999 -9999 -9999 -9999 -9999 -9999 -9999 -9999 -9999 -9999 -9999 -9999 -9999 -9999 -9999 -9999 -9999 -9999 -9999 -9999 -9999 -9999 -9999 -9999 -9999 -9999 -9999 -9999 -9999 -9999 -9999 -9999 -9999 -9999
29.264 29.304 29.237 29.084 29.057 29.022 29.032 29.047 28.902 28.814 28.792 28.794 28.857 28.952 29.017 28.947 28.804 28.704 28.612 28.594 28.639 28.699 28.784 28.841 28.846 28.806 28.771 28.769 28.794 28.841 28.821 28.779 28.856 28.991 29.024 29.029 28.991 28.929 28.929 28.979 28.994 29.036 29.051 29.084 29.079 29.086 29.084 28.929 28.814 28.759 28.751 28.789 28.799 28.756 28.759 28.819 28.821 28.826 28.874 28.936 28.979 29.006 28.986 28.979 29.046 29.116 29.176 29.151 29.154 29.194 29.226 29.246 29.296 29.346 29.359 29.304 29.261 29.286 29.296 29.311 29.314 29.314 29.274 29.234 29.119 28.901 28.711 28.636 28.641 28.716 28.819 28.939 29.021 29.036 29.046 29.089 29.084 29.084 29.084 29.084 29.091 29.089 29.071 29.049 29.101 29.109 29.031 28.896 28.801 28.851 28.881 28.896 28.959 29.059 29.274 29.556 29.626 29.654 29.614 29.651 29.764 29.836 29.839 29.826 29.766 29.794 29.851 29.864 29.856 29.846 29.839 29.866 29.894 29.886 29.839 29.699 29.681 29.844 29.821 29.836 29.874 29.844 29.829 29.846 29.869 29.859 29.866 29.869 29.884 29.919 29.934 29.949 29.949 29.979 30.006 30.026 30.026 30.024 30.004 30.016 30.031 29.989 30.019 30.056 30.054 30.059 30.039 30.056 30.041 30.054 30.039 29.996 29.979 30.051 30.119 30.056 30.061 30.084 30.089 30.056 30.064 30.126 30.156 30.176 30.144 30.089 30.119 30.136 30.166 30.191 30.164 30.129 30.149 30.186 30.241 30.236 30.239 30.224 30.181 30.159 30.129 30.091 30.119 30.104 30.079 30.094 30.054 30.081 30.086 30.089 30.049 30.059 30.106 30.079 30.064 30.076 30.084 30.081 30.051 30.041 30.034 30.026 30.046 30.059 30.056 30.061 30.056 30.071 30.089 30.094 30.061 30.056 30.026 29.984 29.956 29.949 29.981 30.044 30.071 30.069 30.056 30.036 30.066 30.044 30.039 30.084 30.089 30.054 29.999 29.986 29.974 30.011 30.049 30.069 30.051 30.044 30.031 30.034 30.056 30.079 30.111 30.146 30.194 30.304 30.464 30.524 30.589 30.636 30.569 30.596 30.631 30.684 30.704 30.749 30.739 30.721 30.651 30.624 30.601 30.599 30.486 30.511 30.511 30.471 30.441 30.446 30.461 30.454 30.449 30.481 30.489 30.479 30.476 30.549 30.551 30.601 30.616 30.659 30.696 30.751 30.804 30.879 31.009 31.104 31.159 31.239 31.306 31.419 31.526 31.669 31.829 31.876 31.951 32.129 32.351 32.414 32.374 32.311 32.459 32.584 32.689 32.736 32.764 -9999 -9999 -9999 -9999 -9999 -9999 -9999 -9999 -9999 -9999 -9999 -9999 -9999 -9999 -9999 -9999 -9999 -9999 -9999 -9999 -9999 -9999 -9999 -9999 -9999 -9999 -9999 -9999 -9999 -9999 -9999 -9999 -9999 -9999 -9999 -9999 -9999 -9999 -9999 -9999 -9999 -9999 -9999 -9999 -9999 -9999 -9999 -9999 -9999 -9999 -9999 -9999 -9999 -9999 -9999 -9999 -9999 -9999 -9999 -9999 -9999 -9999 -9999 -9999 -9999 -9999 -9999 -9999 -9999 -9999 -9999 -9999 -9999 -9999 -9999 -9999 -9999 -9999 -9999 -9999 -9999 -9999 -9999 -9999 -9999 -9999 -9999 -9999 -9999 -9999 -9999 -9999 -9999 -9999 -9999 -9999 -9999 -9999 -9999 -9999 -9999 -9999 -9999 -9999 -9999 -9999 -9999 -9999 -9999 -9999 -9999 -9999 -9999 -9999
29.144 29.239 29.187 29.077 29.019 28.889 28.922 28.949 28.919 28.842 28.854 28.872 28.879 28.957 29.002 28.894 28.742 28.664 28.597 28.569 28.584 28.652 28.714 28.769 28.811 28.799 28.764 28.759 28.809 28.816 28.809 28.809 28.884 29.046 29.071 29.069 29.014 28.944 28.934 28.949 29.039 29.076 29.101 29.074 29.114 29.156 29.121 29.039 28.909 28.826 28.786 28.764 28.791 28.759 28.786 28.786 28.819 28.866 28.931 28.971 29.006 28.996 28.969 28.971 29.004 29.134 29.174 29.194 29.184 29.224 29.266 29.309 29.336 29.329 29.349 29.299 29.259 29.266 29.279 29.321 29.329 29.324 29.309 29.294 29.259 29.184 29.071 28.969 28.944 28.989 29.066 29.174 29.151 29.144 29.086 29.054 29.076 29.076 29.049 29.059 29.054 29.091 29.111 29.146 29.141 29.104 28.974 28.856 28.774 28.841 28.889 28.954 29.154 29.364 29.504 29.629 29.706 29.716 29.701 29.724 29.814 29.896 29.906 29.886 29.856 29.834 29.876 29.881 29.851 29.871 29.846 29.851 29.866 29.879 29.851 29.791 29.619 29.814 29.866 29.844 29.844 29.844 29.814 29.864 29.854 29.886 29.884 29.866 29.881 29.894 29.906 29.911 29.919 29.974 30.006 30.029 30.041 30.031 30.006 30.019 30.021 29.994 30.011 30.076 30.056 30.069 30.086 30.059 30.031 30.026 30.036 30.034 29.959 30.076 30.126 30.104 30.096 30.096 30.131 30.111 30.146 30.154 30.159 30.146 30.151 30.159 30.169 30.149 30.164 30.161 30.191 30.199 30.224 30.304 30.301 30.244 30.216 30.174 30.129 30.134 30.139 30.124 30.114 30.116 30.124 30.106 30.106 30.089 30.096 30.079 30.054 30.079 30.124 30.116 30.081 30.071 30.059 30.054 30.046 30.031 30.066 30.069 30.066 30.054 30.096 30.076 30.076 30.059 30.064 30.071 29.986 30.014 29.986 29.956 29.974 30.026 30.074 30.104 30.089 30.089 30.064 30.044 30.049 30.056 30.061 30.051 30.064 30.036 30.084 30.061 29.951 29.981 30.031 30.051 30.039 30.004 30.044 30.034 30.044 30.071 30.096 30.134 30.159 30.241 30.371 30.469 30.581 30.629 30.611 30.611 30.654 30.681 30.686 30.726 30.706 30.716 30.681 30.636 30.574 30.506 30.484 30.491 30.479 30.444 30.434 30.409 30.459 30.499 30.496 30.499 30.474 30.474 30.476 30.569 30.586 30.579 30.646 30.649 30.694 30.741 30.771 30.816 30.954 31.076 31.171 31.261 31.301 31.371 31.451 31.664 31.786 31.806 31.889 31.976 32.191 32.321 32.341 32.291 32.399 32.509 32.629 32.674 32.734 32.794 -9999 -9999 -9999 -9999 -9999 -9999 -9999 -9999 -9999 -9999 -9999 -9999 -9999 -9999 -9999 -9999 -9999 -9999 -9999 -9999 -9999 -9999 -9999 -9999 -9999 -9999 -9999 -9999 -9999 -9999 -9999 -9999 -9999 -9999 -9999 -9999 -9999 -9999 -9999 -9999 -9999 -9999 -9999 -9999 -9999 -9999 -9999 -9999 -9999 -9999 -9999 -9999 -9999 -9999 -9999 -9999 -9999 -9999 -9999 -9999 -9999 -9999 -9999 -9999 -9999 -9999 -9999 -9999 -9999 -9999 -9999 -9999 -9999 -9999 -9999 -9999 -9999 -9999 -9999 -9999 -9999 -9999 -9999 -9999 -9999 -9999 -9999 -9999 -9999 -9999 -9999 -9999 -9999 -9999 -9999 -9999 -9999 -9999 -9999 -9999 -9999 -9999 -9999 -9999 -9999 -9999 -9999 -9999 -9999 -9999 -9999 -9999 -9999
29.059 29.132 29.039 29.014 28.999 28.934 28.954 28.962 29.014 28.924 28.922 28.917 28.919 28.929 28.959 28.847 28.689 28.612 28.569 28.552 28.589 28.659 28.717 28.759 28.774 28.776 28.746 28.754 28.764 28.811 28.816 28.829 28.921 29.036 29.086 29.059 29.029 29.004 28.981 29.011 29.106 29.149 29.146 29.111 29.134 29.146 29.159 29.121 29.029 28.911 28.804 28.779 28.759 28.769 28.796 28.786 28.789 28.819 28.864 28.941 28.976 28.984 29.004 29.039 29.041 29.096 29.159 29.174 29.216 29.291 29.276 29.291 29.316 29.316 29.339 29.301 29.281 29.274 29.271 29.294 29.331 29.341 29.329 29.319 29.331 29.341 29.301 29.264 29.224 29.216 29.226 29.279 29.251 29.231 29.169 29.094 29.099 29.084 29.094 29.124 29.131 29.129 29.166 29.224 29.149 29.031 28.941 28.834 28.804 28.874 29.004 29.201 29.366 29.466 29.559 29.621 29.704 29.761 29.764 29.771 29.814 29.854 29.871 29.859 29.901 29.891 29.869 29.876 29.899 29.901 29.889 29.866 29.831 29.849 29.836 29.831 29.701 29.656 29.834 29.816 29.836 29.816 29.851 29.851 29.864 29.869 29.856 29.844 29.849 29.881 29.899 29.909 29.914 29.929 29.991 29.986 30.046 30.051 30.021 30.051 30.054 30.039 30.019 30.049 30.044 30.054 30.076 30.049 30.034 30.029 30.024 30.064 30.011 30.031 30.139 30.116 30.134 30.119 30.166 30.146 30.141 30.154 30.149 30.166 30.164 30.159 30.156 30.191 30.199 30.231 30.264 30.264 30.299 30.316 30.271 30.241 30.204 30.159 30.159 30.146 30.136 30.139 30.136 30.154 30.134 30.104 30.131 30.134 30.124 30.081 30.054 30.094 30.089 30.076 30.064 30.064 30.039 30.051 30.069 30.071 30.096 30.084 30.079 30.066 30.074 30.081 30.056 30.041 30.034 29.976 29.946 29.981 29.969 30.009 30.031 30.104 30.074 30.081 30.064 30.074 30.059 30.054 30.056 30.029 30.044 30.059 30.014 30.024 30.074 30.089 30.024 29.959 30.009 30.024 29.981 29.981 30.021 30.031 29.999 30.031 30.041 30.091 30.101 30.171 30.274 30.401 30.506 30.566 30.579 30.601 30.641 30.639 30.654 30.684 30.651 30.656 30.661 30.634 30.564 30.496 30.514 30.501 30.469 30.429 30.429 30.414 30.391 30.494 30.511 30.509 30.489 30.504 30.516 30.556 30.574 30.581 30.619 30.649 30.644 30.694 30.734 30.799 30.911 31.069 31.169 31.241 31.284 31.346 31.439 31.579 31.686 31.804 31.909 31.921 32.004 32.206 32.354 32.319 32.324 32.419 32.549 32.621 32.681 32.731 32.752 -9999 -9999 -9999 -9999 -9999 -9999 -9999 -9999 -9999 -9999 -9999 -9999 -9999 -9999 -9999 -9999 -9999 -9999 -9999 -9999 -9999 -9999 -9999 -9999 -9999 -9999 -9999 -9999 -9999 -9999 -9999 -9999 -9999 -9999 -9999 -9999 -9999 -9999 -9999 -9999 -9999 -9999 -9999 -9999 -9999 -9999 -9999 -9999 -9999 -9999 -9999 -9999 -9999 -9999 -9999 -9999 -9999 -9999 -9999 -9999 -9999 -9999 -9999 -9999 -9999 -9999 -9999 -9999 -9999 -9999 -9999 -9999 -9999 -9999 -9999 -9999 -9999 -9999 -9999 -9999 -9999 -9999 -9999 -9999 -9999 -9999 -9999 -9999 -9999 -9999 -9999 -9999 -9999 -9999 -9999 -9999 -9999 -9999 -9999 -9999 -9999 -9999 -9999 -9999 -9999 -9999 -9999 -9999 -9999 -9999 -9999 -9999
29.122 29.149 29.039 29.004 28.989 28.982 28.904 28.954 29.062 28.957 28.942 28.949 28.954 28.904 28.844 28.784 28.654 28.602 28.584 28.602 28.684 28.757 28.787 28.796 28.814 28.804 28.731 28.699 28.741 28.811 28.874 28.906 28.954 29.049 29.109 29.124 29.069 29.071 29.041 29.034 29.114 29.201 29.189 29.179 29.159 29.154 29.191 29.186 29.126 29.029 28.921 28.859 28.824 28.789 28.794 28.786 28.781 28.836 28.834 28.899 28.979 28.991 29.034 29.071 29.144 29.151 29.199 29.206 29.269 29.281 29.289 29.324 29.326 29.349 29.356 29.324 29.306 29.264 29.244 29.291 29.324 29.324 29.334 29.351 29.361 29.406 29.429 29.401 29.366 29.331 29.324 29.309 29.294 29.266 29.286 29.194 29.201 29.191 29.181 29.186 29.174 29.174 29.136 29.101 29.049 28.961 28.859 28.861 28.944 29.044 29.151 29.279 29.404 29.486 29.566 29.651 29.714 29.774 29.786 29.789 29.804 29.866 29.856 29.844 29.864 29.886 29.871 29.854 29.849 29.846 29.876 29.881 29.841 29.814 29.831 29.804 29.779 29.626 29.744 29.761 29.779 29.804 29.821 29.821 29.851 29.854 29.831 29.846 29.856 29.871 29.896 29.909 29.901 29.944 29.976 29.999 30.029 30.071 30.044 30.036 30.034 30.021 30.036 30.051 30.039 30.079 30.079 30.051 30.064 30.054 30.034 30.064 30.076 30.011 30.091 30.134 30.151 30.159 30.161 30.171 30.214 30.226 30.179 30.156 30.136 30.154 30.184 30.236 30.241 30.231 30.311 30.344 30.374 30.316 30.314 30.309 30.239 30.176 30.174 30.154 30.116 30.134 30.116 30.119 30.131 30.126 30.131 30.116 30.126 30.116 30.074 30.114 30.081 30.096 30.066 30.044 30.031 30.029 30.064 30.076 30.086 30.066 30.031 30.069 30.036 30.014 29.994 29.936 29.959 29.969 29.981 30.029 30.054 30.089 30.076 30.076 30.064 30.109 30.071 30.059 30.069 30.054 30.049 29.999 30.014 30.014 30.011 30.016 30.081 30.129 30.029 29.971 30.021 30.061 30.024 30.006 30.036 30.034 30.006 30.024 30.026 30.049 30.064 30.081 30.189 30.266 30.436 30.546 30.576 30.586 30.591 30.591 30.634 30.639 30.616 30.584 30.611 30.589 30.506 30.519 30.511 30.501 30.484 30.461 30.444 30.451 30.436 30.464 30.454 30.476 30.476 30.509 30.564 30.539 30.576 30.594 30.626 30.641 30.646 30.681 30.756 30.839 30.899 31.049 31.161 31.244 31.296 31.346 31.454 31.539 31.701 31.804 31.846 31.871 32.004 32.184 32.201 32.231 32.286 32.331 32.444 32.599 32.661 32.641 32.699 -9999 -9999 -9999 -9999 -9999 -9999 -9999 -9999 -9999 -9999 -9999 -9999 -9999 -9999 -9999 -9999 -9999 -9999 -9999 -9999 -9999 -9999 -9999 -9999 -9999 -9999 -9999 -9999 -9999 -9999 -9999 -9999 -9999 -9999 -9999 -9999 -9999 -9999 -9999 -9999 -9999 -9999 -9999 -9999 -9999 -9999 -9999 -9999 -9999 -9999 -9999 -9999 -9999 -9999 -9999 -9999 -9999 -9999 -9999 -9999 -9999 -9999 -9999 -9999 -9999 -9999 -9999 -9999 -9999 -9999 -9999 -9999 -9999 -9999 -9999 -9999 -9999 -9999 -9999 -9999 -9999 -9999 -9999 -9999 -9999 -9999 -9999 -9999 -9999 -9999 -9999 -9999 -9999 -9999 -9999 -9999 -9999 -9999 -9999 -9999 -9999 -9999 -9999 -9999 -9999 -9999 -9999 -9999 -9999 -9999 -9999 -9999
29.134 29.104 29.054 28.992 28.937 28.934 28.914 28.987 29.029 28.952 28.927 28.984 28.982 28.907 28.782 28.644 28.572 28.592 28.577 28.639 28.744 28.822 28.837 28.824 28.816 28.819 28.786 28.689 28.724 28.816 28.876 28.934 29.021 29.054 29.149 29.149 29.114 29.101 29.051 29.019 29.094 29.189 29.244 29.196 29.206 29.201 29.226 29.246 29.216 29.164 29.094 28.981 28.911 28.884 28.824 28.851 28.851 28.879 28.849 28.904 28.961 28.991 29.054 29.149 29.244 29.271 29.229 29.236 29.254 29.314 29.306 29.321 29.344 29.351 29.374 29.384 29.324 29.274 29.261 29.281 29.289 29.319 29.344 29.376 29.404 29.444 29.481 29.461 29.431 29.404 29.364 29.356 29.326 29.331 29.329 29.331 29.314 29.291 29.274 29.256 29.216 29.231 29.096 28.931 28.961 28.979 29.009 29.034 29.061 29.126 29.209 29.306 29.384 29.474 29.554 29.679 29.756 29.766 29.776 29.751 29.789 29.864 29.851 29.836 29.849 29.869 29.839 29.854 29.876 29.886 29.851 29.854 29.861 29.834 29.841 29.799 29.761 29.634 29.694 29.721 29.749 29.781 29.781 29.779 29.789 29.819 29.799 29.816 29.849 29.861 29.921 29.946 29.959 29.981 30.001 30.021 30.006 30.046 30.064 30.049 30.039 30.021 30.026 30.049 30.041 30.049 30.041 30.031 30.064 30.091 30.046 30.101 30.126 30.054 29.981 30.144 30.186 30.201 30.191 30.206 30.206 30.196 30.199 30.184 30.216 30.226 30.229 30.246 30.239 30.219 30.284 30.366 30.401 30.384 30.356 30.311 30.234 30.174 30.151 30.111 30.116 30.136 30.119 30.121 30.166 30.139 30.119 30.129 30.116 30.116 30.101 30.106 30.111 30.066 30.076 30.011 29.991 29.969 30.031 30.056 30.051 30.034 30.011 30.019 29.966 29.939 29.939 29.999 30.034 30.041 30.061 30.081 30.091 30.091 30.119 30.086 30.099 30.129 30.089 30.074 30.044 30.016 30.021 30.026 30.031 30.026 30.001 30.006 30.059 30.109 30.051 29.966 30.004 30.066 30.059 30.041 30.069 30.069 30.071 30.069 30.079 30.081 30.069 30.096 30.131 30.191 30.371 30.524 30.556 30.576 30.561 30.556 30.576 30.556 30.586 30.534 30.544 30.484 30.451 30.511 30.509 30.479 30.459 30.494 30.464 30.456 30.444 30.441 30.491 30.466 30.486 30.519 30.556 30.531 30.574 30.571 30.606 30.656 30.646 30.694 30.741 30.851 30.931 31.011 31.179 31.211 31.319 31.386 31.409 31.491 31.629 31.689 31.711 31.729 31.844 31.929 31.996 32.139 32.216 32.259 32.359 32.581 32.616 32.579 32.636 32.714 -9999 -9999 -9999 -9999 -9999 -9999 -9999 -9999 -9999 -9999 -9999 -9999 -9999 -9999 -9999 -9999 -9999 -9999 -9999 -9999 -9999 -9999 -9999 -9999 -9999 -9999 -9999 -9999 -9999 -9999 -9999 -9999 -9999 -9999 -9999 -9999 -9999 -9999 -9999 -9999 -9999 -9999 -9999 -9999 -9999 -9999 -9999 -9999 -9999 -9999 -9999 -9999 -9999 -9999 -9999 -9999 -9999 -9999 -9999 -9999 -9999 -9999 -9999 -9999 -9999 -9999 -9999 -9999 -9999 -9999 -9999 -9999 -9999 -9999 -9999 -9999 -9999 -9999 -9999 -9999 -9999 -9999 -9999 -9999 -9999 -9999 -9999 -9999 -9999 -9999 -9999 -9999 -9999 -9999 -9999 -9999 -9999 -9999 -9999 -9999 -9999 -9999 -9999 -9999 -9999 -9999 -9999 -9999 -9999 -9999 -9999
29.172 29.074 29.049 28.989 28.884 28.967 29.007 29.024 28.994 28.979 28.977 28.969 28.994 28.874 28.699 28.587 28.542 28.564 28.612 28.699 28.769 28.852 28.897 28.844 28.816 28.834 28.769 28.729 28.714 28.829 28.896 28.966 29.036 29.114 29.156 29.196 29.174 29.136 29.089 29.024 29.106 29.204 29.231 29.251 29.281 29.269 29.251 29.276 29.254 29.214 29.174 29.099 29.044 29.014 28.979 28.954 28.961 28.966 28.991 29.021 29.036 29.026 29.119 29.171 29.224 29.261 29.254 29.284 29.294 29.319 29.334 29.336 29.349 29.354 29.379 29.371 29.326 29.256 29.244 29.269 29.296 29.346 29.361 29.399 29.426 29.434 29.454 29.461 29.436 29.424 29.411 29.396 29.419 29.384 29.381 29.374 29.369 29.314 29.239 29.181 29.201 29.249 29.141 29.174 29.174 29.181 29.139 29.114 29.104 29.181 29.251 29.341 29.404 29.491 29.584 29.664 29.761 29.781 29.829 29.806 29.769 29.844 29.839 29.881 29.859 29.881 29.841 29.834 29.861 29.884 29.881 29.894 29.834 29.816 29.786 29.779 29.754 29.639 29.674 29.691 29.686 29.731 29.764 29.771 29.749 29.746 29.771 29.799 29.861 29.896 29.911 29.929 29.981 30.004 30.006 30.001 29.989 30.061 30.094 30.064 30.026 29.991 29.991 30.001 30.031 30.009 30.031 30.039 30.051 30.064 30.059 30.116 30.099 30.084 29.964 30.081 30.146 30.229 30.196 30.191 30.229 30.229 30.221 30.171 30.211 30.236 30.184 30.159 30.191 30.219 30.274 30.326 30.371 30.356 30.344 30.336 30.234 30.156 30.139 30.121 30.114 30.166 30.144 30.136 30.181 30.161 30.116 30.121 30.124 30.104 30.099 30.126 30.109 30.079 30.089 30.069 30.001 29.991 29.979 30.004 30.031 30.004 29.954 29.944 29.959 30.016 30.064 30.069 30.089 30.099 30.114 30.119 30.109 30.099 30.114 30.091 30.084 30.104 30.071 30.066 30.049 30.049 30.079 30.039 30.019 30.051 30.019 29.991 29.994 30.106 30.089 29.944 29.984 30.011 30.016 30.044 30.071 30.071 30.066 30.079 30.081 30.089 30.071 30.099 30.129 30.201 30.279 30.454 30.494 30.524 30.534 30.521 30.499 30.471 30.504 30.476 30.461 30.451 30.424 30.446 30.461 30.449 30.421 30.494 30.449 30.419 30.454 30.476 30.504 30.489 30.516 30.554 30.574 30.541 30.576 30.629 30.604 30.639 30.686 30.749 30.754 30.849 30.929 31.039 31.174 31.184 31.264 31.346 31.391 31.431 31.526 31.616 31.601 31.631 31.666 31.764 31.934 32.034 32.114 32.191 32.296 32.519 32.581 32.559 32.589 32.636 -9999 -9999 -9999 -9999 -9999 -9999 -9999 -9999 -9999 -9999 -9999 -9999 -9999 -9999 -9999 -9999 -9999 -9999 -9999 -9999 -9999 -9999 -9999 -9999 -9999 -9999 -9999 -9999 -9999 -9999 -9999 -9999 -9999 -9999 -9999 -9999 -9999 -9999 -9999 -9999 -9999 -9999 -9999 -9999 -9999 -9999 -9999 -9999 -9999 -9999 -9999 -9999 -9999 -9999 -9999 -9999 -9999 -9999 -9999 -9999 -9999 -9999 -9999 -9999 -9999 -9999 -9999 -9999 -9999 -9999 -9999 -9999 -9999 -9999 -9999 -9999 -9999 -9999 -9999 -9999 -9999 -9999 -9999 -9999 -9999 -9999 -9999 -9999 -9999 -9999 -9999 -9999 -9999 -9999 -9999 -9999 -9999 -9999 -9999 -9999 -9999 -9999 -9999 -9999 -9999 -9999 -9999 -9999 -9999 -9999 -9999
29.197 29.114 29.017 28.967 28.939 29.004 29.069 29.049 29.007 29.079 29.102 29.047 28.929 28.847 28.662 28.527 28.534 28.589 28.627 28.702 28.797 28.847 28.889 28.876 28.841 28.804 28.766 28.731 28.759 28.836 28.986 29.034 29.086 29.146 29.166 29.194 29.191 29.189 29.139 29.069 29.106 29.184 29.236 29.271 29.336 29.314 29.281 29.261 29.276 29.239 29.196 29.179 29.131 29.126 29.114 29.106 29.111 29.086 29.131 29.109 29.096 29.091 29.134 29.191 29.251 29.271 29.274 29.279 29.306 29.321 29.349 29.371 29.346 29.346 29.364 29.349 29.341 29.296 29.246 29.276 29.314 29.349 29.369 29.396 29.399 29.411 29.441 29.424 29.439 29.489 29.499 29.489 29.456 29.414 29.414 29.394 29.286 29.189 29.144 29.139 29.271 29.341 29.334 29.316 29.309 29.264 29.216 29.221 29.199 29.229 29.291 29.351 29.396 29.499 29.584 29.669 29.751 29.781 29.816 29.804 29.811 29.851 29.894 29.891 29.889 29.851 29.869 29.841 29.839 29.854 29.859 29.876 29.879 29.856 29.789 29.759 29.721 29.626 29.671 29.694 29.716 29.731 29.746 29.741 29.734 29.769 29.749 29.786 29.864 29.911 29.919 29.959 29.956 29.991 30.019 30.004 30.011 30.041 30.046 30.016 30.019 30.004 29.984 29.991 30.009 30.016 30.066 30.109 30.104 30.091 30.086 30.101 30.111 30.139 30.059 29.989 30.116 30.216 30.184 30.199 30.256 30.229 30.196 30.144 30.181 30.156 30.159 30.179 30.199 30.236 30.249 30.321 30.319 30.336 30.346 30.301 30.249 30.146 30.114 30.111 30.156 30.224 30.159 30.201 30.209 30.169 30.144 30.091 30.094 30.099 30.119 30.114 30.099 30.084 30.089 30.066 29.979 29.991 29.971 30.001 30.006 29.964 29.979 29.986 30.006 30.079 30.109 30.109 30.121 30.111 30.109 30.124 30.119 30.111 30.069 30.079 30.061 30.071 30.064 30.066 30.061 30.066 30.059 30.041 30.034 30.039 30.014 29.984 29.984 30.069 30.079 29.941 29.971 30.016 30.011 30.026 30.056 30.061 30.074 30.089 30.089 30.096 30.094 30.106 30.139 30.196 30.254 30.391 30.434 30.479 30.504 30.489 30.489 30.479 30.446 30.431 30.419 30.384 30.411 30.409 30.409 30.441 30.409 30.461 30.431 30.404 30.391 30.459 30.489 30.501 30.506 30.546 30.609 30.594 30.581 30.596 30.614 30.654 30.676 30.754 30.771 30.864 30.964 31.069 31.141 31.166 31.261 31.289 31.346 31.379 31.444 31.589 31.621 31.611 31.621 31.701 31.866 31.931 31.996 32.131 32.239 32.349 32.451 32.494 32.556 32.579 32.684 -9999 -9999 -9999 -9999 -9999 -9999 -9999 -9999 -9999 -9999 -9999 -9999 -9999 -9999 -9999 -9999 -9999 -9999 -9999 -9999 -9999 -9999 -9999 -9999 -9999 -9999 -9999 -9999 -9999 -9999 -9999 -9999 -9999 -9999 -9999 -9999 -9999 -9999 -9999 -9999 -9999 -9999 -9999 -9999 -9999 -9999 -9999 -9999 -9999 -9999 -9999 -9999 -9999 -9999 -9999 -9999 -9999 -9999 -9999 -9999 -9999 -9999 -9999 -9999 -9999 -9999 -9999 -9999 -9999 -9999 -9999 -9999 -9999 -9999 -9999 -9999 -9999 -9999 -9999 -9999 -9999 -9999 -9999 -9999 -9999 -9999 -9999 -9999 -9999 -9999 -9999 -9999 -9999 -9999 -9999 -9999 -9999 -9999 -9999 -9999 -9999 -9999 -9999 -9999 -9999 -9999 -9999 -9999 -9999 -9999
29.277 29.162 29.042 28.994 28.972 29.009 29.107 29.057 29.024 29.102 29.227 29.182 28.889 28.744 28.642 28.529 28.502 28.592 28.662 28.754 28.827 28.889 28.907 28.879 28.824 28.764 28.766 28.774 28.821 28.954 29.026 29.081 29.124 29.146 29.164 29.176 29.184 29.164 29.114 29.079 29.096 29.191 29.229 29.249 29.324 29.324 29.301 29.256 29.299 29.266 29.226 29.196 29.181 29.196 29.179 29.204 29.194 29.196 29.204 29.166 29.104 29.051 29.139 29.211 29.256 29.274 29.256 29.296 29.311 29.351 29.376 29.349 29.351 29.326 29.314 29.341 29.351 29.316 29.271 29.279 29.279 29.341 29.344 29.406 29.434 29.439 29.469 29.471 29.481 29.506 29.499 29.469 29.424 29.371 29.386 29.374 29.266 29.226 29.331 29.396 29.436 29.419 29.406 29.374 29.381 29.344 29.326 29.296 29.289 29.289 29.316 29.374 29.439 29.536 29.629 29.714 29.749 29.791 29.824 29.901 29.899 29.876 29.909 29.881 29.906 29.861 29.856 29.849 29.836 29.864 29.861 29.869 29.849 29.821 29.799 29.774 29.714 29.591 29.666 29.714 29.701 29.711 29.741 29.749 29.751 29.774 29.759 29.786 29.864 29.891 29.904 29.949 29.966 29.991 30.009 29.999 30.026 30.026 30.034 30.019 30.046 30.004 29.979 29.984 30.021 30.101 30.186 30.186 30.179 30.161 30.144 30.119 30.149 30.171 30.151 30.021 30.056 30.174 30.226 30.226 30.229 30.219 30.164 30.156 30.176 30.214 30.159 30.186 30.201 30.216 30.236 30.279 30.326 30.339 30.336 30.311 30.219 30.146 30.159 30.191 30.206 30.229 30.216 30.204 30.179 30.171 30.141 30.116 30.131 30.101 30.101 30.089 30.079 30.061 30.054 30.029 29.971 29.999 29.996 29.989 30.009 29.979 29.994 29.994 30.054 30.069 30.091 30.116 30.124 30.116 30.099 30.104 30.119 30.091 30.071 30.084 30.086 30.081 30.071 30.084 30.069 30.061 30.039 30.046 30.046 30.044 30.024 29.999 30.029 30.084 30.111 29.944 29.956 30.016 30.014 30.041 30.046 30.066 30.071 30.089 30.109 30.134 30.089 30.079 30.159 30.199 30.241 30.291 30.366 30.434 30.479 30.436 30.439 30.426 30.381 30.379 30.399 30.374 30.411 30.411 30.404 30.406 30.401 30.416 30.386 30.401 30.436 30.449 30.504 30.489 30.496 30.529 30.594 30.591 30.591 30.621 30.659 30.689 30.686 30.746 30.764 30.821 30.959 31.066 31.151 31.199 31.226 31.266 31.321 31.356 31.381 31.454 31.541 31.604 31.589 31.649 31.706 31.874 31.951 32.051 32.156 32.266 32.354 32.434 32.481 32.521 32.661 -9999 -9999 -9999 -9999 -9999 -9999 -9999 -9999 -9999 -9999 -9999 -9999 -9999 -9999 -9999 -9999 -9999 -9999 -9999 -9999 -9999 -9999 -9999 -9999 -9999 -9999 -9999 -9999 -9999 -9999 -9999 -9999 -9999 -9999 -9999 -9999 -9999 -9999 -9999 -9999 -9999 -9999 -9999 -9999 -9999 -9999 -9999 -9999 -9999 -9999 -9999 -9999 -9999 -9999 -9999 -9999 -9999 -9999 -9999 -9999 -9999 -9999 -9999 -9999 -9999 -9999 -9999 -9999 -9999 -9999 -9999 -9999 -9999 -9999 -9999 -9999 -9999 -9999 -9999 -9999 -9999 -9999 -9999 -9999 -9999 -9999 -9999 -9999 -9999 -9999 -9999 -9999 -9999 -9999 -9999 -9999 -9999 -9999 -9999 -9999 -9999 -9999 -9999 -9999 -9999 -9999 -9999 -9999 -9999 -9999
29.069 29.169 29.039 28.947 28.964 28.989 29.074 29.062 29.052 29.104 29.272 29.149 28.892 28.739 28.667 28.544 28.484 28.594 28.667 28.772 28.824 28.882 28.857 28.841 28.806 28.771 28.771 28.804 28.851 28.979 29.004 29.066 29.136 29.146 29.184 29.194 29.216 29.211 29.151 29.141 29.116 29.184 29.214 29.221 29.259 29.281 29.276 29.254 29.279 29.276 29.246 29.236 29.236 29.261 29.266 29.244 29.196 29.164 29.199 29.226 29.174 29.094 29.109 29.184 29.226 29.259 29.261 29.286 29.314 29.306 29.346 29.374 29.354 29.329 29.334 29.366 29.359 29.306 29.244 29.231 29.286 29.291 29.344 29.389 29.459 29.479 29.524 29.514 29.459 29.444 29.481 29.464 29.419 29.366 29.371 29.414 29.436 29.499 29.531 29.514 29.471 29.446 29.416 29.429 29.431 29.426 29.399 29.394 29.381 29.399 29.404 29.429 29.499 29.584 29.634 29.709 29.771 29.806 29.839 29.931 29.911 29.871 29.889 29.874 29.871 29.879 29.861 29.876 29.846 29.836 29.846 29.846 29.844 29.826 29.796 29.759 29.671 29.639 29.649 29.674 29.674 29.711 29.759 29.736 29.756 29.746 29.724 29.776 29.874 29.924 29.939 29.946 29.939 29.969 30.001 29.996 29.989 30.009 30.021 30.059 30.044 29.979 29.959 29.941 30.001 30.084 30.176 30.154 30.154 30.164 30.166 30.189 30.171 30.169 30.146 30.156 30.081 30.174 30.181 30.156 30.146 30.131 30.151 30.161 30.191 30.171 30.121 30.181 30.189 30.254 30.289 30.349 30.376 30.351 30.346 30.291 30.184 30.096 30.179 30.206 30.221 30.211 30.201 30.201 30.171 30.159 30.124 30.131 30.096 30.056 30.054 30.059 30.049 30.039 30.006 29.994 29.969 29.991 29.974 29.971 29.979 29.984 29.994 30.004 30.024 30.019 30.059 30.091 30.119 30.096 30.106 30.094 30.101 30.094 30.071 30.081 30.094 30.079 30.109 30.106 30.081 30.074 30.051 30.069 30.044 30.019 30.001 29.996 30.031 30.076 30.079 29.944 29.944 30.016 30.044 30.046 30.056 30.066 30.086 30.106 30.106 30.119 30.136 30.111 30.166 30.199 30.211 30.214 30.261 30.371 30.394 30.364 30.396 30.394 30.379 30.346 30.376 30.349 30.359 30.349 30.374 30.416 30.414 30.411 30.421 30.429 30.446 30.456 30.489 30.501 30.509 30.569 30.611 30.596 30.631 30.624 30.659 30.734 30.724 30.704 30.714 30.676 30.809 30.974 31.096 31.156 31.171 31.216 31.279 31.329 31.386 31.411 31.459 31.524 31.599 31.636 31.696 31.791 31.879 31.956 32.074 32.169 32.314 32.354 32.409 32.454 32.604 32.594 -9999 -9999 -9999 -9999 -9999 -9999 -9999 -9999 -9999 -9999 -9999 -9999 -9999 -9999 -9999 -9999 -9999 -9999 -9999 -9999 -9999 -9999 -9999 -9999 -9999 -9999 -9999 -9999 -9999 -9999 -9999 -9999 -9999 -9999 -9999 -9999 -9999 -9999 -9999 -9999 -9999 -9999 -9999 -9999 -9999 -9999 -9999 -9999 -9999 -9999 -9999 -9999 -9999 -9999 -9999 -9999 -9999 -9999 -9999 -9999 -9999 -9999 -9999 -9999 -9999 -9999 -9999 -9999 -9999 -9999 -9999 -9999 -9999 -9999 -9999 -9999 -9999 -9999 -9999 -9999 -9999 -9999 -9999 -9999 -9999 -9999 -9999 -9999 -9999 -9999 -9999 -9999 -9999 -9999 -9999 -9999 -9999 -9999 -9999 -9999 -9999 -9999 -9999 -9999 -9999 -9999 -9999 -9999 -9999
28.869 29.119 29.064 28.979 28.927 28.992 29.017 29.072 29.102 29.157 29.152 29.034 28.987 28.802 28.687 28.582 28.549 28.589 28.667 28.754 28.779 28.799 28.789 28.821 28.799 28.804 28.761 28.801 28.906 29.014 29.019 29.066 29.104 29.131 29.186 29.204 29.241 29.229 29.179 29.136 29.081 29.141 29.231 29.234 29.259 29.259 29.276 29.281 29.264 29.271 29.266 29.289 29.286 29.314 29.289 29.251 29.226 29.166 29.199 29.256 29.246 29.119 29.116 29.166 29.206 29.259 29.304 29.301 29.294 29.314 29.379 29.351 29.339 29.346 29.331 29.321 29.311 29.279 29.226 29.239 29.254 29.309 29.329 29.409 29.466 29.484 29.466 29.469 29.429 29.366 29.411 29.469 29.454 29.504 29.559 29.569 29.571 29.569 29.536 29.519 29.514 29.506 29.499 29.496 29.484 29.451 29.466 29.471 29.464 29.454 29.446 29.474 29.509 29.579 29.636 29.706 29.764 29.841 29.896 29.916 29.891 29.869 29.881 29.881 29.871 29.876 29.874 29.869 29.846 29.869 29.876 29.886 29.866 29.834 29.799 29.736 29.619 29.619 29.671 29.684 29.676 29.666 29.724 29.756 29.756 29.746 29.756 29.821 29.866 29.934 29.966 29.939 29.974 29.969 29.984 29.961 29.959 29.994 29.999 29.999 29.984 29.974 29.939 29.939 29.956 30.006 30.101 30.106 30.091 30.096 30.121 30.186 30.189 30.196 30.189 30.199 30.096 30.061 30.101 30.154 30.179 30.201 30.196 30.209 30.186 30.169 30.186 30.241 30.246 30.299 30.331 30.356 30.336 30.309 30.321 30.314 30.224 30.154 30.156 30.156 30.169 30.151 30.184 30.174 30.154 30.146 30.106 30.101 30.094 30.054 30.046 30.059 30.009 29.994 29.999 29.969 29.961 29.984 29.949 30.001 29.976 29.974 29.964 29.989 29.989 30.021 30.039 30.094 30.084 30.051 30.091 30.106 30.079 30.091 30.084 30.091 30.096 30.081 30.071 30.074 30.071 30.049 30.049 30.059 30.054 30.061 30.031 30.026 30.039 30.071 30.074 29.979 29.911 30.009 30.046 30.064 30.051 30.059 30.106 30.149 30.141 30.116 30.131 30.136 30.134 30.194 30.204 30.209 30.254 30.291 30.324 30.321 30.356 30.349 30.316 30.309 30.326 30.339 30.354 30.384 30.389 30.436 30.444 30.421 30.404 30.446 30.459 30.464 30.476 30.484 30.514 30.549 30.599 30.616 30.656 30.626 30.609 30.691 30.774 30.746 30.704 30.671 30.769 30.816 30.931 31.046 31.096 31.146 31.229 31.294 31.336 31.376 31.389 31.464 31.486 31.531 31.596 31.671 31.816 31.851 31.974 32.129 32.274 32.244 32.241 32.299 32.476 32.496 32.415 -9999 -9999 -9999 -9999 -9999 -9999 -9999 -9999 -9999 -9999 -9999 -9999 -9999 -9999 -9999 -9999 -9999 -9999 -9999 -9999 -9999 -9999 -9999 -9999 -9999 -9999 -9999 -9999 -9999 -9999 -9999 -9999 -9999 -9999 -9999 -9999 -9999 -9999 -9999 -9999 -9999 -9999 -9999 -9999 -9999 -9999 -9999 -9999 -9999 -9999 -9999 -9999 -9999 -9999 -9999 -9999 -9999 -9999 -9999 -9999 -9999 -9999 -9999 -9999 -9999 -9999 -9999 -9999 -9999 -9999 -9999 -9999 -9999 -9999 -9999 -9999 -9999 -9999 -9999 -9999 -9999 -9999 -9999 -9999 -9999 -9999 -9999 -9999 -9999 -9999 -9999 -9999 -9999 -9999 -9999 -9999 -9999 -9999 -9999 -9999 -9999 -9999 -9999 -9999 -9999 -9999 -9999 -9999
28.782 29.049 29.107 28.967 28.979 29.057 29.027 29.074 29.112 29.154 29.132 29.027 28.979 28.787 28.707 28.579 28.582 28.602 28.724 28.772 28.757 28.819 28.779 28.794 28.774 28.744 28.749 28.814 28.969 29.039 29.046 29.094 29.119 29.154 29.166 29.189 29.206 29.216 29.189 29.094 29.096 29.164 29.266 29.274 29.271 29.266 29.271 29.301 29.339 29.346 29.299 29.291 29.271 29.264 29.266 29.274 29.231 29.236 29.189 29.199 29.226 29.166 29.136 29.199 29.246 29.254 29.294 29.281 29.301 29.319 29.329 29.326 29.341 29.314 29.284 29.274 29.299 29.264 29.231 29.269 29.291 29.321 29.366 29.396 29.424 29.406 29.389 29.401 29.381 29.339 29.459 29.589 29.604 29.636 29.644 29.619 29.621 29.634 29.584 29.554 29.569 29.526 29.531 29.529 29.531 29.561 29.581 29.564 29.529 29.514 29.509 29.499 29.519 29.569 29.649 29.709 29.794 29.876 29.924 29.961 29.951 29.886 29.876 29.886 29.886 29.869 29.906 29.891 29.839 29.851 29.859 29.866 29.854 29.856 29.854 29.731 29.624 29.666 29.691 29.671 29.714 29.709 29.701 29.726 29.756 29.779 29.811 29.839 29.899 29.934 29.924 29.941 29.936 29.956 29.954 29.959 29.956 29.994 29.974 29.964 29.959 29.929 29.924 29.889 29.906 29.931 29.979 30.024 30.039 30.076 30.086 30.139 30.156 30.174 30.129 30.119 30.114 30.006 30.104 30.196 30.224 30.224 30.224 30.279 30.256 30.229 30.226 30.274 30.311 30.341 30.316 30.306 30.269 30.221 30.241 30.279 30.281 30.254 30.146 30.111 30.136 30.156 30.136 30.131 30.139 30.094 30.079 30.081 30.069 30.041 30.041 30.051 30.016 29.954 29.966 29.984 29.981 29.976 29.946 29.954 29.969 29.971 29.969 29.981 29.984 29.994 30.026 30.041 30.036 30.039 30.064 30.111 30.104 30.084 30.081 30.076 30.089 30.054 30.059 30.061 30.049 30.051 30.054 30.034 30.044 30.069 30.051 30.054 30.091 30.139 30.129 30.011 29.976 30.071 30.099 30.059 30.084 30.114 30.116 30.141 30.156 30.154 30.164 30.134 30.139 30.194 30.166 30.196 30.219 30.239 30.281 30.294 30.306 30.311 30.321 30.324 30.361 30.334 30.261 30.379 30.421 30.464 30.454 30.444 30.454 30.466 30.454 30.451 30.489 30.466 30.506 30.529 30.546 30.569 30.611 30.609 30.691 30.691 30.724 30.744 30.734 30.711 30.756 30.819 30.874 30.961 30.979 31.046 31.136 31.244 31.241 31.299 31.326 31.316 31.376 31.421 31.544 31.561 31.666 31.751 31.836 31.966 32.034 32.001 32.064 32.134 32.301 32.379 32.429 -9999 -9999 -9999 -9999 -9999 -9999 -9999 -9999 -9999 -9999 -9999 -9999 -9999 -9999 -9999 -9999 -9999 -9999 -9999 -9999 -9999 -9999 -9999 -9999 -9999 -9999 -9999 -9999 -9999 -9999 -9999 -9999 -9999 -9999 -9999 -9999 -9999 -9999 -9999 -9999 -9999 -9999 -9999 -9999 -9999 -9999 -9999 -9999 -9999 -9999 -9999 -9999 -9999 -9999 -9999 -9999 -9999 -9999 -9999 -9999 -9999 -9999 -9999 -9999 -9999 -9999 -9999 -9999 -9999 -9999 -9999 -9999 -9999 -9999 -9999 -9999 -9999 -9999 -9999 -9999 -9999 -9999 -9999 -9999 -9999 -9999 -9999 -9999 -9999 -9999 -9999 -9999 -9999 -9999 -9999 -9999 -9999 -9999 -9999 -9999 -9999 -9999 -9999 -9999 -9999 -9999 -9999 -9999
28.677 28.957 29.107 29.039 29.004 29.044 29.039 29.062 29.099 29.139 29.104 29.039 28.934 28.857 28.674 28.604 28.594 28.632 28.724 28.797 28.794 28.809 28.792 28.759 28.769 28.749 28.754 28.831 28.969 29.049 29.091 29.131 29.169 29.166 29.174 29.176 29.204 29.216 29.206 29.094 29.089 29.186 29.276 29.286 29.289 29.289 29.299 29.321 29.324 29.354 29.331 29.294 29.261 29.271 29.266 29.286 29.281 29.294 29.274 29.236 29.231 29.196 29.136 29.166 29.286 29.274 29.281 29.309 29.351 29.319 29.286 29.254 29.254 29.231 29.196 29.254 29.289 29.324 29.291 29.296 29.321 29.331 29.306 29.281 29.249 29.209 29.301 29.391 29.464 29.566 29.619 29.629 29.639 29.641 29.641 29.644 29.639 29.664 29.629 29.586 29.581 29.546 29.569 29.594 29.611 29.626 29.619 29.621 29.576 29.551 29.526 29.509 29.529 29.586 29.651 29.711 29.806 29.886 29.924 29.936 29.949 29.869 29.841 29.914 29.891 29.886 29.871 29.876 29.856 29.849 29.861 29.839 29.876 29.881 29.844 29.704 29.671 29.684 29.661 29.701 29.696 29.689 29.749 29.761 29.761 29.749 29.821 29.859 29.899 29.926 29.941 29.929 29.959 29.929 29.901 29.939 29.929 29.964 29.929 29.941 29.926 29.891 29.869 29.849 29.874 29.889 29.916 29.969 29.949 29.946 29.996 30.069 30.099 30.096 30.104 30.131 30.171 30.099 30.046 30.226 30.236 30.231 30.244 30.291 30.309 30.314 30.296 30.266 30.254 30.279 30.264 30.246 30.214 30.209 30.214 30.249 30.244 30.269 30.226 30.121 30.091 30.104 30.071 30.049 30.051 30.019 30.049 30.034 30.041 29.994 29.986 29.986 29.969 29.931 29.966 29.946 29.961 29.951 29.926 29.939 29.939 29.954 29.971 29.996 29.974 29.971 30.009 30.011 30.031 30.054 30.069 30.119 30.101 30.094 30.109 30.119 30.101 30.056 30.059 30.079 30.064 30.071 30.046 30.034 30.009 30.079 30.111 30.076 30.131 30.166 30.126 30.046 29.904 30.056 30.124 30.119 30.091 30.149 30.124 30.166 30.179 30.161 30.184 30.164 30.141 30.136 30.169 30.184 30.199 30.244 30.274 30.279 30.309 30.331 30.364 30.379 30.364 30.339 30.326 30.411 30.481 30.481 30.474 30.454 30.459 30.456 30.451 30.449 30.494 30.481 30.534 30.581 30.591 30.609 30.616 30.634 30.681 30.674 30.666 30.686 30.704 30.761 30.801 30.841 30.926 30.989 30.914 30.989 31.014 31.114 31.159 31.219 31.216 31.189 31.279 31.349 31.471 31.511 31.601 31.706 31.796 31.894 31.949 32.019 32.099 32.189 32.259 32.354 32.466 32.565 -9999 -9999 -9999 -9999 -9999 -9999 -9999 -9999 -9999 -9999 -9999 -9999 -9999 -9999 -9999 -9999 -9999 -9999 -9999 -9999 -9999 -9999 -9999 -9999 -9999 -9999 -9999 -9999 -9999 -9999 -9999 -9999 -9999 -9999 -9999 -9999 -9999 -9999 -9999 -9999 -9999 -9999 -9999 -9999 -9999 -9999 -9999 -9999 -9999 -9999 -9999 -9999 -9999 -9999 -9999 -9999 -9999 -9999 -9999 -9999 -9999 -9999 -9999 -9999 -9999 -9999 -9999 -9999 -9999 -9999 -9999 -9999 -9999 -9999 -9999 -9999 -9999 -9999 -9999 -9999 -9999 -9999 -9999 -9999 -9999 -9999 -9999 -9999 -9999 -9999 -9999 -9999 -9999 -9999 -9999 -9999 -9999 -9999 -9999 -9999 -9999 -9999 -9999 -9999 -9999 -9999 -9999
28.694 29.034 29.204 29.077 29.084 29.042 29.054 29.079 29.067 29.114 29.097 28.999 28.854 28.804 28.692 28.657 28.667 28.702 28.719 28.782 28.794 28.804 28.792 28.774 28.756 28.731 28.774 28.889 29.004 29.094 29.119 29.124 29.136 29.159 29.166 29.191 29.209 29.219 29.219 29.136 29.086 29.159 29.259 29.316 29.326 29.341 29.299 29.279 29.311 29.354 29.324 29.301 29.261 29.289 29.286 29.281 29.261 29.271 29.286 29.266 29.249 29.199 29.151 29.201 29.276 29.269 29.284 29.294 29.296 29.279 29.199 29.184 29.209 29.156 29.074 29.166 29.299 29.351 29.349 29.329 29.291 29.219 29.134 29.139 29.179 29.246 29.396 29.481 29.559 29.619 29.611 29.619 29.634 29.649 29.661 29.661 29.646 29.644 29.654 29.649 29.614 29.601 29.599 29.606 29.621 29.654 29.646 29.634 29.571 29.561 29.561 29.549 29.556 29.609 29.691 29.756 29.844 29.886 29.929 29.949 29.976 29.906 29.864 29.901 29.906 29.894 29.861 29.861 29.859 29.861 29.849 29.849 29.879 29.881 29.821 29.666 29.736 29.729 29.696 29.704 29.686 29.701 29.736 29.754 29.766 29.794 29.819 29.846 29.856 29.869 29.946 29.924 29.946 29.921 29.889 29.919 29.906 29.919 29.929 29.896 29.871 29.834 29.844 29.849 29.851 29.859 29.856 29.841 29.816 29.839 29.869 29.974 30.019 30.046 30.084 30.079 30.124 30.154 30.069 30.166 30.229 30.209 30.256 30.271 30.294 30.286 30.296 30.249 30.224 30.221 30.171 30.146 30.166 30.171 30.171 30.206 30.211 30.216 30.229 30.156 30.104 30.056 29.979 29.956 30.014 30.014 30.026 30.001 29.976 29.966 29.954 29.904 29.909 29.916 29.929 29.924 29.914 29.904 29.881 29.884 29.874 29.916 29.941 29.949 29.974 29.964 29.981 30.021 30.061 30.071 30.066 30.096 30.099 30.111 30.096 30.094 30.074 30.064 30.081 30.069 30.091 30.089 30.064 30.089 30.131 30.149 30.109 30.071 30.084 30.109 30.111 30.084 29.916 29.916 30.049 30.121 30.114 30.124 30.146 30.184 30.231 30.236 30.206 30.196 30.214 30.136 30.116 30.129 30.124 30.239 30.299 30.309 30.344 30.231 30.361 30.359 30.366 30.336 30.341 30.446 30.469 30.476 30.484 30.456 30.449 30.434 30.439 30.446 30.489 30.504 30.569 30.631 30.624 30.671 30.681 30.681 30.716 30.736 30.714 30.689 30.709 30.779 30.806 30.841 30.959 31.006 30.996 31.001 31.009 31.029 31.099 31.181 31.216 31.226 31.301 31.429 31.511 31.556 31.649 31.769 31.874 31.951 32.049 32.111 32.211 32.336 32.401 32.479 32.601 32.716 -9999 -9999 -9999 -9999 -9999 -9999 -9999 -9999 -9999 -9999 -9999 -9999 -9999 -9999 -9999 -9999 -9999 -9999 -9999 -9999 -9999 -9999 -9999 -9999 -9999 -9999 -9999 -9999 -9999 -9999 -9999 -9999 -9999 -9999 -9999 -9999 -9999 -9999 -9999 -9999 -9999 -9999 -9999 -9999 -9999 -9999 -9999 -9999 -9999 -9999 -9999 -9999 -9999 -9999 -9999 -9999 -9999 -9999 -9999 -9999 -9999 -9999 -9999 -9999 -9999 -9999 -9999 -9999 -9999 -9999 -9999 -9999 -9999 -9999 -9999 -9999 -9999 -9999 -9999 -9999 -9999 -9999 -9999 -9999 -9999 -9999 -9999 -9999 -9999 -9999 -9999 -9999 -9999 -9999 -9999 -9999 -9999 -9999 -9999 -9999 -9999 -9999 -9999 -9999 -9999 -9999 -9999
