ncols 442
nrows 32
xllcorner    429058
yllcorner    489446
cellsize     2
NODATA_value -9999
27.258 27.223 27.203 27.196 27.191 27.241 27.193 27.221 27.223 27.168 27.113 27.066 27.033 26.898 26.688 27.046 27.168 27.176 27.226 27.203 27.198 27.208 27.183 27.185 27.168 27.18 27.158 27.175 27.158 27.158 27.185 27.16 27.15 27.153 27.17 27.148 27.138 27.133 27.118 27.11 27.083 27.088 27.085 27.043 27.023 27.013 26.983 26.97 26.943 26.945 26.935 26.94 26.923 26.91 26.91 26.96 27.015 27.058 26.98 26.92 26.948 26.978 26.77 26.715 26.915 27.15 27.138 27.155 27.173 27.128 27.13 27.088 27.065 27.063 27.06 27.055 27.03 27.015 26.998 26.965 26.94 26.95 26.915 26.878 26.858 26.86 26.848 26.83 26.798 26.793 26.81 26.785 26.773 26.828 26.843 26.89 26.963 27.048 27.14 27.218 27.278 27.263 27.36 27.405 27.43 27.505 27.548 27.578 27.613 27.658 27.683 27.68 27.733 27.793 27.865 27.973 28.45 28.875 29.095 29.223 29.263 29.283 29.473 29.685 29.85 29.975 30.015 30.09 30.118 30.2 30.233 30.078 30.025 30.038 29.958 29.928 29.963 30.003 29.905 29.735 29.673 29.58 29.508 29.463 29.435 29.292 29.302 29.351 29.424 29.526 29.687 29.835 30.004 30.139 30.313 30.552 30.63 30.837 31.203 31.591 31.79 31.83 31.895 31.98 32.07 32.15 32.248 32.24 32.293 32.353 32.413 32.498 32.558 32.55 32.573 32.608 32.685 32.708 32.735 32.775 32.805 32.865 32.898 32.875 32.873 32.89 32.88 32.915 32.973 32.993 33.023 33.043 33.06 33.08 33.068 33.07 33.063 33.033 33.015 33.05 33.083 33.078 33.035 32.913 32.89 32.903 33.013 33.058 33.065 33.085 33.133 33.14 33.13 33.11 33.073 33.04 33.121 33.183 33.135 32.833 32.708 32.73 32.765 32.92 33.265 33.73 34.23 34.6 35.183 35.865 35.75 35.025 33.75 32.88 32.215 31.853 31.837 31.856 31.89 31.945 32.056 32.381 32.845 33.093 32.566 32.114 31.903 31.87 31.925 31.935 32.118 32.53 32.965 33.243 33.945 35.233 35.323 34.773 33.793 33.738 34.135 34.155 33.87 33.41 33.11 33.083 33.18 33.204 33.193 33.193 33.218 33.237 33.205 33.257 33.277 33.294 33.2 33.138 33.177 33.162 33.131 32.992 33.035 33.04 33.055 33.195 33.322 33.682 33.94 33.85 33.565 33.157 32.895 32.842 32.84 32.84 32.85 32.872 32.88 32.88 32.877 32.91 32.927 32.92 32.902 32.912 32.902 32.917 32.882 32.882 32.89 32.876 32.89 32.905 33.332 33.902 33.737 33.147 32.942 32.88 32.895 32.872 32.865 32.957 32.987 32.975 32.962 32.955 32.965 32.945 32.962 32.975 32.96 32.947 32.897 32.875 32.847 32.835 32.81 32.787 32.765 32.757 32.71 32.702 32.655 32.76 32.842 32.865 32.835 32.817 32.865 32.907 32.877 32.842 32.8 32.8 32.83 32.837 32.827 32.815 32.77 32.767 32.752 32.745 32.755 32.76 32.76 32.785 32.797 32.787 32.795 32.797 32.802 32.81 32.835 32.87 32.905 32.86 32.84 32.832 32.835 32.807 32.772 32.74 32.652 32.69 32.715 32.707 32.695 32.685 32.67 32.637 32.64 32.647 32.665 32.655 32.615 32.61 32.58 32.585 32.632 32.66 32.69 32.715 32.745 32.767 32.75 32.755 32.695 32.65 32.64 32.665 32.64 32.605 32.652 32.66 32.662 32.637 32.637 32.672 32.682 32.71 32.727 32.752 32.777 32.84 32.895 32.902 32.975 33.005 32.952 32.93 32.985 32.997 33.025 33.02 33.065 33.102 33.11 33.13 33.165 33.175
27.286 27.253 27.221 27.216 27.228 27.208 27.208 27.208 27.221 27.191 27.121 27.071 27.063 26.931 26.731 26.928 27.211 27.188 27.241 27.228 27.201 27.213 27.193 27.205 27.175 27.21 27.19 27.175 27.2 27.203 27.195 27.18 27.175 27.178 27.18 27.14 27.143 27.158 27.118 27.108 27.088 27.085 27.065 27.03 26.995 27.023 27.02 27.013 26.988 26.958 26.923 26.945 26.913 26.895 26.873 26.848 26.94 27.02 26.978 26.918 26.935 27.003 27.065 26.628 26.793 27.16 27.155 27.175 27.208 27.14 27.128 27.103 27.073 27.06 27.055 27.01 27 26.99 26.975 26.948 26.93 26.885 26.855 26.843 26.818 26.833 26.84 26.8 26.778 26.818 26.838 26.785 26.838 26.865 26.86 26.82 26.878 27.02 27.15 27.215 27.245 27.295 27.36 27.4 27.433 27.478 27.565 27.638 27.658 27.658 27.688 27.738 27.78 27.858 27.895 28.35 29.065 29.273 29.37 29.458 29.455 29.518 29.613 29.845 29.958 30.053 30.19 30.275 30.408 30.558 30.57 30.623 30.69 30.738 30.608 30.48 30.355 30.235 30.095 29.968 29.9 29.825 29.808 29.668 29.563 29.47 29.394 29.495 29.553 29.619 29.74 29.899 30.12 30.203 30.327 30.466 30.538 30.616 30.893 31.269 31.669 31.858 31.905 31.94 31.993 32.048 32.208 32.215 32.235 32.298 32.388 32.49 32.553 32.51 32.47 32.558 32.618 32.635 32.66 32.718 32.803 32.888 32.965 32.873 32.87 32.883 32.965 32.985 32.98 33.013 33.063 33.13 33.103 33.123 33.17 33.123 33.095 33.068 33.07 33.088 33.12 33.128 33.085 33.083 33.035 33.083 33.088 33.073 33.103 33.125 33.153 33.153 33.138 33.138 33.09 33.045 33.127 33.165 33.185 33.088 32.843 32.805 33.04 33.695 34.385 34.893 35.118 35.223 35.265 35.623 35.663 34.758 33.44 32.695 31.978 31.848 31.828 31.871 31.979 32.118 32.163 32.366 32.403 32.64 32.508 32.21 32.188 32.138 32.275 32.675 32.82 33.058 33.56 34.513 35.243 35.535 35.29 34.675 33.838 33.713 33.725 33.648 33.25 33.085 33.105 33.17 33.208 33.21 33.202 33.235 33.25 33.267 33.265 33.308 33.336 33.256 33.198 33.177 33.207 33.135 33.067 33.027 33.09 33.252 33.412 33.442 33.775 33.91 33.777 33.302 32.985 32.885 32.885 32.902 32.847 32.837 32.827 32.87 32.882 32.855 32.862 32.897 32.91 32.897 32.887 32.897 32.907 32.9 32.875 32.87 32.886 32.885 32.887 32.907 33.177 33.95 33.86 33.307 32.942 32.895 32.896 32.862 32.852 32.947 32.982 32.982 32.967 32.907 32.92 32.915 32.955 32.937 32.955 32.96 32.905 32.875 32.837 32.827 32.815 32.807 32.77 32.752 32.722 32.672 32.612 32.747 32.855 32.87 32.867 32.867 32.885 32.92 32.877 32.84 32.78 32.787 32.807 32.807 32.8 32.79 32.777 32.77 32.767 32.755 32.752 32.772 32.787 32.79 32.817 32.827 32.795 32.787 32.812 32.852 32.872 32.872 32.852 32.845 32.84 32.83 32.817 32.805 32.795 32.767 32.715 32.657 32.677 32.72 32.717 32.715 32.707 32.625 32.607 32.632 32.652 32.655 32.617 32.587 32.575 32.582 32.622 32.63 32.665 32.725 32.74 32.762 32.762 32.767 32.75 32.695 32.657 32.66 32.677 32.662 32.667 32.667 32.665 32.645 32.635 32.677 32.705 32.705 32.745 32.737 32.747 32.805 32.837 32.862 32.942 33.002 32.975 32.927 32.947 33.035 33.017 33.05 33.047 33.08 33.112 33.087 33.105 33.125
27.281 27.271 27.248 27.231 27.223 27.206 27.196 27.178 27.213 27.188 27.156 27.088 27.058 26.948 26.753 26.881 27.236 27.231 27.208 27.223 27.198 27.193 27.175 27.185 27.168 27.175 27.16 27.138 27.163 27.188 27.15 27.153 27.153 27.178 27.168 27.15 27.163 27.168 27.155 27.153 27.11 27.085 27.083 27.053 27.028 27.025 27.02 26.985 26.95 26.985 26.94 26.928 26.928 26.89 26.825 26.79 26.868 26.938 26.988 26.973 26.965 27.003 27.023 26.838 26.553 26.973 27.118 27.153 27.148 27.123 27.155 27.143 27.133 27.103 27.035 26.97 26.975 26.948 26.92 26.875 26.875 26.878 26.873 26.855 26.825 26.808 26.805 26.783 26.808 26.83 26.84 26.823 26.818 26.848 26.803 26.798 26.888 27.015 27.115 27.188 27.273 27.343 27.4 27.43 27.473 27.503 27.558 27.618 27.653 27.683 27.75 27.788 27.82 27.853 28.17 28.913 29.265 29.298 29.328 29.48 29.533 29.603 29.708 29.94 30.005 30.028 30.363 30.608 30.785 30.928 31.12 31.245 31.335 31.288 31.19 31.095 31 30.903 30.655 30.22 30.123 30.128 29.963 29.863 29.74 29.667 29.654 29.655 29.72 29.765 29.803 30.045 30.247 30.289 30.404 30.532 30.601 30.675 30.744 30.913 31.383 31.735 31.9 31.938 31.965 32.015 32.073 32.11 32.183 32.3 32.398 32.485 32.555 32.48 32.405 32.453 32.495 32.558 32.638 32.715 32.785 32.835 32.863 32.885 32.9 32.873 32.963 32.985 33.018 33.138 33.185 33.165 33.088 33.145 33.203 33.198 33.165 33.145 33.138 33.138 33.13 33.155 33.133 33.148 33.128 33.128 33.133 33.13 33.125 33.123 33.153 33.163 33.145 33.135 33.118 33.095 33.12 33.156 33.18 33.18 33.065 33.158 33.575 34.408 35.07 35.375 35.333 35.34 35.315 35.525 35.665 34.9 33.405 32.658 31.85 31.895 31.828 31.863 32.007 32.119 32.172 32.094 31.988 31.848 32.213 32.415 32.835 32.958 33.098 33.18 33.535 34.35 35.218 35.873 35.743 34.79 34.075 33.725 33.48 33.298 33.19 33.098 33.06 33.12 33.174 33.214 33.213 33.238 33.23 33.265 33.298 33.3 33.287 33.304 33.324 33.31 33.264 33.202 33.23 33.19 33.155 33.357 33.917 34.41 34.1 33.782 33.785 33.452 33.105 32.95 32.932 32.922 32.912 32.953 32.893 32.859 32.855 32.88 32.885 32.852 32.865 32.882 32.895 32.895 32.89 32.902 32.877 32.87 32.852 32.86 32.895 32.885 32.892 32.91 33.062 33.91 33.945 33.52 32.93 32.872 32.882 32.86 32.855 32.897 32.942 32.95 32.95 32.905 32.925 32.942 32.93 32.917 32.925 32.947 32.955 32.882 32.862 32.84 32.822 32.795 32.765 32.767 32.74 32.682 32.652 32.722 32.845 32.897 32.882 32.872 32.915 32.932 32.882 32.807 32.762 32.767 32.777 32.777 32.782 32.81 32.79 32.762 32.742 32.742 32.752 32.782 32.837 32.855 32.852 32.837 32.802 32.82 32.842 32.857 32.87 32.855 32.83 32.85 32.845 32.817 32.805 32.775 32.77 32.745 32.717 32.65 32.682 32.712 32.7 32.695 32.675 32.627 32.56 32.582 32.642 32.635 32.647 32.64 32.61 32.61 32.635 32.642 32.66 32.755 32.757 32.76 32.772 32.765 32.752 32.715 32.68 32.672 32.662 32.68 32.662 32.665 32.66 32.632 32.632 32.667 32.69 32.7 32.717 32.735 32.737 32.767 32.79 32.835 32.917 32.97 32.977 32.96 32.925 32.96 32.965 32.98 33.035 33.055 33.122 33.102 33.142 33.19
27.248 27.241 27.228 27.216 27.193 27.186 27.203 27.173 27.196 27.176 27.141 27.098 27.073 26.971 26.763 26.856 27.318 27.256 27.196 27.173 27.166 27.148 27.138 27.113 27.108 27.093 27.058 27.068 27.095 27.078 27.06 27.095 27.105 27.138 27.155 27.13 27.133 27.138 27.16 27.153 27.125 27.128 27.115 27.105 27.068 27.05 27.023 27 27 26.983 26.955 26.94 26.913 26.88 26.893 26.893 26.883 26.853 26.953 27.018 26.995 26.98 26.975 26.945 26.573 26.715 26.97 27.02 27.07 27.103 27.125 27.115 27.098 27.05 26.998 26.965 26.943 26.905 26.865 26.87 26.863 26.865 26.838 26.808 26.815 26.818 26.818 26.813 26.8 26.808 26.815 26.825 26.81 26.79 26.805 26.87 26.93 26.99 27.068 27.193 27.25 27.35 27.413 27.455 27.485 27.523 27.583 27.618 27.69 27.72 27.79 27.845 27.888 27.92 28.593 29.21 29.293 29.308 29.338 29.375 29.548 29.655 29.72 29.88 30.003 30.1 30.433 30.785 31.035 31.215 31.368 31.35 31.348 31.298 31.225 31.148 31.083 31.045 30.98 30.563 30.43 30.323 30.135 29.993 29.878 29.889 29.821 29.76 29.779 29.804 30.002 30.235 30.306 30.487 30.675 30.849 30.878 30.795 30.812 30.924 31.036 31.283 31.603 31.903 31.958 32.003 32.048 32.11 32.215 32.285 32.38 32.46 32.558 32.405 32.298 32.363 32.428 32.525 32.593 32.663 32.718 32.793 32.87 32.935 32.878 32.905 32.96 32.948 32.945 33.085 33.255 33.188 33.125 33.15 33.248 33.213 33.23 33.2 33.19 33.173 33.17 33.18 33.163 33.175 33.163 33.163 33.185 33.178 33.148 33.16 33.153 33.153 33.13 33.093 33.103 33.095 33.111 33.168 33.163 33.18 33.17 33.235 33.795 34.873 35.25 35.383 35.353 35.39 35.29 35.585 35.905 35.165 33.69 32.87 32.073 31.848 31.89 31.853 31.85 31.885 32.008 32.133 32.088 32.228 32.67 32.888 33.108 33.21 33.53 34.178 34.923 35.613 35.723 35.29 34.395 33.658 33.38 33.128 33.053 33.063 33.087 33.136 33.168 33.2 33.202 33.236 33.273 33.265 33.283 33.318 33.273 33.215 33.253 33.245 33.257 33.287 33.16 33.245 33.29 33.43 33.955 34.342 34.355 34.46 34.037 33.61 33.167 32.987 32.985 32.962 32.965 32.925 32.895 32.896 32.855 32.88 32.892 32.875 32.887 32.87 32.867 32.892 32.897 32.907 32.895 32.885 32.892 32.887 32.872 32.885 32.94 32.911 32.902 32.907 32.972 33.84 34.005 33.682 32.932 32.87 32.877 32.881 32.84 32.825 32.887 32.945 32.932 32.887 32.932 32.93 32.937 32.947 32.922 32.91 32.942 32.877 32.86 32.852 32.82 32.812 32.78 32.755 32.732 32.685 32.645 32.675 32.825 32.902 32.875 32.865 32.902 32.94 32.89 32.82 32.76 32.752 32.755 32.772 32.787 32.79 32.762 32.755 32.732 32.74 32.762 32.782 32.847 32.85 32.865 32.867 32.85 32.84 32.842 32.86 32.845 32.85 32.842 32.83 32.822 32.822 32.782 32.755 32.752 32.72 32.725 32.692 32.695 32.71 32.712 32.667 32.632 32.61 32.627 32.607 32.642 32.645 32.652 32.667 32.63 32.597 32.635 32.667 32.68 32.735 32.767 32.767 32.78 32.795 32.775 32.737 32.712 32.69 32.667 32.7 32.7 32.672 32.655 32.63 32.622 32.615 32.665 32.697 32.692 32.702 32.712 32.732 32.76 32.797 32.865 32.937 32.957 32.95 32.91 32.942 32.945 32.962 32.975 33.035 33.065 33.072 33.117 33.15
27.238 27.226 27.206 27.171 27.183 27.186 27.173 27.158 27.166 27.136 27.131 27.118 27.096 27.008 26.838 26.963 27.316 27.343 27.251 27.198 27.186 27.178 27.16 27.165 27.118 27.105 27.085 27.065 27.035 27.03 27.003 27.043 27.04 27.063 27.08 27.05 27.085 27.075 27.065 27.073 27.085 27.083 27.065 27.08 27.075 27.025 27.015 27.01 27.033 27.015 26.983 26.978 26.95 26.908 26.873 26.888 26.888 26.825 26.89 26.99 26.988 26.968 26.93 26.895 26.663 26.725 27.07 27.128 27.09 26.993 26.973 27.023 26.985 26.935 26.898 26.878 26.865 26.87 26.838 26.825 26.818 26.855 26.823 26.8 26.83 26.82 26.79 26.8 26.783 26.79 26.763 26.808 26.823 26.815 26.863 26.933 26.963 27.028 27.055 27.135 27.22 27.343 27.403 27.45 27.51 27.52 27.61 27.67 27.713 27.77 27.825 27.883 27.925 28.123 28.993 29.245 29.355 29.38 29.398 29.41 29.49 29.633 29.73 29.868 30.158 30.43 30.68 31.065 31.153 31.268 31.353 31.36 31.318 31.255 31.19 31.145 31.138 31.138 31.025 30.828 30.633 30.47 30.295 30.135 30.045 29.985 29.944 29.894 30.028 30.169 30.321 30.543 30.576 30.771 30.924 31.035 31.1 30.964 30.901 30.973 31.066 31.138 31.23 31.47 31.723 31.923 31.988 32.038 32.183 32.3 32.373 32.49 32.588 32.373 32.235 32.315 32.388 32.505 32.578 32.658 32.735 32.805 32.863 32.905 32.858 32.873 32.943 32.945 32.933 33.008 33.13 33.215 33.175 33.21 33.27 33.273 33.248 33.225 33.22 33.198 33.17 33.15 33.17 33.165 33.168 33.185 33.188 33.193 33.19 33.16 33.133 33.135 33.093 33.108 33.143 33.1 33.099 33.163 33.145 33.16 33.175 33.173 33.785 34.948 35.278 35.31 35.37 35.28 34.935 34.938 35.475 35.185 34.425 33.093 32.495 31.99 31.888 31.843 31.89 31.845 31.845 32.108 32.5 32.953 33.16 33.205 33.535 34.2 34.863 35.198 35.22 35.138 34.62 34.003 33.455 33.345 33.205 33.04 33.105 33.156 33.18 33.181 33.178 33.203 33.215 33.24 33.278 33.289 33.281 33.313 33.296 33.239 33.138 33.155 33.147 33.137 33.32 33.457 33.63 34.237 34.437 34.365 34.097 33.865 33.432 33.057 32.97 32.98 32.987 32.957 32.974 32.91 32.885 32.882 32.863 32.872 32.88 32.87 32.872 32.847 32.872 32.9 32.907 32.89 32.897 32.887 32.885 32.895 32.882 32.892 32.932 32.927 32.945 32.942 32.937 33.672 34.06 33.805 32.997 32.845 32.873 32.87 32.855 32.852 32.867 32.882 32.9 32.88 32.92 32.922 32.93 32.917 32.915 32.9 32.91 32.902 32.87 32.85 32.832 32.797 32.78 32.747 32.745 32.71 32.675 32.677 32.802 32.885 32.892 32.88 32.91 32.922 32.892 32.85 32.797 32.747 32.752 32.767 32.765 32.757 32.752 32.762 32.752 32.745 32.775 32.802 32.85 32.862 32.875 32.872 32.877 32.855 32.862 32.865 32.817 32.817 32.83 32.815 32.815 32.802 32.767 32.77 32.777 32.78 32.76 32.74 32.707 32.72 32.71 32.67 32.665 32.675 32.647 32.617 32.625 32.655 32.655 32.657 32.642 32.637 32.647 32.707 32.695 32.74 32.745 32.76 32.792 32.807 32.78 32.762 32.722 32.675 32.647 32.65 32.667 32.682 32.662 32.65 32.625 32.62 32.645 32.687 32.702 32.702 32.69 32.7 32.737 32.76 32.802 32.9 32.947 32.955 32.93 32.917 32.952 32.967 32.952 33.007 33.02 33.015 33.062 33.06
27.216 27.201 27.191 27.168 27.176 27.151 27.148 27.133 27.126 27.118 27.131 27.131 27.093 27.106 27.101 27.048 27.291 27.413 27.313 27.233 27.233 27.215 27.208 27.223 27.17 27.135 27.128 27.11 27.093 27.075 27.045 27.048 27.038 27.083 27.063 27.045 27.043 27.05 27.048 27.023 27.03 27.025 27.02 27.023 26.988 26.973 26.97 26.985 26.99 26.955 26.988 26.95 26.948 26.943 26.895 26.858 26.848 26.873 26.913 26.955 27.018 26.97 26.91 26.908 26.803 26.728 27.01 27.155 27.128 27.088 26.958 26.88 26.835 26.84 26.77 26.775 26.848 26.843 26.803 26.835 26.795 26.835 26.793 26.79 26.72 26.785 26.78 26.788 26.783 26.79 26.808 26.778 26.77 26.785 26.84 26.95 26.973 27.035 27.045 27.115 27.188 27.283 27.373 27.443 27.51 27.588 27.625 27.7 27.76 27.818 27.898 27.97 28.003 28.305 29.098 29.308 29.375 29.4 29.42 29.388 29.408 29.558 29.888 30.228 30.598 30.853 31.018 31.128 31.198 31.283 31.348 31.38 31.408 31.263 31.255 31.245 31.228 31.19 31.073 30.975 30.82 30.665 30.49 30.338 30.18 30.118 30.267 30.505 30.658 30.768 30.912 31.054 30.864 30.956 31 31.04 31.105 31.075 31.016 31.053 31.104 31.164 31.28 31.353 31.498 31.64 31.835 31.995 32.175 32.29 32.363 32.468 32.61 32.393 32.258 32.325 32.5 32.54 32.598 32.655 32.715 32.768 32.823 32.875 32.89 32.87 32.918 32.968 32.99 33.013 33.118 33.2 33.243 33.355 33.325 33.29 33.318 33.285 33.305 33.2 33.193 33.2 33.178 33.17 33.175 33.193 33.195 33.198 33.188 33.158 33.11 33.133 33.17 33.17 33.148 33.138 33.098 33.102 33.14 33.148 33.098 33.125 33.775 34.873 35.248 35.253 35.133 34.913 34.12 34.125 34.34 33.948 33.45 33.14 32.978 32.48 32.26 31.963 31.935 31.87 32.345 32.783 33.083 33.178 33.498 34.19 34.88 35.17 35.15 34.99 34.52 34.09 33.485 33.235 33.053 33.093 33.118 33.145 33.185 33.205 33.203 33.207 33.233 33.208 33.21 33.234 33.283 33.285 33.248 33.298 33.239 33.157 33.182 33.17 33.235 33.375 33.74 33.862 33.955 34.017 34.157 34.072 33.48 33.17 32.985 33.005 33 32.997 32.966 32.943 32.981 32.921 32.91 32.935 32.875 32.87 32.88 32.882 32.875 32.852 32.882 32.905 32.927 32.912 32.912 32.885 32.902 32.885 32.902 32.91 32.892 32.911 32.94 32.912 32.902 33.52 34.065 33.93 33.132 32.855 32.862 32.873 32.855 32.837 32.827 32.86 32.895 32.887 32.925 32.905 32.905 32.897 32.895 32.915 32.932 32.912 32.895 32.855 32.825 32.817 32.79 32.76 32.727 32.707 32.675 32.675 32.777 32.875 32.9 32.892 32.89 32.88 32.9 32.877 32.85 32.795 32.775 32.78 32.767 32.747 32.76 32.797 32.792 32.772 32.795 32.82 32.852 32.88 32.872 32.885 32.89 32.88 32.865 32.847 32.795 32.797 32.797 32.805 32.797 32.792 32.802 32.81 32.802 32.795 32.78 32.767 32.735 32.7 32.712 32.72 32.7 32.69 32.677 32.655 32.637 32.66 32.675 32.645 32.63 32.637 32.67 32.682 32.712 32.727 32.752 32.785 32.797 32.825 32.795 32.762 32.707 32.66 32.642 32.635 32.655 32.675 32.685 32.66 32.637 32.627 32.63 32.675 32.69 32.72 32.69 32.685 32.705 32.755 32.802 32.89 32.942 32.93 32.95 32.907 32.927 32.967 32.955 32.98 33.025 33.075 33.09 33.072
27.191 27.183 27.188 27.168 27.166 27.171 27.153 27.143 27.151 27.103 27.116 27.133 27.131 27.136 27.178 27.116 27.151 27.421 27.368 27.278 27.256 27.25 27.22 27.238 27.19 27.143 27.135 27.118 27.125 27.098 27.075 27.07 27.085 27.095 27.103 27.1 27.098 27.065 27.06 27.063 27.06 27.03 27.023 27.01 27.008 26.958 26.965 26.983 26.973 26.948 26.925 26.918 26.9 26.908 26.818 26.828 26.685 26.753 26.788 26.91 27.005 26.975 26.898 26.94 26.895 26.618 26.845 27.1 27.108 27.128 27.073 27.013 26.938 26.788 26.61 26.778 26.813 26.855 26.823 26.815 26.798 26.658 26.633 26.763 26.745 26.818 26.84 26.835 26.798 26.805 26.798 26.773 26.805 26.795 26.803 26.898 26.965 27.008 27.073 27.14 27.175 27.203 27.25 27.383 27.495 27.58 27.64 27.705 27.763 27.885 27.963 28.048 28.063 28.345 29.028 29.368 29.385 29.405 29.383 29.38 29.408 29.843 30.42 30.683 30.838 30.988 31.113 31.19 31.215 31.295 31.313 31.345 31.35 31.32 31.443 31.455 31.358 31.243 31.118 31.048 30.955 30.775 30.593 30.483 30.353 30.628 31.14 31.413 31.343 31.249 31.161 31.053 30.963 31.031 31.064 31.09 31.114 31.123 31.08 31.116 31.204 31.252 31.348 31.42 31.538 31.633 31.8 31.965 32.163 32.285 32.358 32.45 32.6 32.458 32.313 32.34 32.433 32.518 32.585 32.628 32.68 32.728 32.78 32.835 32.845 32.858 32.95 32.975 32.998 33.035 33.125 33.198 33.295 33.448 33.345 33.293 33.3 33.325 33.328 33.218 33.213 33.178 33.18 33.178 33.175 33.19 33.195 33.205 33.203 33.2 33.185 33.153 33.153 33.18 33.175 33.16 33.085 33.088 33.096 33.108 33.055 33.13 33.45 34.35 34.758 34.715 34.515 34.423 33.773 33.338 33.363 33.22 33.113 33.095 33.083 32.955 32.745 32.268 32.348 32.745 33.025 33.088 33.458 34.195 34.823 35.16 35.315 35.123 34.505 34.01 33.618 33.18 33.115 33.175 33.225 33.215 33.21 33.205 33.228 33.238 33.231 33.248 33.248 33.215 33.243 33.273 33.353 33.378 33.271 33.19 33.148 33.185 33.387 33.502 33.542 33.64 33.887 34.02 34.045 33.915 33.457 33.147 32.955 33.005 33.022 33.02 33.027 32.987 32.978 32.961 32.937 32.94 32.96 32.915 32.862 32.877 32.88 32.9 32.895 32.852 32.887 32.905 32.89 32.905 32.892 32.905 32.905 32.895 32.88 32.907 32.91 32.903 32.9 32.89 32.892 33.35 33.997 33.972 33.262 32.887 32.875 32.9 32.86 32.815 32.785 32.862 32.887 32.9 32.895 32.89 32.915 32.912 32.912 32.902 32.885 32.912 32.91 32.865 32.837 32.815 32.797 32.765 32.745 32.707 32.677 32.665 32.717 32.837 32.877 32.897 32.87 32.862 32.875 32.882 32.872 32.84 32.825 32.79 32.777 32.79 32.81 32.82 32.817 32.822 32.827 32.832 32.87 32.905 32.915 32.905 32.915 32.88 32.847 32.812 32.795 32.77 32.76 32.787 32.807 32.837 32.827 32.845 32.842 32.837 32.817 32.765 32.737 32.7 32.735 32.755 32.73 32.71 32.69 32.692 32.675 32.647 32.672 32.64 32.657 32.645 32.672 32.682 32.722 32.722 32.727 32.762 32.792 32.825 32.805 32.775 32.707 32.662 32.65 32.652 32.68 32.675 32.695 32.65 32.635 32.63 32.63 32.65 32.675 32.707 32.695 32.707 32.672 32.73 32.777 32.832 32.88 32.895 32.937 32.895 32.865 32.922 32.95 32.982 33.01 33.042 33.05 33.092
27.186 27.203 27.203 27.173 27.183 27.178 27.161 27.153 27.148 27.118 27.108 27.143 27.133 27.146 27.176 27.156 27.131 27.346 27.421 27.303 27.263 27.28 27.24 27.22 27.213 27.178 27.148 27.138 27.133 27.08 27.06 27.095 27.11 27.103 27.115 27.125 27.138 27.073 27.075 27.11 27.09 27.073 27.053 27.048 27 26.988 26.968 26.988 26.99 26.953 26.92 26.935 26.913 26.92 26.915 26.833 26.575 26.5 26.515 26.933 27.033 26.983 26.908 26.965 26.848 26.543 26.753 27.045 27.118 27.093 27.058 26.923 26.865 26.84 26.843 26.843 26.79 26.845 26.838 26.818 26.733 26.64 26.763 26.798 26.81 26.863 26.9 26.888 26.858 26.83 26.808 26.79 26.838 26.835 26.803 26.825 26.948 27.015 27.083 27.14 27.2 27.213 27.225 27.318 27.413 27.543 27.65 27.718 27.808 27.91 28.005 28.11 28.138 28.278 28.88 29.28 29.393 29.395 29.385 29.495 29.895 30.415 30.653 30.808 30.955 31.09 31.193 31.275 31.278 31.32 31.33 31.355 31.388 31.385 31.445 31.518 31.413 31.308 31.268 31.17 31.068 30.92 30.733 30.78 31.305 31.675 31.623 31.591 31.512 31.331 31.114 31.003 31.056 31.086 31.101 31.118 31.153 31.17 31.16 31.265 31.327 31.36 31.4 31.445 31.578 31.693 31.81 32 32.168 32.265 32.348 32.43 32.553 32.51 32.325 32.31 32.36 32.498 32.523 32.515 32.573 32.63 32.695 32.778 32.818 32.843 32.913 32.965 33.005 33.088 33.118 33.22 33.273 33.383 33.3 33.188 33.238 33.323 33.263 33.22 33.2 33.21 33.203 33.223 33.213 33.22 33.228 33.223 33.245 33.238 33.21 33.168 33.143 33.153 33.178 33.148 33.11 33.05 33.053 33.036 33.014 33.038 33.053 33.388 33.62 33.573 33.47 33.6 33.468 33.13 33.105 33.12 33.15 33.085 33.073 33.1 33.02 32.865 33.07 33.188 33.538 33.943 34.63 35.525 35.66 35.305 34.855 34.325 33.693 33.243 33.145 33.155 33.268 33.306 33.271 33.235 33.227 33.221 33.245 33.263 33.243 33.258 33.264 33.303 33.341 33.313 33.38 33.35 33.185 33.208 33.36 33.477 33.922 34.24 34.315 34.06 33.865 33.895 33.78 33.302 32.977 32.992 33.02 33.045 33.084 33.045 33.03 33.014 32.982 32.945 32.942 32.937 32.95 32.897 32.912 32.937 32.885 32.872 32.885 32.88 32.875 32.897 32.875 32.857 32.862 32.902 32.877 32.862 32.88 32.897 32.892 32.892 32.87 32.88 32.865 33.23 33.937 33.927 33.282 32.892 32.882 32.875 32.857 32.762 32.79 32.895 32.922 32.922 32.905 32.912 32.885 32.89 32.875 32.917 32.862 32.942 32.932 32.862 32.862 32.85 32.802 32.752 32.752 32.725 32.687 32.655 32.682 32.792 32.855 32.88 32.882 32.852 32.87 32.867 32.845 32.835 32.82 32.78 32.782 32.782 32.815 32.845 32.845 32.845 32.862 32.862 32.895 32.912 32.925 32.917 32.905 32.857 32.822 32.805 32.765 32.76 32.757 32.782 32.817 32.86 32.872 32.86 32.84 32.842 32.822 32.795 32.737 32.722 32.735 32.755 32.75 32.735 32.707 32.707 32.687 32.667 32.68 32.652 32.657 32.67 32.69 32.692 32.707 32.742 32.715 32.752 32.815 32.842 32.827 32.785 32.745 32.67 32.66 32.672 32.682 32.682 32.682 32.67 32.637 32.612 32.645 32.625 32.652 32.675 32.712 32.69 32.687 32.712 32.757 32.802 32.875 32.91 32.922 32.905 32.9 32.93 32.957 32.975 33.02 33.01 33.002 33.032
27.226 27.223 27.208 27.196 27.173 27.166 27.161 27.153 27.148 27.121 27.141 27.156 27.126 27.161 27.213 27.276 27.143 27.183 27.353 27.338 27.288 27.265 27.228 27.205 27.185 27.2 27.138 27.135 27.115 27.1 27.095 27.093 27.105 27.11 27.115 27.113 27.103 27.1 27.108 27.138 27.085 27.085 27.075 27.058 27.048 27.025 26.985 27.03 26.988 26.958 26.965 26.945 26.945 26.965 26.935 26.888 26.845 26.76 26.668 26.955 27.03 26.963 26.91 26.973 26.813 26.528 26.923 27.043 27.088 27.063 27.023 26.895 26.845 26.873 26.863 26.82 26.813 26.823 26.823 26.81 26.743 26.788 26.87 26.82 26.81 26.848 26.89 26.895 26.868 26.853 26.823 26.825 26.813 26.835 26.825 26.82 26.91 27.005 27.068 27.133 27.168 27.21 27.29 27.348 27.413 27.545 27.623 27.743 27.858 27.928 28.065 28.16 28.168 28.27 28.543 29.06 29.418 29.53 29.488 29.875 30.37 30.57 30.715 30.908 31.038 31.168 31.113 31.29 31.328 31.358 31.368 31.523 31.518 31.463 31.415 31.445 31.453 31.39 31.343 31.295 31.205 31.11 31.293 31.8 31.935 31.913 31.853 31.764 31.629 31.41 31.233 31.089 31.072 31.109 31.135 31.174 31.214 31.218 31.261 31.39 31.407 31.449 31.463 31.48 31.628 31.71 31.81 32.003 32.175 32.285 32.375 32.413 32.568 32.533 32.335 32.32 32.4 32.455 32.445 32.353 32.43 32.543 32.67 32.78 32.795 32.825 32.903 32.993 33.108 33.138 33.153 33.17 33.235 33.31 33.233 33.105 33.213 33.283 33.233 33.215 33.233 33.233 33.223 33.193 33.218 33.245 33.25 33.228 33.233 33.203 33.18 33.173 33.178 33.185 33.198 33.17 33.128 33.075 33.06 32.988 32.984 32.992 33.018 33.02 33.02 33.025 33.058 33.065 33.238 33.138 33.13 33.163 33.17 33.155 33.11 33.115 33.133 33.208 33.79 34.183 34.775 34.96 35.19 35.388 35.193 34.668 34.013 33.47 33.165 33.173 33.265 33.283 33.288 33.294 33.287 33.261 33.245 33.24 33.253 33.248 33.255 33.212 33.381 33.528 33.413 33.27 33.353 33.295 33.16 33.695 34.198 33.637 33.912 34.297 34.357 33.95 33.482 33.237 33.012 33.02 33.045 33.1 33.064 33.069 33.09 33.075 33.082 33.028 32.977 32.962 32.942 32.925 32.947 32.937 32.917 32.955 32.907 32.897 32.887 32.915 32.895 32.91 32.87 32.842 32.857 32.88 32.872 32.847 32.845 32.847 32.877 32.86 32.86 32.862 32.857 33.162 33.84 33.787 33.157 32.852 32.865 32.882 32.855 32.777 32.777 32.882 32.91 32.92 32.922 32.902 32.885 32.887 32.87 32.892 32.877 32.935 32.94 32.882 32.852 32.845 32.802 32.77 32.745 32.712 32.7 32.665 32.65 32.75 32.825 32.855 32.877 32.827 32.83 32.827 32.817 32.815 32.812 32.762 32.762 32.785 32.792 32.842 32.855 32.89 32.887 32.887 32.915 32.917 32.917 32.9 32.882 32.847 32.805 32.782 32.772 32.79 32.79 32.792 32.832 32.857 32.862 32.86 32.845 32.835 32.82 32.795 32.78 32.747 32.742 32.76 32.78 32.752 32.735 32.732 32.722 32.675 32.685 32.677 32.682 32.68 32.697 32.685 32.715 32.745 32.732 32.762 32.815 32.835 32.822 32.81 32.752 32.69 32.657 32.66 32.662 32.667 32.67 32.697 32.657 32.655 32.65 32.607 32.617 32.647 32.7 32.7 32.685 32.692 32.712 32.777 32.845 32.917 32.912 32.92 32.89 32.902 32.955 33.012 33.007 33.02 33.05 33.047
27.233 27.246 27.243 27.233 27.216 27.216 27.193 27.193 27.188 27.168 27.146 27.161 27.136 27.161 27.208 27.256 27.211 27.111 27.338 27.396 27.258 27.233 27.183 27.178 27.17 27.188 27.148 27.125 27.108 27.085 27.085 27.083 27.133 27.128 27.12 27.115 27.093 27.118 27.093 27.08 27.093 27.08 27.065 27.043 27.025 27 27.005 27.005 27.013 26.983 26.99 26.955 26.943 26.963 26.95 26.908 26.898 26.895 26.928 26.98 27.005 26.943 26.945 26.955 26.683 26.64 27.015 27.083 27.068 27.015 26.94 26.858 26.765 26.78 26.808 26.818 26.803 26.85 26.855 26.775 26.815 26.898 26.815 26.795 26.76 26.788 26.88 26.89 26.893 26.888 26.848 26.853 26.823 26.85 26.818 26.818 26.873 26.983 27.05 27.118 27.185 27.235 27.325 27.34 27.393 27.498 27.613 27.75 27.908 28.01 28.125 28.203 28.258 28.365 28.523 28.853 29.345 29.84 30.068 30.318 30.543 30.63 30.813 31.01 31.133 31.133 30.923 31.318 31.435 31.603 31.965 32.323 32.125 31.678 31.42 31.41 31.425 31.408 31.398 31.378 31.283 31.625 32.053 32.195 32.155 32.103 31.998 31.88 31.718 31.536 31.387 31.229 31.098 31.124 31.164 31.209 31.262 31.277 31.382 31.473 31.495 31.531 31.553 31.56 31.67 31.735 31.835 31.993 32.185 32.26 32.368 32.423 32.458 32.318 32.315 32.298 32.38 32.405 32.41 32.423 32.475 32.595 32.723 32.763 32.76 32.805 32.91 33.075 33.165 33.193 33.17 33.16 33.213 33.243 33.155 33.068 33.223 33.2 33.213 33.203 33.243 33.243 33.228 33.2 33.19 33.233 33.23 33.21 33.21 33.198 33.178 33.188 33.223 33.203 33.2 33.165 33.18 33.138 33.11 33.032 32.981 32.998 33.01 33.015 33.015 33.08 33.129 33.068 33.091 33.114 33.12 33.165 33.205 33.23 33.243 33.495 33.605 34.025 34.533 35.015 35.348 35.133 35.038 34.638 34.208 33.753 33.348 33.173 33.195 33.271 33.284 33.296 33.245 33.259 33.31 33.275 33.26 33.265 33.255 33.23 33.229 33.251 33.48 33.348 33.205 33.235 33.238 33.378 33.633 34.065 34.303 33.785 34.037 34.167 34.13 33.817 33.095 33.01 33.04 33.092 33.079 33.136 33.117 33.128 33.107 33.095 33.067 33.035 32.987 32.972 32.937 32.922 32.952 32.977 32.95 32.922 32.957 32.972 32.915 32.925 32.902 32.887 32.885 32.865 32.895 32.87 32.845 32.827 32.85 32.857 32.885 32.87 32.86 32.844 32.865 33.087 33.74 33.757 33.107 32.8 32.85 32.872 32.85 32.817 32.815 32.89 32.927 32.902 32.93 32.905 32.882 32.89 32.89 32.92 32.902 32.905 32.905 32.902 32.85 32.827 32.81 32.777 32.75 32.732 32.727 32.682 32.655 32.757 32.802 32.805 32.8 32.79 32.75 32.762 32.792 32.8 32.782 32.74 32.742 32.737 32.797 32.835 32.862 32.907 32.892 32.897 32.892 32.9 32.892 32.86 32.835 32.807 32.785 32.79 32.802 32.825 32.847 32.835 32.83 32.87 32.85 32.857 32.857 32.815 32.84 32.825 32.802 32.765 32.755 32.787 32.807 32.767 32.76 32.742 32.745 32.745 32.682 32.692 32.7 32.68 32.685 32.69 32.707 32.722 32.725 32.732 32.79 32.825 32.832 32.81 32.79 32.72 32.682 32.66 32.65 32.642 32.65 32.69 32.655 32.66 32.655 32.637 32.622 32.615 32.657 32.68 32.68 32.697 32.727 32.755 32.82 32.902 32.922 32.937 32.917 32.872 32.937 32.952 32.967 33.012 33.025 33.042
27.301 27.291 27.308 27.293 27.296 27.266 27.208 27.253 27.226 27.211 27.168 27.151 27.161 27.173 27.186 27.201 27.226 27.156 27.258 27.413 27.268 27.225 27.2 27.165 27.138 27.16 27.125 27.11 27.108 27.075 27.06 27.083 27.113 27.113 27.123 27.085 27.093 27.12 27.073 27.085 27.05 27.05 27.043 27.068 27.048 27.008 27.018 27.02 27.005 26.975 26.978 26.97 26.973 26.958 26.963 26.938 26.923 26.908 26.915 26.998 26.998 26.948 26.96 26.978 26.64 26.708 27.018 27.045 27.06 27.008 26.91 26.803 26.755 26.763 26.755 26.808 26.87 26.91 26.94 26.97 26.993 26.998 26.923 26.853 26.68 26.728 26.823 26.885 26.895 26.913 26.855 26.81 26.793 26.825 26.803 26.838 26.875 26.955 27.05 27.125 27.203 27.245 27.313 27.385 27.458 27.558 27.62 27.723 27.853 28.003 28.153 28.255 28.363 28.52 28.72 28.995 29.618 30.12 30.308 30.4 30.563 30.658 30.85 31.105 31.283 31.345 31.425 31.77 32 32.253 32.7 32.833 32.648 32.165 31.823 31.458 31.453 31.45 31.485 31.453 31.928 32.43 32.418 32.36 32.293 32.215 32.09 31.973 31.835 31.689 31.542 31.378 31.228 31.178 31.235 31.278 31.311 31.449 31.524 31.562 31.586 31.61 31.635 31.726 31.803 31.84 31.92 32.05 32.208 32.293 32.333 32.405 32.393 32.318 32.318 32.293 32.335 32.385 32.415 32.453 32.575 32.66 32.728 32.7 32.73 32.805 32.97 33.113 33.208 33.193 33.128 33.128 33.185 33.193 33.18 33.188 33.22 33.193 33.203 33.225 33.238 33.225 33.228 33.2 33.18 33.22 33.208 33.165 33.135 33.135 33.115 33.135 33.148 33.21 33.2 33.118 33.143 33.093 33.07 33.088 33.02 33.038 33.016 33.021 33.052 33.086 33.058 33.064 33.07 33.098 33.108 33.128 33.227 33.288 33.4 33.975 34.46 35.058 35.415 35.218 35.033 34.51 33.94 33.53 33.248 33.09 33.138 33.24 33.23 33.244 33.287 33.29 33.27 33.275 33.31 33.301 33.273 33.265 33.248 33.179 33.151 33.188 33.235 33.215 33.173 33.275 33.815 33.94 34.07 34.23 34.123 34.142 34.165 34.237 34.225 33.785 33.07 33.06 33.067 33.124 33.101 33.131 33.145 33.157 33.107 33.1 33.097 33.055 33.005 32.987 32.96 32.942 32.957 32.962 32.96 32.947 32.972 32.992 32.94 32.92 32.912 32.877 32.897 32.907 32.88 32.84 32.85 32.845 32.867 32.88 32.905 32.887 32.854 32.847 32.862 33.082 33.755 33.81 33.147 32.812 32.85 32.876 32.855 32.81 32.842 32.89 32.937 32.915 32.912 32.915 32.892 32.89 32.885 32.922 32.932 32.927 32.93 32.877 32.862 32.817 32.817 32.795 32.745 32.747 32.73 32.697 32.677 32.72 32.777 32.785 32.78 32.755 32.717 32.732 32.775 32.792 32.762 32.742 32.747 32.74 32.742 32.785 32.822 32.84 32.88 32.88 32.88 32.88 32.862 32.845 32.82 32.817 32.825 32.817 32.82 32.83 32.872 32.837 32.81 32.84 32.85 32.85 32.815 32.832 32.845 32.86 32.82 32.785 32.77 32.802 32.83 32.8 32.782 32.752 32.757 32.757 32.72 32.697 32.71 32.705 32.682 32.662 32.67 32.667 32.71 32.745 32.797 32.852 32.842 32.82 32.795 32.755 32.692 32.675 32.66 32.632 32.645 32.67 32.677 32.675 32.687 32.66 32.647 32.667 32.682 32.675 32.667 32.682 32.71 32.742 32.785 32.887 32.937 32.917 32.92 32.872 32.885 32.917 32.985 32.972 33.015 33.032
27.378 27.368 27.386 27.366 27.371 27.331 27.288 27.303 27.273 27.228 27.211 27.183 27.173 27.136 27.156 27.178 27.188 27.158 27.156 27.353 27.286 27.188 27.19 27.18 27.145 27.12 27.13 27.108 27.103 27.073 27.085 27.108 27.11 27.13 27.138 27.125 27.113 27.083 27.093 27.088 27.043 27.05 27.023 27.03 27.015 26.985 26.998 26.998 26.98 26.993 27.01 27.013 27.005 26.953 26.955 26.94 26.923 26.923 26.943 27.003 26.973 26.913 26.96 26.96 26.61 26.818 27.03 27.043 27.005 26.94 26.875 26.813 26.78 26.79 26.815 26.868 26.938 26.985 27.005 26.983 27.028 26.998 26.95 26.915 26.873 26.86 26.818 26.818 26.85 26.908 26.84 26.843 26.86 26.81 26.825 26.84 26.905 26.953 27.018 27.105 27.188 27.195 27.323 27.43 27.54 27.63 27.67 27.705 27.86 28.11 28.295 28.38 28.518 28.728 29.01 29.618 29.98 30.14 30.26 30.455 30.583 30.71 30.915 31.19 31.393 31.578 32.078 32.383 32.56 32.703 32.788 32.88 32.91 32.873 32.745 31.93 31.583 31.555 31.688 32.033 32.688 32.645 32.578 32.488 32.363 32.278 32.155 32.01 31.908 31.803 31.684 31.567 31.389 31.219 31.228 31.367 31.476 31.594 31.646 31.643 31.666 31.689 31.72 31.8 31.865 31.893 31.99 32.095 32.21 32.285 32.343 32.42 32.463 32.38 32.325 32.268 32.298 32.393 32.44 32.488 32.548 32.618 32.628 32.718 32.785 32.845 32.935 33.028 33.058 33.038 33.065 33.105 33.135 33.178 33.193 33.218 33.198 33.208 33.21 33.228 33.228 33.23 33.21 33.223 33.205 33.213 33.175 33.143 33.123 33.105 33.2 33.205 33.163 33.158 33.115 33.118 33.075 33.078 33.075 33.1 33.05 33.036 33.005 32.99 33.023 33.044 33.047 33.06 33.076 33.1 33.141 33.161 33.243 33.31 33.45 34.218 35.178 35.493 35.423 34.775 34.075 33.528 33.295 33.128 33.075 33.085 33.211 33.21 33.195 33.219 33.29 33.293 33.283 33.303 33.297 33.327 33.268 33.184 33.223 33.155 33.148 33.148 33.223 33.238 33.213 33.388 33.82 33.988 34.075 34.158 34.053 33.832 33.54 33.577 33.422 33.222 33.062 33.085 33.09 33.123 33.136 33.147 33.155 33.162 33.147 33.132 33.112 33.052 33.017 32.972 32.96 32.94 32.942 32.965 32.982 32.982 32.997 32.995 32.96 32.92 32.9 32.897 32.875 32.892 32.875 32.84 32.85 32.877 32.887 32.897 32.922 32.911 32.875 32.815 32.83 33.08 33.82 33.797 33.192 32.845 32.83 32.887 32.867 32.83 32.842 32.867 32.907 32.912 32.882 32.897 32.88 32.87 32.88 32.872 32.88 32.877 32.94 32.917 32.872 32.85 32.81 32.8 32.77 32.747 32.722 32.692 32.672 32.692 32.725 32.757 32.78 32.755 32.737 32.712 32.73 32.77 32.75 32.725 32.72 32.71 32.732 32.75 32.78 32.805 32.81 32.862 32.875 32.845 32.835 32.862 32.857 32.852 32.855 32.852 32.83 32.83 32.812 32.8 32.762 32.792 32.837 32.835 32.847 32.857 32.862 32.89 32.857 32.835 32.777 32.785 32.835 32.822 32.79 32.767 32.777 32.755 32.725 32.682 32.707 32.695 32.697 32.66 32.682 32.71 32.725 32.725 32.772 32.855 32.852 32.832 32.8 32.772 32.685 32.667 32.647 32.635 32.645 32.657 32.685 32.672 32.672 32.695 32.682 32.702 32.7 32.687 32.65 32.665 32.672 32.71 32.77 32.84 32.905 32.927 32.922 32.87 32.847 32.885 32.967 32.942 32.96 33.037
27.488 27.496 27.493 27.461 27.441 27.426 27.388 27.351 27.313 27.286 27.243 27.213 27.168 27.168 27.163 27.168 27.153 27.166 27.113 27.256 27.333 27.163 27.118 27.138 27.105 27.093 27.095 27.068 27.043 27.058 27.08 27.115 27.143 27.153 27.128 27.128 27.115 27.07 27.075 27.05 27.078 27.053 27.048 27.025 27.018 27.02 26.998 26.998 26.995 26.988 26.99 26.993 26.975 26.963 26.965 26.96 26.923 26.935 26.955 26.99 26.968 26.898 26.948 26.923 26.6 26.78 27.02 27.028 26.98 26.868 26.81 26.793 26.798 26.855 26.918 26.953 26.973 26.998 26.998 26.923 26.96 26.958 26.925 26.89 26.888 26.908 26.88 26.855 26.83 26.82 26.815 26.84 26.848 26.84 26.885 26.89 26.938 26.99 27 27.093 27.188 27.253 27.298 27.428 27.55 27.698 27.768 27.85 28.025 28.193 28.365 28.498 28.645 28.885 29.29 29.725 29.985 30.145 30.323 30.453 30.598 30.768 30.965 31.333 31.748 32.135 32.478 32.61 32.623 32.678 32.773 32.85 32.918 32.983 33.01 32.728 32.105 32.013 32.638 32.788 32.84 32.785 32.683 32.54 32.435 32.33 32.19 32.083 31.988 31.814 31.741 31.744 31.555 31.337 31.173 31.382 31.572 31.684 31.72 31.73 31.749 31.767 31.804 31.834 31.872 31.913 31.93 32.108 32.195 32.263 32.323 32.425 32.56 32.448 32.39 32.303 32.31 32.35 32.448 32.485 32.518 32.673 32.82 32.86 32.858 32.883 32.895 32.9 32.943 33.003 33.053 33.063 33.105 33.14 33.198 33.195 33.173 33.208 33.213 33.245 33.23 33.235 33.243 33.248 33.233 33.213 33.17 33.133 33.1 33.135 33.248 33.193 33.173 33.143 33.093 33.09 33.11 33.083 33.055 33.055 33.055 33.04 33.02 32.993 33.013 33.048 33.085 33.083 33.085 33.115 33.14 33.22 33.297 33.348 33.415 34.045 35.065 35.22 34.825 33.918 33.375 33.343 33.078 33.09 33.12 33.163 33.207 33.168 33.188 33.27 33.278 33.3 33.318 33.328 33.355 33.364 33.213 33.264 33.193 33.125 33.14 33.118 33.475 33.47 33.458 33.46 33.938 34.008 33.695 33.393 33.268 33.157 33.04 33.072 33.08 33.12 33.095 33.109 33.139 33.123 33.138 33.18 33.145 33.16 33.167 33.14 33.122 33.085 33.035 32.98 33.01 32.947 32.992 32.967 32.995 33.047 33.022 33.02 32.995 32.927 32.915 32.897 32.892 32.892 32.865 32.872 32.87 32.905 32.897 32.91 32.942 32.933 32.917 32.862 32.835 33.052 33.83 33.747 33.197 32.845 32.812 32.862 32.88 32.842 32.865 32.895 32.892 32.91 32.892 32.895 32.88 32.87 32.867 32.862 32.867 32.902 32.89 32.91 32.88 32.857 32.81 32.795 32.78 32.757 32.73 32.692 32.672 32.672 32.695 32.747 32.767 32.75 32.727 32.702 32.685 32.745 32.747 32.74 32.71 32.715 32.717 32.707 32.75 32.815 32.802 32.792 32.87 32.857 32.865 32.877 32.872 32.86 32.865 32.862 32.825 32.815 32.81 32.762 32.752 32.78 32.81 32.837 32.872 32.877 32.882 32.902 32.882 32.84 32.78 32.762 32.83 32.807 32.792 32.762 32.74 32.735 32.71 32.682 32.675 32.682 32.685 32.665 32.69 32.68 32.7 32.73 32.76 32.827 32.867 32.847 32.82 32.792 32.71 32.675 32.655 32.642 32.647 32.65 32.687 32.685 32.695 32.685 32.68 32.682 32.675 32.672 32.652 32.657 32.672 32.69 32.745 32.807 32.88 32.907 32.9 32.875 32.865 32.867 32.93 32.965 32.972 33.015
27.616 27.628 27.616 27.601 27.571 27.571 27.536 27.453 27.418 27.366 27.308 27.258 27.193 27.181 27.133 27.151 27.161 27.196 27.148 27.131 27.281 27.195 27.103 27.1 27.075 27.06 27.043 27.013 26.995 27.06 27.053 27.073 27.1 27.113 27.11 27.095 27.085 27.09 27.065 27.035 27.028 26.998 27.018 27.023 27.015 26.998 26.985 26.998 26.995 26.998 26.993 27.015 26.988 26.975 26.953 26.95 26.965 26.943 26.965 26.993 26.953 26.873 26.943 26.98 26.623 26.8 27 26.998 26.95 26.898 26.853 26.853 26.905 26.938 26.998 26.995 26.978 26.975 26.958 26.943 26.933 26.918 26.903 26.888 26.878 26.903 26.9 26.9 26.893 26.885 26.823 26.793 26.788 26.78 26.865 26.893 26.945 27.033 27.06 27.138 27.2 27.228 27.325 27.475 27.64 27.785 27.88 28.058 28.255 28.3 28.443 28.608 28.888 29.243 29.613 29.825 30 30.135 30.288 30.503 30.67 31.023 31.478 31.825 32.163 32.398 32.525 32.49 32.565 32.658 32.738 32.833 32.9 32.935 33.015 33.035 32.873 32.535 33.013 32.995 32.94 32.87 32.753 32.603 32.445 32.31 32.203 32.093 31.988 31.9 31.842 31.791 31.705 31.474 31.223 31.257 31.655 31.759 31.836 31.95 31.95 31.874 31.889 31.914 31.939 31.961 32 32.143 32.223 32.3 32.34 32.433 32.458 32.39 32.308 32.22 32.233 32.295 32.39 32.553 32.718 32.808 32.853 32.863 32.888 32.893 32.888 32.893 32.943 32.973 33.03 33.07 33.128 33.195 33.24 33.225 33.18 33.225 33.245 33.253 33.263 33.273 33.285 33.263 33.248 33.248 33.17 33.163 33.17 33.2 33.213 33.21 33.178 33.138 33.1 33.11 33.15 33.133 33.1 33.078 33.065 33.06 33.028 33.04 33.05 33.065 33.088 33.093 33.093 33.083 33.123 33.236 33.318 33.363 33.413 33.695 34.468 34.373 33.868 33.55 33.2 33.118 33.106 33.158 33.177 33.187 33.178 33.198 33.273 33.275 33.285 33.354 33.377 33.368 33.374 33.278 33.215 33.22 33.165 33.16 33.2 33.338 33.853 33.9 33.845 34.055 34.215 33.78 33.215 32.97 33.005 33.007 33.057 33.055 33.1 33.122 33.121 33.113 33.13 33.121 33.152 33.18 33.165 33.167 33.16 33.132 33.13 33.087 33.067 33.042 33.035 32.985 32.987 32.902 33.025 33.04 33.045 33.045 33.035 32.98 32.937 32.912 32.94 32.932 32.932 32.902 32.907 32.927 32.942 32.957 32.965 32.948 32.957 32.905 32.885 33.062 33.695 33.795 33.252 32.932 32.832 32.857 32.89 32.89 32.88 32.905 32.897 32.875 32.862 32.892 32.89 32.86 32.86 32.89 32.902 32.905 32.887 32.902 32.875 32.852 32.832 32.8 32.787 32.782 32.75 32.722 32.697 32.662 32.677 32.737 32.777 32.747 32.735 32.68 32.672 32.697 32.735 32.747 32.725 32.687 32.675 32.705 32.735 32.795 32.837 32.817 32.832 32.875 32.902 32.885 32.885 32.892 32.885 32.837 32.787 32.787 32.762 32.765 32.752 32.795 32.832 32.86 32.857 32.867 32.892 32.892 32.907 32.867 32.802 32.767 32.797 32.805 32.817 32.787 32.742 32.712 32.707 32.7 32.657 32.687 32.69 32.677 32.64 32.682 32.71 32.747 32.767 32.8 32.857 32.845 32.845 32.79 32.715 32.67 32.655 32.665 32.627 32.655 32.677 32.682 32.71 32.687 32.64 32.642 32.657 32.685 32.662 32.652 32.65 32.67 32.697 32.762 32.835 32.885 32.905 32.895 32.875 32.865 32.897 33.01 32.96 32.975
27.796 27.821 27.806 27.786 27.716 27.713 27.656 27.616 27.516 27.456 27.391 27.313 27.248 27.211 27.173 27.148 27.138 27.168 27.191 27.086 27.168 27.215 27.098 27.078 27.06 27.043 27.053 27.045 27.028 27.05 27.073 27.098 27.095 27.1 27.1 27.06 27.06 27.025 27.03 27.028 27.025 27 26.998 27.02 26.98 26.995 26.985 26.99 26.97 26.96 26.97 26.985 26.985 26.97 26.963 26.958 26.92 26.905 26.953 27.003 26.928 26.858 26.945 27.033 26.775 26.715 27.003 27.028 26.933 26.975 26.933 26.965 27 27.013 26.993 26.983 26.965 26.938 26.935 26.918 26.9 26.898 26.903 26.888 26.885 26.87 26.88 26.923 26.91 26.89 26.855 26.838 26.763 26.755 26.795 26.798 26.883 27.018 27.143 27.185 27.233 27.315 27.428 27.56 27.725 27.898 28.088 28.253 28.355 28.413 28.525 28.833 29.298 29.513 29.73 29.848 30.013 30.175 30.428 30.663 31.105 31.605 31.925 32.093 32.31 32.42 32.495 32.538 32.553 32.683 32.723 32.785 32.815 32.898 32.968 32.98 33.05 32.99 33.103 33.078 33.043 32.893 32.77 32.61 32.483 32.355 32.258 32.16 32.04 31.967 31.92 31.809 31.782 31.604 31.405 31.438 31.775 31.985 32.124 32.179 32.156 31.982 31.983 32.005 32.025 31.998 31.945 32.143 32.25 32.338 32.368 32.418 32.378 32.283 32.218 32.258 32.285 32.47 32.613 32.713 32.755 32.848 32.868 32.86 32.875 32.885 32.89 32.878 32.93 32.975 33.095 33.225 33.248 33.283 33.295 33.27 33.223 33.258 33.263 33.228 33.24 33.27 33.273 33.283 33.235 33.205 33.103 33.143 33.165 33.208 33.235 33.235 33.218 33.173 33.153 33.17 33.19 33.188 33.128 33.093 33.02 33.05 33.008 33.04 33.055 33.07 33.1 33.088 33.08 33.08 33.118 33.224 33.302 33.345 33.375 33.435 33.46 33.4 33.393 33.293 33.205 33.148 33.187 33.195 33.17 33.195 33.223 33.233 33.254 33.3 33.335 33.288 33.218 33.255 33.363 33.215 33.15 33.125 33.215 33.503 33.54 33.765 34.045 34.143 33.723 33.475 33.583 33.225 32.995 33.005 33.03 33.067 33.075 33.085 33.099 33.098 33.107 33.123 33.111 33.13 33.167 33.17 33.175 33.172 33.152 33.137 33.14 33.13 33.102 33.045 33.017 32.98 32.942 32.847 32.975 33.02 33.035 33.065 33.045 33.002 32.942 32.942 32.925 32.94 32.95 32.942 32.952 32.972 32.96 32.985 32.982 32.992 32.967 32.892 32.922 33.15 33.705 33.782 33.277 32.985 32.872 32.845 32.877 32.882 32.892 32.905 32.857 32.845 32.885 32.902 32.91 32.897 32.897 32.92 32.932 32.922 32.937 32.947 32.925 32.865 32.86 32.815 32.775 32.78 32.755 32.735 32.71 32.67 32.657 32.745 32.782 32.765 32.717 32.697 32.697 32.705 32.732 32.745 32.732 32.687 32.682 32.695 32.72 32.775 32.857 32.845 32.867 32.885 32.882 32.89 32.887 32.885 32.867 32.822 32.782 32.765 32.76 32.77 32.792 32.82 32.84 32.857 32.86 32.885 32.895 32.9 32.905 32.87 32.832 32.775 32.8 32.817 32.815 32.785 32.767 32.712 32.71 32.727 32.677 32.695 32.687 32.665 32.625 32.672 32.7 32.752 32.76 32.782 32.835 32.847 32.842 32.79 32.755 32.727 32.677 32.657 32.657 32.655 32.677 32.682 32.702 32.66 32.64 32.635 32.657 32.675 32.652 32.64 32.637 32.632 32.667 32.732 32.787 32.845 32.912 32.905 32.89 32.842 32.875 32.932 32.917 32.955
28.081 28.053 28.011 27.968 27.931 27.878 27.843 27.766 27.673 27.606 27.511 27.401 27.321 27.251 27.213 27.176 27.148 27.156 27.148 27.076 27.138 27.268 27.15 27.083 27.053 27.028 27.038 27.03 26.998 27 27.038 27.065 27.093 27.09 27.075 27.058 27.083 27.073 27.07 27.018 27.013 27.03 27.018 26.998 26.973 26.975 26.98 26.958 26.96 26.96 26.98 26.99 26.955 26.958 26.99 26.975 26.95 26.925 26.953 26.975 26.928 26.873 26.93 27.02 26.873 26.793 27.015 27.043 27.015 26.998 26.925 26.973 26.98 26.985 26.975 26.953 26.953 26.915 26.948 26.92 26.908 26.878 26.888 26.89 26.88 26.865 26.895 26.895 26.9 26.883 26.878 26.853 26.828 26.82 26.818 26.855 26.873 26.923 27.093 27.16 27.248 27.35 27.47 27.575 27.788 27.985 28.153 28.278 28.41 28.468 28.65 29.205 29.643 29.643 29.755 29.878 30.048 30.278 30.798 31.2 31.545 31.828 32.078 32.228 32.353 32.453 32.515 32.578 32.608 32.688 32.788 32.853 32.875 32.945 32.965 33.025 33.038 33.06 33.06 33.045 32.943 32.835 32.768 32.658 32.518 32.435 32.313 32.18 32.093 32.05 31.985 31.858 31.812 31.806 31.778 31.876 32.052 32.252 32.285 32.244 32.247 32.129 32.11 32.105 32.067 32.021 32.03 32.163 32.255 32.345 32.418 32.43 32.395 32.34 32.37 32.448 32.558 32.613 32.653 32.693 32.763 32.85 32.913 32.865 32.865 32.878 32.893 32.915 33.02 33.133 33.218 33.283 33.3 33.305 33.315 33.295 33.248 33.248 33.28 33.275 33.233 33.293 33.283 33.273 33.19 33.115 33.028 33.108 33.138 33.213 33.248 33.26 33.245 33.208 33.21 33.19 33.218 33.225 33.16 33.1 33.07 33.053 33.063 33.06 33.07 33.1 33.133 33.11 33.113 33.1 33.115 33.23 33.283 33.312 33.307 33.378 33.34 33.29 33.298 33.253 33.19 33.18 33.208 33.208 33.218 33.24 33.263 33.268 33.29 33.293 33.355 33.35 33.15 33.153 33.223 33.108 33.19 33.465 33.863 33.993 33.935 33.85 33.72 33.473 33.045 33.02 32.998 32.998 33.023 33.063 33.089 33.082 33.086 33.095 33.083 33.114 33.092 33.107 33.1 33.127 33.17 33.16 33.185 33.182 33.185 33.162 33.14 33.127 33.11 33.062 33.017 33 32.975 32.972 33.02 33.02 33.047 33.072 33.077 33.025 32.977 32.977 32.962 32.94 32.977 32.995 33 32.977 33.01 33.037 33.04 33 33.012 32.95 33.02 33.285 33.805 33.707 33.352 33.03 32.875 32.84 32.863 32.865 32.887 32.875 32.877 32.872 32.91 32.88 32.945 32.925 32.935 32.922 32.93 32.937 32.935 32.97 32.947 32.887 32.857 32.817 32.817 32.78 32.767 32.742 32.7 32.682 32.662 32.7 32.755 32.76 32.725 32.705 32.707 32.735 32.762 32.755 32.767 32.722 32.68 32.685 32.72 32.785 32.852 32.89 32.897 32.905 32.912 32.852 32.84 32.857 32.845 32.802 32.767 32.782 32.775 32.8 32.817 32.81 32.825 32.842 32.862 32.87 32.895 32.89 32.892 32.865 32.82 32.76 32.79 32.822 32.81 32.782 32.762 32.715 32.715 32.707 32.667 32.677 32.677 32.652 32.637 32.655 32.677 32.74 32.772 32.767 32.79 32.847 32.832 32.797 32.75 32.732 32.682 32.657 32.65 32.66 32.665 32.68 32.705 32.675 32.635 32.637 32.647 32.647 32.652 32.635 32.622 32.62 32.64 32.682 32.76 32.832 32.912 32.897 32.887 32.847 32.852 32.925 33 32.992
28.343 28.301 28.263 28.218 28.168 28.101 28.053 27.988 27.883 27.771 27.671 27.561 27.428 27.378 27.296 27.241 27.216 27.181 27.188 27.138 27.108 27.268 27.203 27.068 27.038 27.018 27.04 27.013 27.02 27.005 27.018 27.025 27.073 27.08 27.055 27.088 27.1 27.068 27.045 27.025 27.015 26.995 26.99 27 26.985 26.97 26.963 26.955 26.958 26.968 26.978 26.988 26.945 26.953 26.953 26.93 26.928 26.9 26.888 26.933 26.943 26.903 26.97 27.048 26.79 26.758 26.998 27.023 27.008 26.973 26.935 26.928 26.945 26.948 26.928 26.918 26.93 26.933 26.935 26.943 26.928 26.92 26.913 26.888 26.88 26.875 26.865 26.87 26.875 26.88 26.835 26.835 26.848 26.848 26.915 27.03 27.115 27.083 27.105 27.083 27.163 27.268 27.43 27.558 27.768 28 28.06 28.15 28.35 28.515 28.855 29.588 29.838 29.77 29.8 29.865 30.173 30.495 31.03 31.533 31.778 31.995 32.195 32.36 32.448 32.523 32.62 32.728 32.795 32.805 32.863 32.923 32.978 33.033 33.053 33.125 33.11 33.073 33.09 33.083 32.953 32.85 32.768 32.66 32.55 32.405 32.303 32.19 32.14 32.075 32.003 31.899 31.882 31.956 32.153 32.299 32.296 32.372 32.376 32.306 32.3 32.24 32.219 32.251 32.265 32.276 32.25 32.233 32.3 32.383 32.43 32.443 32.438 32.453 32.495 32.54 32.595 32.635 32.643 32.668 32.748 32.843 32.953 32.928 32.863 32.883 32.958 33.07 33.155 33.208 33.248 33.318 33.233 33.223 33.298 33.363 33.283 33.24 33.26 33.27 33.303 33.33 33.258 33.168 33.115 33.13 33.088 33.105 33.118 33.208 33.27 33.28 33.283 33.265 33.235 33.238 33.24 33.245 33.19 33.133 33.075 33.048 33.078 33.093 33.108 33.148 33.148 33.12 33.128 33.123 33.155 33.225 33.259 33.286 33.376 33.394 33.372 33.367 33.398 33.375 33.275 33.275 33.248 33.233 33.25 33.263 33.355 33.303 33.328 33.313 33.255 33.233 33.188 33.165 33.098 33.225 33.555 33.92 34.095 33.865 33.72 33.45 33.088 32.96 32.973 33.043 33.05 33.048 33.097 33.108 33.14 33.142 33.156 33.137 33.125 33.14 33.135 33.137 33.147 33.15 33.167 33.175 33.167 33.155 33.137 33.147 33.15 33.125 33.1 33.085 33.057 33.037 33.025 33.042 33.035 33.037 33.077 33.107 33.06 33.027 33.005 33.01 33.02 33 33.032 33.017 33.032 33.032 33.057 33.08 33.065 33.017 33.027 32.995 32.942 33.067 33.827 33.78 33.342 33.025 32.882 32.84 32.869 32.85 32.887 32.907 32.887 32.892 32.89 32.93 33.02 32.92 32.922 32.922 32.937 32.942 32.955 32.98 32.942 32.897 32.875 32.842 32.82 32.8 32.752 32.722 32.717 32.685 32.65 32.67 32.745 32.785 32.727 32.727 32.747 32.747 32.75 32.76 32.742 32.73 32.677 32.72 32.742 32.795 32.857 32.88 32.875 32.877 32.91 32.855 32.79 32.805 32.82 32.82 32.79 32.8 32.835 32.785 32.792 32.815 32.802 32.827 32.85 32.87 32.882 32.867 32.887 32.85 32.79 32.755 32.785 32.83 32.815 32.782 32.737 32.725 32.717 32.685 32.675 32.652 32.675 32.675 32.655 32.662 32.67 32.702 32.72 32.765 32.78 32.837 32.83 32.762 32.752 32.737 32.7 32.692 32.662 32.67 32.67 32.69 32.695 32.695 32.655 32.647 32.635 32.627 32.617 32.635 32.63 32.632 32.645 32.672 32.735 32.807 32.842 32.885 32.875 32.867 32.855 32.907 33.002 32.95
28.646 28.583 28.503 28.481 28.443 28.376 28.293 28.188 28.108 28.006 27.873 27.766 27.628 27.508 27.396 27.368 27.278 27.228 27.203 27.193 27.088 27.175 27.243 27.085 27.015 27.02 27.003 26.978 26.988 26.998 26.985 26.998 27.035 27.045 27.065 27.073 27.053 27.063 27.058 27.043 27.02 27.025 27.008 26.998 26.965 26.963 26.953 26.975 26.958 26.97 26.978 26.985 26.978 26.985 26.96 26.973 26.935 26.948 26.94 26.948 27.003 27.015 27.013 26.995 26.683 26.703 26.97 27.008 27.013 26.993 26.945 26.913 26.928 26.953 26.943 26.918 26.935 26.928 26.93 26.95 26.945 26.96 26.953 26.923 26.89 26.865 26.853 26.86 26.87 26.848 26.86 26.858 26.87 26.88 26.983 27.118 27.233 27.253 27.258 27.265 27.248 27.225 27.363 27.593 27.825 27.918 28.04 28.173 28.393 28.523 29.053 29.8 29.928 29.935 29.893 29.94 30.328 30.88 31.328 31.69 31.995 32.223 32.38 32.495 32.57 32.66 32.755 32.853 32.943 32.933 32.968 32.985 33.043 33.073 33.118 33.148 33.163 33.17 33.165 33.135 33.013 32.878 32.823 32.725 32.568 32.418 32.285 32.2 32.16 32.113 32.035 31.96 31.945 32.126 32.418 32.49 32.481 32.441 32.377 32.297 32.308 32.329 32.362 32.397 32.404 32.409 32.376 32.308 32.31 32.378 32.423 32.445 32.44 32.485 32.485 32.528 32.568 32.595 32.623 32.658 32.723 32.803 32.945 33.01 32.885 32.963 33.078 33.19 33.18 33.208 33.28 33.253 33.178 33.163 33.273 33.39 33.365 33.268 33.253 33.23 33.18 33.168 33.17 33.165 33.148 33.153 33.14 33.123 33.155 33.25 33.3 33.295 33.315 33.313 33.3 33.305 33.278 33.263 33.203 33.155 33.138 33.135 33.123 33.148 33.168 33.175 33.17 33.125 33.128 33.138 33.175 33.273 33.368 33.399 33.354 33.347 33.403 33.474 33.495 33.435 33.365 33.303 33.243 33.293 33.348 33.403 33.315 33.115 33.259 33.27 33.233 33.268 33.243 33.23 33.465 33.708 33.805 33.863 33.633 33.413 33.185 33.08 32.975 33.015 33.068 33.1 33.12 33.122 33.125 33.146 33.136 33.157 33.16 33.15 33.14 33.14 33.16 33.157 33.162 33.165 33.162 33.185 33.17 33.132 33.12 33.105 33.137 33.127 33.105 33.092 33.047 33.045 33.055 33.05 33.022 33.035 33.09 33.107 33.107 33.052 33.04 33.022 33.062 33.055 33.03 33.03 33.055 33.062 33.077 33.097 33.09 33.03 33.037 32.98 32.942 33.035 33.742 33.865 33.272 33.032 32.92 32.852 32.9 32.897 32.9 32.912 32.88 32.892 32.875 32.955 33.007 32.965 32.942 32.925 32.945 32.952 32.972 32.997 32.97 32.927 32.887 32.84 32.825 32.81 32.757 32.742 32.72 32.702 32.69 32.655 32.737 32.78 32.775 32.762 32.775 32.745 32.722 32.712 32.727 32.727 32.7 32.73 32.775 32.815 32.847 32.87 32.867 32.852 32.862 32.845 32.78 32.737 32.802 32.82 32.817 32.832 32.837 32.83 32.792 32.785 32.765 32.78 32.805 32.847 32.867 32.875 32.87 32.855 32.815 32.775 32.737 32.815 32.81 32.775 32.762 32.72 32.717 32.695 32.7 32.665 32.65 32.687 32.662 32.65 32.675 32.687 32.712 32.747 32.785 32.812 32.83 32.767 32.755 32.75 32.742 32.702 32.667 32.67 32.672 32.705 32.7 32.707 32.662 32.645 32.62 32.627 32.62 32.647 32.64 32.647 32.63 32.652 32.722 32.757 32.817 32.872 32.872 32.895 32.857 32.862 32.887 32.882
28.961 28.896 28.836 28.756 28.736 28.658 28.563 28.461 28.386 28.271 28.148 27.973 27.838 27.698 27.598 27.493 27.401 27.311 27.296 27.221 27.148 27.095 27.158 27.098 27.015 27 26.975 26.973 26.978 26.97 26.988 27.025 27.05 27.025 27.048 27.035 27.023 27.033 27.043 27.03 27.02 27.015 27.005 26.988 26.968 26.99 26.973 26.985 26.985 26.98 26.978 26.965 26.928 26.945 26.943 26.955 26.938 26.933 26.933 26.985 27.06 27.043 27.08 27.018 26.743 26.678 26.988 27.05 27 26.965 26.94 26.91 26.9 26.92 26.903 26.905 26.92 26.933 26.945 26.968 26.965 26.985 26.963 26.9 26.885 26.903 26.9 26.89 26.863 26.855 26.86 26.878 26.89 26.925 27.04 27.138 27.228 27.283 27.34 27.355 27.393 27.408 27.508 27.698 27.705 27.69 27.808 28.063 28.37 28.583 29.28 29.948 30.095 30.11 30.06 30.055 30.545 31.208 31.54 31.87 32.19 32.42 32.6 32.665 32.703 32.788 32.865 32.918 32.963 32.998 33.003 33.025 33.048 33.078 33.118 33.173 33.203 33.218 33.218 33.185 33.12 32.985 32.943 32.925 32.693 32.42 32.248 32.193 32.14 32.1 32.053 32.016 32.046 32.076 32.461 32.527 32.508 32.453 32.386 32.351 32.357 32.383 32.452 32.487 32.475 32.43 32.384 32.335 32.338 32.388 32.408 32.423 32.445 32.45 32.46 32.538 32.565 32.583 32.608 32.648 32.685 32.745 32.84 32.935 32.855 32.973 33.093 33.168 33.168 33.17 33.21 33.213 33.223 33.205 33.258 33.373 33.318 33.198 33.145 33.085 33.095 33.13 33.178 33.225 33.153 33.165 33.15 33.133 33.215 33.273 33.308 33.298 33.298 33.305 33.323 33.3 33.31 33.268 33.255 33.248 33.203 33.15 33.15 33.22 33.23 33.19 33.185 33.118 33.118 33.148 33.155 33.28 33.465 33.405 33.348 33.443 33.5 33.538 33.488 33.425 33.315 33.305 33.355 33.363 33.338 33.355 33.27 33.153 33.216 33.238 33.29 33.285 33.363 33.413 33.678 33.715 33.57 33.425 33.248 33.088 33.058 33.065 33.085 33.133 33.139 33.157 33.179 33.159 33.153 33.155 33.148 33.19 33.182 33.182 33.185 33.195 33.17 33.167 33.187 33.162 33.17 33.187 33.175 33.142 33.13 33.11 33.137 33.115 33.122 33.107 33.057 33.047 33.042 33.052 33.06 33.052 33.112 33.137 33.122 33.065 33.067 33.045 33.062 33.072 33.042 33.047 33.087 33.072 33.09 33.097 33.067 33.032 33.025 32.983 32.907 32.992 33.802 33.92 33.35 33.005 32.932 32.875 32.935 32.915 32.917 32.922 32.877 32.87 32.865 32.95 33.01 33.005 32.92 32.907 32.952 32.945 32.972 32.967 32.94 32.912 32.895 32.852 32.827 32.805 32.775 32.757 32.732 32.705 32.685 32.662 32.687 32.757 32.77 32.777 32.77 32.757 32.73 32.7 32.702 32.697 32.712 32.72 32.74 32.777 32.81 32.845 32.817 32.795 32.802 32.825 32.815 32.81 32.795 32.855 32.842 32.822 32.832 32.797 32.78 32.752 32.735 32.747 32.825 32.862 32.897 32.885 32.89 32.892 32.855 32.795 32.752 32.775 32.787 32.77 32.752 32.732 32.71 32.69 32.697 32.697 32.652 32.677 32.675 32.652 32.645 32.647 32.717 32.732 32.78 32.797 32.812 32.82 32.795 32.787 32.762 32.69 32.652 32.662 32.68 32.682 32.697 32.705 32.685 32.66 32.657 32.647 32.652 32.652 32.675 32.66 32.647 32.662 32.697 32.727 32.812 32.875 32.895 32.892 32.877 32.86 32.825 32.927
29.263 29.183 29.131 29.076 29.016 28.918 28.826 28.738 28.633 28.528 28.378 28.223 28.083 27.921 27.808 27.661 27.563 27.468 27.416 27.348 27.328 27.183 27.173 27.218 27.008 26.988 26.993 26.955 26.94 26.938 26.948 26.978 26.978 26.97 26.988 26.973 27.005 27.035 27.028 27.013 27.023 26.998 26.988 26.988 26.978 26.983 26.963 26.963 26.97 26.948 26.96 26.948 26.933 26.975 26.963 26.97 26.958 26.925 26.955 27.063 27.095 27.068 27.088 27.025 26.73 26.673 26.953 27.035 27.025 26.97 26.933 26.938 26.928 26.915 26.898 26.913 26.935 26.945 26.973 26.998 27.033 27.005 26.938 26.943 26.895 26.888 26.923 26.898 26.89 26.905 26.903 26.918 26.915 26.938 27.07 27.173 27.248 27.29 27.398 27.42 27.49 27.675 27.815 27.953 27.95 27.915 27.905 28.035 28.228 28.468 29.17 29.803 30.135 30.285 30.18 30.253 30.85 31.418 31.703 32.06 32.398 32.62 32.758 32.763 32.798 32.84 32.878 32.925 32.97 33.013 32.975 32.998 33.023 33.095 33.16 33.205 33.25 33.268 33.255 33.245 33.228 33.095 33.085 33.068 32.855 32.608 32.315 32.203 32.098 32.105 32.073 32.098 32.119 32.255 32.497 32.507 32.496 32.468 32.416 32.41 32.423 32.428 32.469 32.487 32.473 32.444 32.405 32.342 32.338 32.383 32.428 32.433 32.493 32.52 32.538 32.54 32.59 32.585 32.598 32.628 32.615 32.635 32.745 32.803 32.873 32.995 33.075 33.088 33.098 33.155 33.24 33.255 33.283 33.28 33.208 33.26 33.19 33.16 33.115 33.03 33.075 33.163 33.223 33.235 33.16 33.15 33.155 33.15 33.218 33.253 33.275 33.315 33.325 33.303 33.29 33.285 33.285 33.3 33.308 33.275 33.225 33.185 33.198 33.255 33.22 33.223 33.193 33.165 33.143 33.19 33.275 33.398 33.578 33.458 33.4 33.495 33.545 33.52 33.45 33.365 33.318 33.415 33.425 33.328 33.26 33.24 33.228 33.178 33.194 33.286 33.403 33.445 33.525 33.65 33.38 33.168 33.108 33.1 33.108 33.105 33.103 33.142 33.154 33.171 33.164 33.197 33.197 33.173 33.168 33.175 33.19 33.202 33.21 33.215 33.207 33.222 33.195 33.17 33.157 33.165 33.165 33.185 33.177 33.15 33.165 33.142 33.135 33.122 33.15 33.135 33.105 33.067 33.065 33.085 33.092 33.08 33.14 33.142 33.117 33.08 33.065 33.06 33.075 33.097 33.06 33.077 33.055 33.067 33.047 33.067 33.067 33.047 33.012 32.977 32.902 32.935 33.762 33.91 33.332 32.95 32.91 32.885 32.913 32.927 32.915 32.912 32.882 32.855 32.885 32.945 33 33.025 32.875 32.902 32.977 32.94 32.942 32.925 32.927 32.915 32.915 32.865 32.83 32.825 32.797 32.76 32.752 32.715 32.707 32.677 32.697 32.73 32.755 32.757 32.762 32.762 32.74 32.712 32.7 32.707 32.68 32.685 32.71 32.76 32.78 32.8 32.805 32.812 32.802 32.805 32.807 32.83 32.85 32.835 32.85 32.815 32.822 32.787 32.755 32.757 32.762 32.815 32.852 32.887 32.9 32.9 32.905 32.877 32.857 32.8 32.747 32.777 32.792 32.787 32.757 32.727 32.71 32.682 32.702 32.685 32.67 32.652 32.647 32.652 32.632 32.637 32.672 32.695 32.735 32.797 32.8 32.817 32.792 32.795 32.785 32.71 32.697 32.685 32.7 32.672 32.692 32.7 32.705 32.68 32.667 32.667 32.66 32.657 32.667 32.672 32.67 32.687 32.705 32.735 32.77 32.875 32.91 32.91 32.91 32.86 32.872 32.895
29.553 29.511 29.428 29.361 29.296 29.216 29.101 29.016 28.903 28.793 28.683 28.496 28.338 28.186 28.023 27.868 27.736 27.626 27.558 27.481 27.458 27.283 27.16 27.285 27.08 27.008 27 26.96 26.95 26.965 26.968 26.963 27 26.968 26.97 26.955 26.995 27.005 27 27.013 26.998 26.968 26.968 26.978 26.985 26.995 26.978 26.968 26.97 26.963 26.945 26.935 26.923 26.923 26.925 26.935 26.958 26.933 26.958 27.085 27.103 27.11 27.125 27.095 26.705 26.735 26.963 27.023 27.02 26.965 26.935 26.96 26.913 26.923 26.91 26.925 26.963 26.958 27.003 27.033 27.063 27.048 27 27.01 26.965 26.938 26.973 26.965 26.958 26.963 26.94 26.963 26.98 27.008 27.093 27.203 27.253 27.34 27.44 27.505 27.665 27.805 27.935 27.968 28.043 28.08 28.13 28.23 28.425 28.655 29.103 29.53 29.99 30.23 30.268 30.458 31.005 31.495 31.88 32.198 32.51 32.738 32.745 32.763 32.793 32.84 32.888 32.928 32.968 32.948 32.905 32.963 33.018 33.17 33.253 33.273 33.31 33.328 33.34 33.353 33.285 33.233 33.373 33.243 33.148 32.798 32.448 32.298 32.205 32.133 32.13 32.135 32.235 32.393 32.406 32.404 32.425 32.447 32.459 32.48 32.492 32.499 32.518 32.503 32.483 32.43 32.401 32.373 32.365 32.388 32.443 32.485 32.583 32.588 32.545 32.553 32.575 32.553 32.565 32.57 32.61 32.658 32.713 32.818 32.9 32.983 33 33.015 33.028 33.14 33.273 33.298 33.328 33.348 33.248 33.22 33.143 33.178 33.158 33.083 33.088 33.173 33.225 33.223 33.17 33.118 33.128 33.148 33.198 33.245 33.285 33.325 33.33 33.303 33.295 33.315 33.303 33.293 33.32 33.323 33.315 33.288 33.275 33.263 33.268 33.288 33.235 33.245 33.273 33.32 33.358 33.43 33.485 33.41 33.398 33.468 33.52 33.478 33.375 33.353 33.465 33.46 33.39 33.293 33.263 33.32 33.378 33.245 33.232 33.3 33.327 33.473 33.643 33.56 33.083 33.058 33.113 33.115 33.115 33.144 33.151 33.188 33.208 33.198 33.17 33.188 33.19 33.178 33.193 33.178 33.205 33.247 33.252 33.235 33.225 33.202 33.175 33.18 33.182 33.175 33.172 33.187 33.18 33.155 33.167 33.155 33.157 33.152 33.167 33.182 33.152 33.152 33.112 33.11 33.13 33.125 33.137 33.122 33.122 33.1 33.065 33.065 33.12 33.115 33.062 33.05 33.015 33.022 33.01 33.03 33.072 33.06 33.032 32.957 32.875 32.877 33.697 33.922 33.377 32.972 32.902 32.884 32.882 32.915 32.932 32.915 32.87 32.857 32.91 32.915 32.947 33.005 32.867 32.912 32.93 32.932 32.927 32.927 32.93 32.935 32.89 32.847 32.845 32.81 32.785 32.752 32.745 32.73 32.725 32.675 32.66 32.715 32.745 32.737 32.75 32.727 32.762 32.747 32.737 32.712 32.695 32.717 32.725 32.727 32.737 32.792 32.8 32.822 32.807 32.802 32.82 32.837 32.842 32.837 32.827 32.815 32.775 32.765 32.77 32.805 32.817 32.85 32.87 32.912 32.912 32.885 32.857 32.825 32.78 32.787 32.727 32.757 32.797 32.767 32.767 32.737 32.72 32.72 32.705 32.692 32.665 32.632 32.632 32.64 32.627 32.627 32.64 32.66 32.69 32.752 32.775 32.797 32.78 32.812 32.785 32.712 32.69 32.715 32.697 32.68 32.702 32.69 32.685 32.662 32.647 32.635 32.642 32.655 32.677 32.685 32.702 32.72 32.717 32.745 32.767 32.847 32.905 32.94 32.905 32.885 32.845 32.88
29.883 29.811 29.728 29.668 29.576 29.478 29.363 29.261 29.176 29.056 28.926 28.753 28.616 28.433 28.281 28.091 27.941 27.833 27.733 27.641 27.596 27.54 27.295 27.29 27.183 27.023 27 26.998 26.955 26.945 26.945 26.943 26.935 26.92 26.955 26.96 26.978 26.99 26.998 27.005 27.01 27.003 26.993 26.97 26.95 26.945 26.953 26.975 26.968 26.953 26.945 26.933 26.938 26.925 26.965 26.965 26.95 26.958 26.988 27.078 27.09 27.11 27.14 26.998 26.713 26.728 26.995 27.038 27.015 26.995 26.965 26.948 26.953 26.943 26.953 26.94 26.955 26.99 27.028 27.06 27.105 27.08 27.055 27.043 27.013 27.015 27.03 27.018 27.04 27.035 27.035 27.045 27.053 27.07 27.13 27.22 27.33 27.433 27.49 27.638 27.798 27.89 27.995 28.05 28.12 28.173 28.285 28.413 28.625 28.888 29.123 29.35 29.675 30.08 30.298 30.733 31.36 31.653 31.938 32.278 32.525 32.648 32.675 32.733 32.735 32.828 32.888 32.928 32.918 32.923 32.905 32.945 33.05 33.205 33.315 33.363 33.368 33.368 33.338 33.305 33.303 33.305 33.42 33.373 33.325 32.925 32.573 32.565 32.293 32.235 32.193 32.188 32.315 32.337 32.355 32.386 32.423 32.458 32.46 32.476 32.504 32.536 32.536 32.515 32.492 32.46 32.434 32.4 32.39 32.42 32.455 32.52 32.618 32.588 32.533 32.525 32.49 32.455 32.505 32.568 32.598 32.633 32.685 32.82 32.903 32.92 32.93 32.948 32.965 33.115 33.29 33.313 33.335 33.358 33.305 33.248 33.15 33.145 33.168 33.14 33.123 33.198 33.26 33.155 33.113 33.108 33.133 33.155 33.23 33.25 33.3 33.335 33.343 33.318 33.358 33.38 33.403 33.393 33.368 33.388 33.408 33.385 33.353 33.32 33.323 33.328 33.318 33.353 33.413 33.468 33.39 33.35 33.36 33.328 33.328 33.388 33.423 33.435 33.46 33.435 33.555 33.528 33.39 33.318 33.333 33.198 33.198 33.223 33.12 33.115 33.215 33.31 33.73 33.92 33.29 33.12 33.165 33.18 33.19 33.179 33.218 33.233 33.232 33.228 33.218 33.193 33.208 33.195 33.2 33.21 33.273 33.26 33.277 33.265 33.265 33.222 33.195 33.18 33.207 33.202 33.182 33.205 33.205 33.197 33.207 33.175 33.167 33.182 33.21 33.19 33.19 33.19 33.182 33.16 33.147 33.17 33.152 33.157 33.137 33.072 33.05 33.06 33.095 33.087 33.03 33.005 33.01 33.002 33.007 33.022 33.057 33.087 33.06 32.962 32.902 32.877 33.65 33.85 33.38 32.935 32.897 32.895 32.915 32.925 32.947 32.88 32.847 32.857 32.897 32.89 32.932 32.967 32.855 32.88 32.93 32.935 32.935 32.93 32.932 32.93 32.917 32.882 32.85 32.817 32.785 32.785 32.765 32.757 32.735 32.692 32.672 32.69 32.732 32.735 32.74 32.735 32.755 32.755 32.725 32.7 32.712 32.75 32.732 32.727 32.752 32.81 32.81 32.815 32.812 32.835 32.847 32.837 32.84 32.79 32.797 32.772 32.745 32.782 32.795 32.805 32.837 32.885 32.882 32.895 32.89 32.855 32.795 32.782 32.777 32.79 32.757 32.727 32.765 32.765 32.777 32.735 32.707 32.68 32.68 32.69 32.687 32.64 32.647 32.675 32.672 32.667 32.65 32.677 32.702 32.735 32.765 32.775 32.767 32.76 32.78 32.755 32.707 32.732 32.695 32.685 32.665 32.692 32.69 32.69 32.675 32.66 32.672 32.655 32.695 32.697 32.695 32.707 32.717 32.742 32.777 32.832 32.88 32.925 32.902 32.875 32.822 32.837
30.168 30.108 30.048 29.941 29.851 29.733 29.641 29.526 29.403 29.281 29.148 28.958 28.836 28.676 28.503 28.336 28.196 28.043 27.948 27.848 27.763 27.765 27.638 27.243 27.288 27.068 26.993 26.993 26.968 26.958 26.945 26.93 26.92 26.923 26.963 26.958 26.96 26.983 26.955 26.963 26.983 26.958 26.958 26.975 26.973 26.958 26.963 26.975 26.973 26.973 26.97 26.978 26.945 26.933 26.96 26.943 26.93 26.92 26.985 27.06 27.103 27.128 27.135 26.998 26.738 26.765 27.023 27.045 27.04 27.013 26.988 26.97 26.963 26.968 26.978 27.003 27.005 27.02 27.045 27.063 27.103 27.108 27.093 27.093 27.078 27.083 27.09 27.11 27.143 27.118 27.113 27.098 27.115 27.165 27.223 27.288 27.42 27.513 27.678 27.765 27.86 27.975 28.063 28.163 28.245 28.325 28.483 28.623 28.838 29.08 29.295 29.553 29.753 29.968 30.323 31.018 31.608 31.74 31.96 32.27 32.51 32.63 32.658 32.73 32.745 32.765 32.843 32.868 32.85 32.855 32.913 33.003 33.113 33.333 33.418 33.378 33.368 33.363 33.32 33.32 33.325 33.3 33.385 33.425 33.37 33.153 32.883 32.913 32.608 32.42 32.373 32.273 32.308 32.351 32.38 32.414 32.477 32.483 32.468 32.452 32.454 32.496 32.5 32.515 32.521 32.495 32.444 32.401 32.413 32.438 32.463 32.56 32.603 32.595 32.485 32.463 32.445 32.45 32.498 32.55 32.593 32.655 32.678 32.803 32.898 32.91 32.913 32.913 32.918 33.04 33.23 33.243 33.24 33.263 33.295 33.225 33.153 33.14 33.138 33.175 33.153 33.143 33.13 33.125 33.13 33.153 33.18 33.185 33.203 33.238 33.305 33.335 33.335 33.33 33.373 33.52 33.568 33.55 33.463 33.44 33.463 33.42 33.388 33.375 33.428 33.45 33.428 33.415 33.465 33.438 33.348 33.318 33.328 33.328 33.31 33.358 33.518 33.583 33.54 33.465 33.45 33.55 33.458 33.36 33.355 33.255 33.193 33.198 33.15 33.09 33.208 33.24 33.743 34.058 33.82 33.2 33.26 33.258 33.263 33.242 33.253 33.253 33.238 33.235 33.248 33.228 33.203 33.22 33.25 33.24 33.28 33.277 33.287 33.26 33.275 33.242 33.207 33.19 33.23 33.23 33.202 33.165 33.182 33.192 33.202 33.2 33.202 33.21 33.227 33.22 33.217 33.205 33.16 33.155 33.19 33.17 33.13 33.145 33.147 33.087 33.057 33.052 33.09 33.085 33.035 33.022 33.027 33.02 33.005 33.05 33.06 33.077 33.07 32.993 32.917 32.88 33.58 33.902 33.442 32.88 32.865 32.893 32.925 32.932 32.937 32.905 32.87 32.857 32.88 32.932 32.92 32.957 32.832 32.845 32.915 32.942 32.932 32.93 32.945 32.915 32.895 32.945 32.875 32.837 32.822 32.8 32.785 32.762 32.737 32.702 32.69 32.67 32.715 32.745 32.735 32.767 32.775 32.78 32.755 32.735 32.757 32.77 32.755 32.765 32.79 32.832 32.825 32.837 32.85 32.852 32.845 32.835 32.815 32.77 32.76 32.755 32.772 32.805 32.812 32.842 32.857 32.875 32.867 32.87 32.84 32.815 32.805 32.792 32.812 32.812 32.792 32.712 32.755 32.762 32.75 32.732 32.707 32.692 32.702 32.707 32.7 32.675 32.67 32.695 32.687 32.665 32.667 32.675 32.695 32.75 32.75 32.76 32.772 32.75 32.77 32.79 32.732 32.707 32.682 32.677 32.692 32.717 32.705 32.71 32.692 32.692 32.692 32.682 32.702 32.715 32.715 32.717 32.74 32.75 32.772 32.805 32.832 32.902 32.892 32.86 32.827 32.84
30.466 30.386 30.313 30.226 30.121 30.013 29.918 29.773 29.631 29.488 29.388 29.231 29.068 28.906 28.758 28.611 28.461 28.263 28.141 28.036 27.926 27.918 27.783 27.373 27.343 27.148 27.04 27.008 26.995 26.965 26.975 26.918 26.928 26.915 26.935 26.935 26.948 26.988 26.968 26.96 26.983 26.955 26.978 26.985 26.95 26.965 26.953 26.963 26.953 26.96 26.945 26.95 26.943 26.935 26.968 26.953 26.98 26.955 26.978 27.043 27.085 27.115 27.118 27.048 26.718 26.763 27.025 27.048 27.045 27.038 27.03 27 26.995 26.993 27.005 27.028 27.04 27.055 27.068 27.075 27.133 27.143 27.15 27.14 27.113 27.108 27.128 27.17 27.178 27.178 27.163 27.155 27.233 27.303 27.35 27.393 27.485 27.678 27.78 27.853 27.963 28.05 28.143 28.263 28.363 28.508 28.695 28.835 29.048 29.285 29.52 29.773 29.948 30.068 30.468 31.188 31.673 31.858 32.038 32.235 32.433 32.565 32.67 32.723 32.72 32.725 32.738 32.775 32.803 32.838 32.948 33.068 33.205 33.485 33.45 33.388 33.375 33.35 33.325 33.35 33.353 33.323 33.375 33.468 33.42 33.328 33.288 33.39 33.153 32.633 32.498 32.455 32.405 32.418 32.437 32.426 32.513 32.493 32.474 32.456 32.444 32.464 32.499 32.512 32.539 32.52 32.48 32.444 32.43 32.443 32.415 32.535 32.57 32.57 32.508 32.445 32.44 32.458 32.515 32.553 32.578 32.665 32.748 32.873 32.92 32.908 32.9 32.918 32.945 32.98 33.148 33.175 33.17 33.158 33.248 33.203 33.128 33.123 33.135 33.138 33.12 33.143 33.148 33.19 33.175 33.188 33.215 33.218 33.22 33.238 33.318 33.36 33.355 33.39 33.443 33.563 33.563 33.585 33.56 33.505 33.498 33.45 33.435 33.423 33.443 33.423 33.39 33.365 33.338 33.338 33.318 33.323 33.388 33.348 33.335 33.425 33.518 33.578 33.528 33.438 33.393 33.5 33.46 33.378 33.335 33.325 33.265 33.225 33.218 33.18 33.241 33.245 33.38 33.673 34.025 33.413 33.28 33.275 33.261 33.274 33.271 33.29 33.283 33.288 33.29 33.28 33.263 33.248 33.26 33.233 33.26 33.27 33.332 33.322 33.267 33.235 33.217 33.19 33.212 33.235 33.187 33.16 33.165 33.192 33.192 33.197 33.237 33.217 33.235 33.245 33.26 33.247 33.132 33.167 33.2 33.152 33.1 33.127 33.12 33.087 33.065 33.052 33.087 33.085 33.09 33.082 33.072 33.045 33.027 33.032 33.052 33.057 33.072 33.015 32.975 32.947 33.577 33.862 33.355 32.845 32.842 32.88 32.919 32.927 32.917 32.9 32.852 32.86 32.902 32.902 32.91 32.99 32.89 32.88 32.892 32.93 32.945 32.937 32.932 32.945 32.937 32.972 32.917 32.847 32.822 32.8 32.767 32.767 32.75 32.705 32.687 32.647 32.712 32.74 32.77 32.775 32.787 32.795 32.767 32.722 32.74 32.765 32.792 32.807 32.822 32.832 32.815 32.83 32.837 32.83 32.8 32.797 32.79 32.772 32.775 32.792 32.805 32.85 32.845 32.857 32.855 32.835 32.815 32.795 32.82 32.85 32.857 32.825 32.825 32.827 32.805 32.725 32.752 32.787 32.757 32.747 32.725 32.72 32.727 32.705 32.692 32.697 32.69 32.687 32.687 32.67 32.677 32.672 32.69 32.75 32.765 32.755 32.765 32.767 32.752 32.785 32.767 32.74 32.71 32.7 32.695 32.73 32.715 32.735 32.73 32.71 32.687 32.682 32.7 32.725 32.727 32.727 32.737 32.755 32.77 32.767 32.795 32.83 32.887 32.857 32.825 32.825
30.736 30.651 30.581 30.486 30.406 30.256 30.131 29.991 29.863 29.708 29.576 29.413 29.291 29.166 29.003 28.858 28.701 28.533 28.378 28.241 28.153 28.09 28.035 27.753 27.443 27.33 27.115 27.043 27.018 26.97 26.953 26.963 26.938 26.958 26.94 26.93 26.963 26.985 26.993 26.975 26.995 26.973 26.965 26.985 26.965 26.98 26.98 26.963 26.948 26.965 26.953 26.968 26.953 26.94 26.925 26.95 26.97 26.938 26.96 27.055 27.09 27.113 27.143 27.088 26.745 26.733 26.96 27.023 27.055 27.065 27.085 27.033 27 27.023 27.063 27.083 27.078 27.06 27.103 27.12 27.135 27.163 27.19 27.16 27.16 27.148 27.17 27.215 27.25 27.255 27.19 27.243 27.31 27.373 27.435 27.46 27.665 27.755 27.843 27.923 27.995 28.118 28.245 28.398 28.52 28.675 28.888 29.085 29.258 29.515 29.725 29.95 30.133 30.273 30.613 31.153 31.73 31.858 31.988 32.203 32.365 32.473 32.598 32.688 32.68 32.708 32.753 32.798 32.85 32.85 32.98 33.12 33.21 33.39 33.45 33.403 33.365 33.34 33.358 33.378 33.378 33.368 33.4 33.455 33.448 33.388 33.418 33.445 33.39 33.073 32.69 32.58 32.528 32.48 32.452 32.41 32.47 32.478 32.46 32.47 32.485 32.468 32.481 32.534 32.561 32.562 32.513 32.476 32.457 32.458 32.418 32.51 32.565 32.57 32.523 32.458 32.475 32.483 32.53 32.57 32.61 32.728 32.788 32.85 32.86 32.89 32.923 32.953 32.98 32.995 33.075 33.123 33.115 33.11 33.188 33.175 33.155 33.133 33.148 33.185 33.175 33.148 33.173 33.198 33.19 33.203 33.188 33.203 33.205 33.21 33.363 33.485 33.455 33.49 33.515 33.513 33.54 33.598 33.665 33.558 33.543 33.515 33.495 33.46 33.413 33.393 33.343 33.318 33.34 33.33 33.338 33.353 33.363 33.33 33.318 33.385 33.438 33.47 33.493 33.47 33.448 33.468 33.448 33.368 33.263 33.195 33.255 33.29 33.27 33.258 33.293 33.31 33.313 33.5 34.07 33.525 33.308 33.305 33.297 33.266 33.29 33.28 33.315 33.335 33.343 33.34 33.308 33.298 33.293 33.27 33.278 33.28 33.287 33.282 33.247 33.215 33.22 33.192 33.212 33.235 33.207 33.162 33.155 33.187 33.182 33.2 33.222 33.245 33.245 33.247 33.242 33.25 33.192 33.177 33.182 33.135 33.102 33.097 33.135 33.142 33.125 33.075 33.107 33.117 33.085 33.095 33.07 33.042 33.01 33.025 33.06 33.047 33.08 33.036 32.975 32.92 33.472 33.882 33.427 32.845 32.865 32.906 32.935 32.947 32.952 32.907 32.877 32.877 32.912 32.892 32.932 33.027 32.922 32.932 32.927 32.912 32.95 32.937 32.965 32.95 32.917 32.965 32.955 32.865 32.832 32.817 32.807 32.765 32.747 32.735 32.702 32.657 32.677 32.757 32.762 32.777 32.787 32.77 32.752 32.732 32.742 32.757 32.81 32.825 32.822 32.817 32.827 32.81 32.787 32.81 32.792 32.81 32.837 32.822 32.827 32.835 32.852 32.83 32.82 32.812 32.765 32.712 32.722 32.805 32.852 32.875 32.875 32.852 32.815 32.817 32.82 32.757 32.727 32.79 32.752 32.75 32.745 32.742 32.722 32.712 32.727 32.715 32.7 32.68 32.677 32.66 32.692 32.687 32.67 32.725 32.765 32.737 32.745 32.78 32.767 32.762 32.78 32.765 32.732 32.702 32.715 32.732 32.747 32.75 32.732 32.715 32.692 32.702 32.715 32.737 32.73 32.732 32.747 32.752 32.76 32.735 32.757 32.782 32.867 32.852 32.825 32.83
30.998 30.913 30.841 30.713 30.621 30.481 30.343 30.211 30.088 29.943 29.798 29.666 29.508 29.378 29.248 29.083 28.911 28.768 28.603 28.453 28.351 28.265 28.205 28.093 27.713 27.49 27.26 27.095 27.043 27.013 26.98 26.953 26.95 26.955 26.973 26.97 26.983 26.968 26.968 26.983 26.97 26.995 27.005 26.985 26.975 26.978 26.975 26.958 26.965 26.95 26.948 26.945 26.953 26.958 26.935 26.96 26.963 26.955 26.978 27.055 27.115 27.15 27.175 27.05 26.708 26.718 26.908 27.013 27.058 27.058 27.03 27.02 27.033 27.038 27.07 27.09 27.103 27.11 27.138 27.15 27.17 27.188 27.223 27.225 27.228 27.218 27.238 27.25 27.283 27.343 27.355 27.353 27.453 27.483 27.54 27.688 27.773 27.873 27.933 28.018 28.098 28.215 28.375 28.515 28.688 28.875 29.098 29.268 29.49 29.738 29.933 30.148 30.305 30.498 30.72 31.085 31.493 31.683 31.883 32.033 32.238 32.405 32.525 32.65 32.73 32.785 32.83 32.863 32.905 32.955 33.048 33.148 33.195 33.308 33.413 33.383 33.358 33.34 33.388 33.403 33.403 33.403 33.448 33.485 33.47 33.38 33.48 33.573 33.51 33.32 32.908 32.638 32.603 32.513 32.49 32.459 32.447 32.482 32.5 32.502 32.488 32.459 32.476 32.537 32.553 32.526 32.52 32.506 32.464 32.465 32.463 32.538 32.565 32.503 32.455 32.48 32.505 32.505 32.593 32.698 32.753 32.79 32.79 32.81 32.818 32.883 32.953 32.993 33.013 33.025 33.058 33.088 33.11 33.128 33.188 33.26 33.265 33.193 33.195 33.215 33.168 33.178 33.17 33.2 33.223 33.225 33.273 33.315 33.275 33.35 33.425 33.45 33.468 33.575 33.508 33.513 33.588 33.713 33.775 33.645 33.61 33.618 33.565 33.535 33.498 33.438 33.345 33.325 33.333 33.338 33.4 33.373 33.323 33.273 33.323 33.473 33.528 33.518 33.605 33.505 33.443 33.378 33.41 33.345 33.268 33.148 33.21 33.338 33.35 33.332 33.338 33.317 33.32 33.43 34.035 33.755 33.31 33.305 33.305 33.317 33.305 33.31 33.335 33.353 33.368 33.378 33.333 33.345 33.345 33.348 33.285 33.282 33.25 33.252 33.215 33.215 33.185 33.157 33.162 33.207 33.17 33.157 33.137 33.165 33.182 33.195 33.205 33.227 33.245 33.242 33.222 33.222 33.177 33.147 33.132 33.12 33.112 33.107 33.13 33.132 33.115 33.07 33.085 33.127 33.092 33.07 33.06 33.02 33.042 33.05 33.052 33.065 33.048 33.02 32.969 32.907 33.535 33.915 33.515 32.892 32.882 32.931 32.935 32.972 32.947 32.912 32.912 32.902 32.93 32.912 32.947 33.047 32.962 32.955 32.942 32.927 32.952 32.945 32.932 32.917 32.877 32.935 32.975 32.91 32.835 32.82 32.795 32.785 32.775 32.732 32.707 32.67 32.662 32.7 32.747 32.757 32.78 32.782 32.777 32.78 32.772 32.79 32.835 32.852 32.87 32.837 32.807 32.767 32.795 32.81 32.845 32.85 32.852 32.855 32.87 32.855 32.832 32.812 32.757 32.732 32.712 32.727 32.787 32.822 32.845 32.867 32.86 32.83 32.797 32.8 32.795 32.792 32.722 32.747 32.755 32.742 32.717 32.73 32.725 32.705 32.735 32.74 32.7 32.677 32.667 32.662 32.65 32.672 32.657 32.707 32.745 32.735 32.75 32.787 32.815 32.79 32.795 32.797 32.757 32.722 32.73 32.715 32.725 32.74 32.757 32.752 32.712 32.717 32.725 32.735 32.735 32.735 32.74 32.745 32.73 32.725 32.715 32.752 32.827 32.855 32.812 32.815
31.258 31.143 31.071 30.946 30.828 30.723 30.566 30.428 30.281 30.153 30.013 29.876 29.731 29.596 29.466 29.291 29.123 28.973 28.808 28.653 28.553 28.445 28.39 28.385 28.075 27.713 27.545 27.253 27.13 27.028 26.973 26.975 26.953 26.958 26.953 26.958 26.965 26.96 26.958 26.963 26.993 26.985 26.958 26.97 26.99 26.97 26.965 26.958 26.955 26.938 26.955 26.955 26.945 26.943 26.94 26.943 26.94 26.945 26.978 27.035 27.095 27.12 27.158 27.018 26.718 26.78 26.933 27.03 27.068 27.07 27.023 27.038 27.063 27.07 27.093 27.108 27.125 27.138 27.145 27.163 27.228 27.22 27.245 27.26 27.283 27.308 27.3 27.333 27.36 27.435 27.468 27.513 27.538 27.663 27.748 27.815 27.9 27.973 28.045 28.123 28.235 28.365 28.53 28.68 28.863 29.083 29.28 29.533 29.74 29.968 30.195 30.343 30.505 30.71 30.918 31.098 31.383 31.5 31.688 31.875 32.095 32.293 32.463 32.628 32.733 32.853 32.888 32.89 32.993 33.053 33.11 33.203 33.253 33.315 33.34 33.373 33.41 33.398 33.383 33.39 33.405 33.435 33.455 33.463 33.473 33.46 33.473 33.545 33.57 33.39 33.213 32.75 32.63 32.598 32.52 32.468 32.479 32.512 32.511 32.494 32.466 32.439 32.452 32.502 32.495 32.481 32.514 32.528 32.487 32.492 32.457 32.548 32.548 32.528 32.488 32.485 32.518 32.663 32.773 32.79 32.8 32.8 32.795 32.788 32.858 32.898 32.963 33.018 33.03 33.06 33.033 33.118 33.165 33.175 33.218 33.293 33.363 33.278 33.253 33.265 33.235 33.233 33.253 33.298 33.35 33.383 33.39 33.39 33.405 33.398 33.393 33.39 33.385 33.54 33.575 33.563 33.635 33.725 33.7 33.673 33.645 33.633 33.55 33.533 33.54 33.408 33.333 33.348 33.373 33.37 33.345 33.32 33.253 33.243 33.27 33.605 33.8 33.598 33.508 33.488 33.46 33.368 33.383 33.408 33.328 33.213 33.298 33.458 33.438 33.35 33.345 33.328 33.317 33.363 33.87 34.098 33.385 33.32 33.338 33.33 33.315 33.365 33.398 33.415 33.408 33.4 33.393 33.418 33.38 33.37 33.31 33.3 33.27 33.245 33.217 33.18 33.167 33.162 33.175 33.18 33.125 33.137 33.132 33.162 33.19 33.22 33.232 33.177 33.175 33.125 33.107 33.242 33.187 33.115 33.095 33.077 33.12 33.14 33.147 33.125 33.14 33.127 33.1 33.075 33.102 33.077 33.047 33.037 33.047 33.057 33.042 33.057 33.051 33.038 32.977 32.955 33.387 33.887 33.727 32.952 32.902 32.942 32.972 32.975 32.947 32.905 32.89 32.915 32.957 32.93 32.985 33.055 32.977 32.947 32.96 32.945 32.942 32.93 32.9 32.897 32.92 32.93 32.96 32.975 32.87 32.835 32.812 32.797 32.772 32.73 32.73 32.7 32.665 32.682 32.757 32.735 32.775 32.805 32.805 32.82 32.807 32.807 32.802 32.84 32.85 32.83 32.815 32.805 32.82 32.84 32.867 32.895 32.882 32.885 32.882 32.852 32.817 32.745 32.697 32.697 32.727 32.79 32.825 32.815 32.82 32.837 32.865 32.842 32.785 32.81 32.795 32.78 32.712 32.717 32.755 32.727 32.727 32.712 32.715 32.712 32.74 32.725 32.712 32.685 32.655 32.67 32.652 32.66 32.652 32.692 32.732 32.735 32.77 32.785 32.825 32.812 32.81 32.812 32.777 32.755 32.742 32.717 32.73 32.735 32.73 32.747 32.702 32.69 32.705 32.73 32.73 32.725 32.707 32.71 32.702 32.712 32.697 32.74 32.777 32.845 32.822 32.832
31.483 31.411 31.276 31.186 31.041 30.928 30.798 30.651 30.498 30.348 30.221 30.093 29.948 29.823 29.656 29.501 29.333 29.193 29.026 28.846 28.728 28.658 28.558 28.523 28.295 27.978 27.795 27.538 27.293 27.135 27.02 26.993 26.95 26.933 26.96 26.928 26.948 26.965 26.978 26.955 26.948 26.973 26.96 26.975 26.975 26.958 27 27.003 26.983 26.963 26.968 26.985 26.983 26.993 26.968 26.95 26.958 26.948 26.973 27.058 27.108 27.143 27.145 27.06 26.77 26.84 27.075 27.073 27.068 27.118 27.078 27.05 27.065 27.065 27.1 27.125 27.14 27.158 27.168 27.193 27.238 27.258 27.265 27.28 27.333 27.353 27.348 27.413 27.473 27.525 27.583 27.65 27.723 27.845 27.885 27.935 27.995 28.078 28.2 28.29 28.39 28.54 28.705 28.873 29.085 29.29 29.51 29.753 29.973 30.233 30.438 30.553 30.713 30.928 31.068 31.24 31.418 31.598 31.735 31.878 32.01 32.14 32.325 32.55 32.683 32.883 32.928 32.975 33.028 33.103 33.16 33.233 33.265 33.31 33.343 33.415 33.453 33.49 33.485 33.405 33.418 33.483 33.463 33.438 33.48 33.425 33.448 33.46 33.443 33.428 33.34 32.96 32.698 32.628 32.575 32.519 32.459 32.498 32.505 32.474 32.42 32.403 32.412 32.457 32.413 32.429 32.498 32.541 32.512 32.488 32.437 32.533 32.543 32.605 32.64 32.618 32.655 32.738 32.753 32.78 32.788 32.77 32.823 32.848 32.91 32.935 32.953 32.988 33.068 33.093 33.065 33.155 33.213 33.2 33.213 33.265 33.32 33.303 33.393 33.42 33.403 33.4 33.365 33.413 33.468 33.48 33.505 33.58 33.515 33.46 33.403 33.423 33.438 33.463 33.543 33.563 33.565 33.553 33.598 33.563 33.543 33.56 33.538 33.465 33.468 33.395 33.393 33.383 33.29 33.29 33.228 33.208 33.203 33.208 33.215 33.363 33.518 33.42 33.44 33.483 33.473 33.393 33.375 33.403 33.343 33.403 33.51 33.52 33.51 33.41 33.37 33.353 33.325 33.3 33.525 34.013 33.56 33.33 33.318 33.321 33.305 33.373 33.408 33.425 33.44 33.413 33.398 33.425 33.383 33.368 33.348 33.31 33.275 33.26 33.23 33.207 33.185 33.175 33.175 33.165 33.145 33.162 33.147 33.155 33.185 33.197 33.225 33.217 33.162 33.047 33.102 33.2 33.197 33.15 33.147 33.117 33.127 33.077 33.042 33.145 33.167 33.15 33.115 33.087 33.08 33.047 33.047 33.07 33.055 33.08 33.052 33.05 33.052 33.045 33 32.972 33.332 34.022 33.775 32.962 32.95 32.945 32.979 32.98 32.98 32.905 32.93 32.94 32.955 32.975 33.02 33.037 32.975 32.947 32.93 32.902 32.892 32.905 32.885 32.922 32.967 32.94 32.935 32.92 32.89 32.855 32.815 32.792 32.777 32.75 32.735 32.712 32.677 32.65 32.697 32.727 32.775 32.822 32.82 32.842 32.79 32.775 32.787 32.835 32.817 32.817 32.842 32.857 32.857 32.87 32.897 32.9 32.88 32.875 32.862 32.8 32.737 32.7 32.722 32.737 32.775 32.777 32.762 32.772 32.78 32.832 32.86 32.865 32.83 32.805 32.802 32.792 32.73 32.68 32.725 32.74 32.725 32.72 32.705 32.695 32.712 32.73 32.705 32.695 32.677 32.657 32.655 32.67 32.657 32.685 32.727 32.752 32.757 32.782 32.837 32.825 32.812 32.84 32.837 32.795 32.772 32.752 32.737 32.747 32.732 32.73 32.715 32.695 32.69 32.697 32.702 32.702 32.705 32.7 32.705 32.72 32.682 32.717 32.767 32.812 32.832 32.815
31.711 31.608 31.516 31.413 31.286 31.138 30.998 30.858 30.726 30.566 30.448 30.308 30.146 30.021 29.856 29.693 29.583 29.393 29.211 29.048 28.916 28.803 28.728 28.668 28.58 28.288 28.08 27.913 27.565 27.303 27.113 27.008 26.988 26.935 26.958 26.973 26.948 26.988 26.985 26.968 26.945 26.97 26.963 26.948 26.95 26.948 26.97 26.975 26.975 26.988 27.003 27 26.998 26.983 27 26.998 26.97 26.983 26.995 27.058 27.128 27.153 27.208 27.185 26.838 26.765 27.023 27.113 27.105 27.138 27.1 27.08 27.045 27.07 27.095 27.128 27.165 27.19 27.215 27.243 27.233 27.273 27.31 27.318 27.358 27.418 27.478 27.505 27.593 27.675 27.738 27.845 27.945 27.98 28.028 28.09 28.15 28.235 28.335 28.47 28.6 28.725 28.925 29.075 29.288 29.533 29.753 29.973 30.29 30.51 30.685 30.795 30.978 31.118 31.25 31.385 31.518 31.665 31.823 31.95 32.065 32.195 32.32 32.45 32.62 32.86 32.943 33.025 33.08 33.155 33.235 33.245 33.278 33.308 33.335 33.39 33.433 33.48 33.495 33.488 33.495 33.51 33.53 33.488 33.46 33.415 33.403 33.43 33.405 33.405 33.375 33.245 32.973 32.713 32.655 32.583 32.458 32.394 32.374 32.362 32.357 32.319 32.294 32.316 32.367 32.422 32.519 32.572 32.525 32.48 32.409 32.432 32.498 32.568 32.638 32.668 32.693 32.718 32.76 32.765 32.758 32.773 32.81 32.883 32.918 32.94 33.008 33.045 33.103 33.178 33.223 33.195 33.23 33.19 33.193 33.19 33.233 33.33 33.438 33.475 33.45 33.445 33.415 33.49 33.58 33.6 33.623 33.675 33.618 33.49 33.42 33.513 33.473 33.528 33.555 33.543 33.515 33.47 33.505 33.49 33.508 33.503 33.508 33.478 33.455 33.395 33.325 33.255 33.213 33.235 33.213 33.265 33.205 33.185 33.193 33.2 33.263 33.32 33.33 33.343 33.483 33.425 33.345 33.41 33.423 33.435 33.48 33.535 33.528 33.513 33.411 33.31 33.296 33.27 33.295 33.785 33.628 33.305 33.295 33.283 33.295 33.335 33.355 33.365 33.383 33.363 33.345 33.368 33.363 33.35 33.343 33.302 33.272 33.257 33.232 33.212 33.195 33.192 33.19 33.167 33.167 33.185 33.172 33.16 33.17 33.167 33.167 33.217 33.205 33.182 33.212 33.185 33.195 33.15 33.147 33.142 33.13 33.085 33.1 33.132 33.15 33.145 33.145 33.12 33.082 33.07 33.042 33.075 33.045 33.05 33.032 33.055 33.045 33.023 32.982 32.942 33.277 34.105 33.775 32.98 32.94 32.961 32.975 32.987 32.99 32.95 32.937 32.94 32.962 32.955 32.995 32.992 32.942 32.917 32.905 32.895 32.887 32.897 32.92 32.965 32.952 32.947 32.965 32.91 32.902 32.86 32.82 32.8 32.787 32.752 32.735 32.715 32.682 32.655 32.667 32.712 32.772 32.81 32.837 32.835 32.825 32.782 32.8 32.832 32.827 32.845 32.867 32.897 32.91 32.9 32.892 32.872 32.842 32.805 32.752 32.725 32.73 32.775 32.785 32.772 32.767 32.767 32.775 32.76 32.79 32.832 32.857 32.857 32.83 32.815 32.81 32.775 32.75 32.682 32.705 32.73 32.74 32.74 32.725 32.715 32.712 32.717 32.707 32.707 32.692 32.667 32.667 32.657 32.64 32.672 32.722 32.742 32.757 32.765 32.792 32.827 32.807 32.84 32.86 32.827 32.785 32.757 32.757 32.762 32.74 32.712 32.715 32.697 32.687 32.7 32.707 32.717 32.71 32.692 32.69 32.69 32.687 32.682 32.75 32.81 32.832 32.825
31.933 31.841 31.753 31.601 31.493 31.366 31.218 31.051 30.916 30.778 30.656 30.516 30.373 30.211 30.053 29.903 29.743 29.566 29.393 29.223 29.068 28.938 28.855 28.78 28.753 28.613 28.258 28.16 27.895 27.553 27.313 27.123 27.033 26.99 26.958 26.99 26.988 26.985 26.99 26.983 26.965 26.965 26.973 26.968 26.98 26.983 26.968 26.953 26.96 26.95 26.95 26.965 26.973 26.98 26.975 26.983 26.97 26.965 26.988 27.068 27.14 27.17 27.205 27.195 26.923 26.808 26.973 27.093 27.123 27.138 27.128 27.095 27.1 27.083 27.113 27.143 27.188 27.213 27.24 27.275 27.263 27.29 27.335 27.36 27.425 27.503 27.593 27.65 27.728 27.818 27.955 28.018 28.068 28.125 28.12 28.208 28.325 28.403 28.5 28.668 28.815 28.963 29.153 29.353 29.528 29.76 30.035 30.258 30.558 30.685 30.888 31.035 31.2 31.323 31.458 31.548 31.685 31.833 31.958 32.04 32.16 32.243 32.355 32.5 32.605 32.725 32.908 33.05 33.125 33.19 33.255 33.265 33.275 33.303 33.368 33.42 33.425 33.445 33.48 33.525 33.56 33.568 33.563 33.548 33.455 33.423 33.443 33.46 33.435 33.41 33.395 33.413 33.333 32.875 32.693 32.595 32.51 32.363 32.323 32.28 32.265 32.26 32.244 32.233 32.3 32.413 32.543 32.589 32.537 32.456 32.403 32.401 32.472 32.543 32.585 32.635 32.655 32.703 32.72 32.718 32.728 32.775 32.823 32.865 32.92 32.985 33.043 33.043 33.113 33.193 33.273 33.328 33.26 33.218 33.208 33.22 33.285 33.378 33.46 33.488 33.455 33.435 33.448 33.57 33.65 33.57 33.465 33.573 33.665 33.63 33.658 33.698 33.58 33.548 33.56 33.595 33.548 33.493 33.473 33.5 33.485 33.508 33.525 33.493 33.405 33.295 33.268 33.233 33.263 33.21 33.23 33.293 33.253 33.203 33.178 33.178 33.205 33.228 33.253 33.378 33.493 33.468 33.353 33.373 33.425 33.455 33.473 33.493 33.51 33.458 33.392 33.327 33.319 33.258 33.298 33.475 33.538 33.325 33.315 33.322 33.293 33.296 33.3 33.333 33.33 33.335 33.328 33.323 33.303 33.288 33.28 33.302 33.27 33.252 33.25 33.245 33.217 33.227 33.22 33.215 33.23 33.215 33.21 33.19 33.17 33.182 33.175 33.175 33.16 33.17 33.177 33.182 33.19 33.16 33.14 33.152 33.14 33.145 33.13 33.125 33.122 33.125 33.125 33.122 33.092 33.065 33.082 33.062 33.057 33.045 33.012 33.007 33.012 32.995 32.985 32.95 33.105 33.772 33.485 32.927 32.942 32.962 32.981 32.997 32.987 32.97 32.947 32.94 32.96 32.937 32.96 32.99 32.922 32.9 32.892 32.902 32.935 32.982 32.965 32.967 32.987 32.965 32.997 32.972 32.945 32.875 32.83 32.81 32.792 32.78 32.745 32.727 32.707 32.667 32.647 32.717 32.787 32.782 32.817 32.845 32.835 32.805 32.822 32.832 32.855 32.87 32.872 32.887 32.892 32.86 32.827 32.802 32.755 32.732 32.737 32.77 32.805 32.785 32.785 32.76 32.76 32.77 32.797 32.79 32.8 32.825 32.847 32.857 32.865 32.81 32.81 32.792 32.79 32.71 32.68 32.757 32.76 32.747 32.742 32.695 32.72 32.707 32.707 32.722 32.702 32.675 32.655 32.647 32.65 32.655 32.662 32.712 32.755 32.76 32.757 32.802 32.81 32.83 32.85 32.84 32.797 32.777 32.74 32.737 32.725 32.717 32.72 32.712 32.69 32.677 32.695 32.71 32.707 32.705 32.687 32.68 32.707 32.677 32.705 32.765 32.797 32.81
32.156 32.043 31.941 31.806 31.691 31.568 31.416 31.251 31.116 31.006 30.873 30.711 30.566 30.411 30.278 30.103 29.948 29.771 29.596 29.408 29.233 29.118 29.03 28.928 28.868 28.77 28.428 28.293 28.155 27.863 27.543 27.303 27.138 27.053 26.998 26.995 26.98 26.988 26.963 26.995 26.978 26.983 26.953 26.973 26.965 26.97 26.965 26.978 26.968 26.988 26.98 26.975 26.985 26.963 26.968 26.955 26.958 26.958 26.98 27.01 27.138 27.18 27.233 27.218 26.985 26.85 26.898 27.068 27.115 27.178 27.16 27.128 27.098 27.12 27.158 27.203 27.218 27.228 27.258 27.28 27.3 27.323 27.378 27.435 27.508 27.605 27.693 27.765 27.808 28.013 28.113 28.16 28.195 28.23 28.28 28.405 28.515 28.593 28.695 28.858 29.025 29.195 29.388 29.583 29.798 30.02 30.258 30.55 30.87 30.95 31.04 31.238 31.375 31.533 31.66 31.795 31.94 32.055 32.155 32.21 32.283 32.34 32.41 32.535 32.643 32.725 32.835 33.005 33.143 33.21 33.27 33.29 33.31 33.33 33.375 33.43 33.445 33.43 33.478 33.513 33.59 33.583 33.555 33.553 33.44 33.455 33.48 33.505 33.498 33.428 33.428 33.423 33.368 32.995 32.803 32.693 32.543 32.399 32.318 32.271 32.255 32.238 32.19 32.205 32.288 32.435 32.561 32.593 32.544 32.486 32.412 32.486 32.552 32.585 32.62 32.64 32.67 32.713 32.733 32.725 32.733 32.74 32.785 32.843 32.895 32.965 33.038 33.045 33.128 33.213 33.288 33.328 33.305 33.243 33.198 33.223 33.273 33.338 33.388 33.385 33.41 33.398 33.43 33.533 33.498 33.483 33.448 33.455 33.575 33.598 33.605 33.543 33.503 33.425 33.473 33.528 33.523 33.48 33.435 33.48 33.53 33.538 33.473 33.383 33.29 33.293 33.258 33.22 33.265 33.233 33.26 33.285 33.28 33.223 33.183 33.193 33.193 33.195 33.253 33.38 33.458 33.495 33.433 33.358 33.415 33.445 33.478 33.47 33.425 33.373 33.373 33.339 33.331 33.3 33.278 33.305 33.338 33.308 33.305 33.305 33.318 33.293 33.283 33.303 33.293 33.283 33.268 33.293 33.275 33.273 33.258 33.272 33.252 33.252 33.247 33.242 33.225 33.227 33.22 33.222 33.212 33.235 33.19 33.195 33.205 33.207 33.17 33.177 33.157 33.175 33.155 33.167 33.165 33.155 33.142 33.14 33.12 33.162 33.145 33.125 33.115 33.112 33.135 33.12 33.097 33.087 33.07 33.055 33.045 33.04 33.005 33.005 32.992 32.989 32.967 32.965 32.967 33.05 32.992 32.95 32.982 32.996 32.967 33.005 33 32.97 32.952 32.947 32.945 32.92 32.98 32.99 32.922 32.925 32.922 32.947 33 33.002 32.967 32.985 32.992 32.98 33.005 33.037 32.99 32.952 32.86 32.825 32.797 32.772 32.772 32.747 32.717 32.682 32.635 32.667 32.747 32.767 32.817 32.81 32.83 32.807 32.807 32.865 32.87 32.875 32.89 32.867 32.832 32.772 32.722 32.712 32.74 32.787 32.78 32.795 32.807 32.765 32.765 32.755 32.762 32.79 32.812 32.8 32.795 32.82 32.855 32.842 32.852 32.827 32.812 32.795 32.785 32.745 32.702 32.76 32.772 32.757 32.727 32.725 32.732 32.702 32.727 32.722 32.72 32.675 32.652 32.645 32.66 32.665 32.655 32.685 32.732 32.725 32.75 32.792 32.825 32.817 32.855 32.865 32.845 32.782 32.73 32.702 32.71 32.712 32.707 32.7 32.68 32.68 32.672 32.697 32.697 32.697 32.69 32.687 32.715 32.7 32.692 32.745 32.792 32.812
32.311 32.226 32.133 32.013 31.876 31.763 31.638 31.476 31.326 31.186 31.066 30.916 30.771 30.626 30.448 30.298 30.136 29.948 29.786 29.616 29.436 29.295 29.185 29.093 29.04 28.935 28.66 28.46 28.34 28.16 27.775 27.52 27.308 27.148 27.065 27.02 26.993 27 26.99 26.998 27.023 26.993 26.948 26.953 26.955 26.94 26.96 26.985 26.953 26.975 26.983 26.98 26.983 26.953 26.965 26.988 26.978 26.963 26.98 27.008 27.095 27.153 27.208 27.23 27.02 26.833 26.87 27.063 27.15 27.228 27.205 27.163 27.163 27.21 27.228 27.24 27.26 27.288 27.338 27.36 27.363 27.38 27.418 27.513 27.583 27.728 27.81 27.875 28.025 28.163 28.188 28.268 28.33 28.365 28.498 28.583 28.673 28.795 28.913 29.073 29.23 29.438 29.645 29.873 30.09 30.315 30.575 30.823 31.025 31.16 31.258 31.433 31.568 31.768 31.938 32.08 32.203 32.383 32.468 32.44 32.445 32.453 32.495 32.59 32.67 32.763 32.84 32.953 33.138 33.22 33.26 33.283 33.32 33.338 33.388 33.423 33.43 33.43 33.465 33.525 33.548 33.538 33.518 33.525 33.458 33.485 33.508 33.518 33.523 33.48 33.383 33.343 33.243 33.03 32.935 32.81 32.635 32.518 32.4 32.319 32.263 32.203 32.179 32.233 32.315 32.503 32.609 32.61 32.555 32.491 32.422 32.535 32.666 32.712 32.73 32.7 32.678 32.71 32.653 32.695 32.713 32.713 32.758 32.818 32.873 32.943 33.043 33.07 33.148 33.218 33.258 33.268 33.275 33.208 33.19 33.213 33.27 33.343 33.35 33.388 33.398 33.383 33.45 33.575 33.493 33.38 33.428 33.415 33.453 33.48 33.485 33.468 33.41 33.398 33.45 33.508 33.56 33.485 33.438 33.473 33.473 33.485 33.395 33.17 33.135 33.26 33.243 33.228 33.238 33.27 33.285 33.313 33.303 33.243 33.198 33.205 33.205 33.195 33.248 33.363 33.453 33.51 33.498 33.408 33.425 33.473 33.503 33.435 33.42 33.423 33.375 33.337 33.345 33.355 33.313 33.328 33.318 33.318 33.308 33.29 33.322 33.298 33.301 33.303 33.283 33.3 33.3 33.293 33.283 33.285 33.283 33.297 33.267 33.26 33.262 33.25 33.257 33.28 33.252 33.252 33.247 33.242 33.225 33.225 33.215 33.205 33.18 33.187 33.167 33.167 33.175 33.162 33.157 33.12 33.145 33.145 33.13 33.12 33.122 33.11 33.102 33.092 33.107 33.085 33.097 33.087 33.075 33.052 33.06 33.047 33.027 33 33.001 33.008 33.007 32.985 32.972 32.965 32.967 32.96 32.997 32.994 33.007 33.002 32.977 32.977 32.97 32.97 32.987 32.932 32.985 33.052 32.965 32.952 32.945 32.977 32.99 32.995 32.992 32.977 32.957 32.99 33.007 33.02 32.997 33.01 32.892 32.845 32.797 32.782 32.772 32.762 32.722 32.7 32.657 32.642 32.725 32.755 32.802 32.8 32.802 32.785 32.805 32.842 32.877 32.882 32.84 32.802 32.75 32.712 32.712 32.75 32.772 32.792 32.78 32.767 32.757 32.74 32.752 32.767 32.78 32.79 32.802 32.812 32.802 32.82 32.82 32.827 32.837 32.802 32.802 32.785 32.767 32.772 32.712 32.732 32.747 32.737 32.74 32.742 32.755 32.745 32.707 32.7 32.7 32.667 32.637 32.65 32.647 32.672 32.655 32.655 32.715 32.715 32.75 32.775 32.812 32.812 32.805 32.84 32.82 32.767 32.73 32.735 32.735 32.722 32.722 32.727 32.692 32.682 32.69 32.705 32.705 32.71 32.69 32.687 32.71 32.73 32.695 32.71 32.762 32.805
