ncols 435
nrows 31
xllcorner    429012
yllcorner    488568
cellsize     2
NODATA_value -9999
35.388 35.333 35.373 35.373 35.328 35.333 35.333 35.353 35.333 35.346 35.348 35.363 35.348 35.321 35.338 35.296 35.318 35.303 35.283 35.271 35.278 35.253 35.238 35.243 35.193 35.218 35.161 35.221 35.228 35.186 35.206 35.228 35.188 35.238 35.198 35.153 35.123 35.076 35.103 35.138 35.133 35.131 35.046 35.093 35.061 35.023 35.008 35.003 35.033 35.023 35.041 35.096 35.176 35.171 35.083 35.003 35.008 35.018 35.116 35.151 35.113 35.183 35.283 35.261 35.226 35.356 35.426 35.413 35.501 35.553 35.536 35.536 35.558 35.531 35.563 35.606 35.571 35.491 35.543 35.643 35.701 35.683 35.686 35.696 35.693 35.711 35.771 35.791 35.793 35.818 35.848 35.858 35.906 35.923 35.918 35.956 35.983 36.013 35.986 36.011 36.043 36.093 36.131 36.163 36.143 36.188 36.203 36.258 36.266 36.326 36.318 36.333 36.353 36.426 36.506 36.566 36.558 36.423 36.348 36.443 36.509 36.5 36.472 36.442 36.454 36.461 36.448 36.469 36.438 36.446 36.428 36.412 36.46 36.62 36.731 36.428 36.228 36.098 36.131 36.173 36.213 36.248 36.293 36.296 36.218 36.056 36.053 36.146 36.198 36.246 36.286 36.333 36.371 36.198 35.853 35.651 35.663 35.706 35.836 36.043 36.011 36.076 36.138 36.156 36.218 36.268 36.328 36.343 36.378 36.453 36.418 36.356 36.568 36.536 36.443 36.428 36.423 36.363 36.353 36.343 36.386 36.333 36.311 36.351 36.356 36.358 36.423 36.513 36.583 36.836 37.086 37.341 37.591 37.963 38.198 38.476 38.703 38.918 39.081 39.263 39.401 39.491 39.523 39.478 39.396 39.173 39.003 38.573 37.943 37.328 36.778 36.356 36.213 36.181 36.078 36.061 36.033 35.991 35.946 35.971 35.998 36.026 36.026 36.063 36.078 36.073 36.036 36.071 36.166 36.171 36.166 36.158 36.173 36.158 36.141 36.118 36.136 36.156 36.193 36.238 36.251 36.268 36.283 36.338 36.365 36.378 36.398 36.433 36.453 36.468 36.48 36.523 36.59 36.615 36.695 36.725 36.778 36.803 36.845 36.888 36.938 36.973 37.043 37.08 37.128 37.178 37.215 37.248 37.285 37.363 37.368 37.438 37.488 37.563 37.59 37.63 37.678 37.7 37.725 37.76 37.77 37.805 37.838 37.853 37.888 37.885 37.9 37.918 37.953 37.98 37.98 38 38.01 38.01 38.03 38.015 37.998 38.018 38.003 38.018 38.005 38.008 38.028 38.023 38.043 38.065 38.018 38.058 38.068 38.003 37.973 37.945 37.918 37.933 37.908 37.91 37.923 37.935 37.95 37.985 38.035 38.14 38.078 38.003 37.975 37.975 37.995 37.97 37.875 37.845 37.778 37.66 37.558 37.53 37.475 37.465 37.408 37.4 37.365 37.305 37.345 37.36 37.375 37.403 37.282 37.177 37.097 37.067 36.955 36.885 36.822 36.837 36.845 36.817 36.757 36.665 36.625 36.587 36.557 36.557 36.512 36.575 36.59 36.592 36.605 36.625 36.622 36.625 36.602 36.625 36.56 36.51 36.462 36.397 36.342 36.317 36.305 36.317 36.42 36.492 36.552 36.525 36.497 36.5 36.49 36.417 36.355 36.26 36.237 36.227 36.267 36.185 36.115 36.077 36.055 36.045 36.097 36.112 35.992 35.82 35.68 35.597 35.577 35.587 35.592 35.572 35.52 35.465 35.362 35.292 35.27 35.26 35.277 35.242 35.255 35.252 35.225 35.225 35.262 35.25 35.217 35.177 35.165 35.155 35.195 35.217 35.222 35.262 35.27 35.315 35.36 35.39 35.355 35.327 35.222
35.361 35.333 35.326 35.368 35.306 35.306 35.298 35.323 35.328 35.328 35.338 35.333 35.338 35.301 35.306 35.288 35.283 35.293 35.296 35.251 35.236 35.226 35.193 35.241 35.223 35.238 35.243 35.188 35.221 35.191 35.201 35.223 35.178 35.188 35.201 35.158 35.138 35.106 35.138 35.178 35.171 35.158 35.078 35.066 35.101 35.046 34.993 34.963 34.981 34.981 35.008 35.041 35.058 35.078 35.051 35.058 35.046 35.033 35.118 35.143 35.088 35.113 35.241 35.278 35.206 35.286 35.398 35.423 35.413 35.501 35.516 35.476 35.506 35.566 35.576 35.591 35.626 35.551 35.533 35.606 35.668 35.686 35.703 35.723 35.703 35.696 35.753 35.771 35.801 35.826 35.828 35.838 35.908 35.921 35.928 35.928 35.976 36.026 35.983 36.036 36.076 36.058 36.138 36.186 36.178 36.216 36.268 36.306 36.308 36.323 36.346 36.341 36.338 36.396 36.491 36.578 36.603 36.527 36.389 36.397 36.5 36.516 36.504 36.489 36.462 36.483 36.479 36.498 36.456 36.451 36.463 36.452 36.46 36.575 36.703 36.548 36.363 36.228 36.096 36.121 36.173 36.223 36.246 36.296 36.301 36.163 36.088 36.118 36.181 36.233 36.276 36.316 36.348 36.323 36.103 35.796 35.698 35.728 35.758 35.903 36.021 36.038 36.121 36.151 36.201 36.218 36.298 36.336 36.373 36.416 36.503 36.563 36.633 36.548 36.501 36.501 36.498 36.463 36.441 36.423 36.393 36.333 36.301 36.258 36.261 36.306 36.416 36.391 36.373 36.406 36.526 36.668 36.861 37.203 37.588 37.946 38.298 38.568 38.783 39.016 39.258 39.448 39.578 39.613 39.596 39.508 39.351 39.101 38.696 38.181 37.491 36.801 36.321 36.213 36.136 36.038 36.063 36.048 36.006 36.011 36.028 36.036 36.073 36.068 36.026 36.008 36.118 36.213 36.233 36.201 36.228 36.233 36.218 36.158 36.091 36.083 36.131 36.163 36.166 36.196 36.276 36.313 36.346 36.353 36.365 36.373 36.41 36.413 36.428 36.463 36.49 36.53 36.583 36.643 36.668 36.698 36.745 36.8 36.88 36.918 36.985 37.003 37.07 37.105 37.15 37.193 37.22 37.248 37.3 37.348 37.393 37.455 37.513 37.558 37.615 37.658 37.695 37.743 37.758 37.793 37.833 37.845 37.863 37.895 37.923 37.92 37.948 37.97 37.98 38.025 38.025 38.05 38.053 38.065 38.073 38.043 38.035 38.025 38.028 38.033 38.048 38.055 38.063 38.068 38.08 38.118 38.103 38.14 38.133 38.055 38.055 38.005 38.003 37.99 37.978 37.945 37.998 38.02 38.035 38.043 38.13 38.15 38.025 37.928 37.955 37.978 37.988 37.978 37.9 37.853 37.83 37.705 37.62 37.563 37.55 37.495 37.435 37.358 37.34 37.36 37.4 37.358 37.385 37.338 37.212 37.11 37.045 36.972 36.927 36.927 36.875 36.857 36.85 36.777 36.745 36.697 36.627 36.607 36.587 36.567 36.497 36.557 36.537 36.562 36.582 36.587 36.602 36.582 36.585 36.61 36.555 36.512 36.48 36.415 36.34 36.28 36.247 36.25 36.385 36.445 36.515 36.552 36.502 36.47 36.515 36.472 36.422 36.312 36.25 36.227 36.27 36.265 36.142 36.11 36.072 36.057 36.042 36.032 35.942 35.852 35.767 35.697 35.677 35.687 35.627 35.627 35.625 35.572 35.392 35.335 35.32 35.302 35.327 35.3 35.305 35.295 35.272 35.282 35.27 35.242 35.24 35.2 35.192 35.225 35.262 35.252 35.257 35.3 35.32 35.357 35.377 35.407 35.38 35.325 35.227
35.363 35.356 35.341 35.326 35.293 35.276 35.291 35.286 35.301 35.293 35.296 35.318 35.308 35.273 35.286 35.286 35.298 35.283 35.271 35.238 35.243 35.258 35.191 35.233 35.206 35.161 35.208 35.218 35.216 35.183 35.193 35.211 35.183 35.166 35.171 35.131 35.131 35.133 35.166 35.196 35.213 35.196 35.158 35.091 35.151 35.098 35.046 34.961 34.901 34.896 34.931 34.978 34.998 35.013 35.031 35.076 35.053 35.011 35.048 35.141 35.096 35.078 35.176 35.258 35.211 35.181 35.291 35.348 35.351 35.386 35.448 35.458 35.451 35.506 35.551 35.561 35.603 35.608 35.578 35.563 35.631 35.666 35.651 35.698 35.716 35.701 35.738 35.773 35.808 35.833 35.836 35.823 35.881 35.906 35.951 35.916 35.963 35.996 35.993 36.038 36.058 36.071 36.106 36.196 36.221 36.223 36.263 36.291 36.311 36.316 36.343 36.381 36.373 36.401 36.466 36.556 36.646 36.643 36.551 36.383 36.448 36.519 36.515 36.5 36.495 36.496 36.501 36.528 36.5 36.492 36.484 36.485 36.505 36.527 36.61 36.603 36.608 36.428 36.203 36.086 36.148 36.176 36.198 36.263 36.241 36.263 36.186 36.108 36.116 36.176 36.248 36.283 36.318 36.363 36.306 36.036 35.763 35.706 35.756 35.776 35.916 36.016 36.071 36.126 36.196 36.221 36.258 36.291 36.333 36.416 36.503 36.541 36.596 36.578 36.508 36.521 36.536 36.508 36.496 36.431 36.408 36.373 36.371 36.326 36.346 36.336 36.351 36.326 36.343 36.341 36.378 36.353 36.408 36.546 36.746 37.161 37.626 37.931 38.276 38.628 38.913 39.203 39.436 39.643 39.703 39.711 39.668 39.443 39.171 38.838 38.336 37.578 36.848 36.366 36.198 36.131 36.088 36.036 36.026 36.008 35.998 36.031 36.061 36.056 36.093 36.068 36.173 36.206 36.201 36.228 36.233 36.253 36.216 36.161 36.118 36.133 36.181 36.191 36.188 36.226 36.288 36.311 36.341 36.346 36.325 36.358 36.393 36.423 36.45 36.463 36.498 36.51 36.563 36.595 36.65 36.698 36.765 36.825 36.893 36.93 36.995 37.028 37.073 37.108 37.145 37.16 37.208 37.27 37.318 37.373 37.4 37.46 37.508 37.59 37.605 37.688 37.725 37.763 37.78 37.81 37.85 37.863 37.888 37.913 37.958 37.983 38 38.03 38 38.038 38.055 38.085 38.078 38.095 38.085 38.07 38.108 38.07 38.06 38.085 38.08 38.1 38.093 38.125 38.175 38.173 38.153 38.128 38.145 38.113 38.078 38.053 38.045 38.018 38.013 38.05 38.103 38.083 38.12 38.15 38.19 38.165 38.01 37.925 37.958 37.965 38.018 37.985 37.94 37.825 37.875 37.765 37.653 37.585 37.585 37.55 37.395 37.383 37.405 37.43 37.398 37.355 37.358 37.283 37.167 37.067 37.002 36.97 36.947 36.935 36.897 36.835 36.82 36.8 36.775 36.73 36.657 36.637 36.622 36.597 36.547 36.545 36.542 36.55 36.557 36.542 36.555 36.565 36.572 36.582 36.55 36.535 36.48 36.43 36.352 36.265 36.252 36.262 36.237 36.35 36.462 36.502 36.495 36.462 36.495 36.467 36.467 36.407 36.29 36.227 36.237 36.312 36.245 36.135 36.087 36.072 36.06 36.022 36.01 35.94 35.86 35.807 35.742 35.747 35.702 35.627 35.625 35.592 35.465 35.425 35.405 35.412 35.4 35.365 35.367 35.317 35.302 35.277 35.272 35.252 35.237 35.26 35.22 35.275 35.3 35.287 35.3 35.345 35.385 35.392 35.427 35.417 35.375 35.272 35.187
35.313 35.343 35.298 35.286 35.253 35.251 35.271 35.276 35.288 35.268 35.281 35.313 35.293 35.283 35.293 35.291 35.271 35.256 35.266 35.238 35.241 35.253 35.228 35.188 35.206 35.178 35.193 35.228 35.211 35.236 35.168 35.176 35.201 35.161 35.151 35.146 35.176 35.186 35.238 35.231 35.273 35.213 35.113 35.078 35.158 35.108 35.021 34.891 34.851 34.878 34.918 35.003 35.023 35.003 35.018 35.048 35.048 35.008 35.016 35.111 35.141 35.056 35.096 35.231 35.253 35.173 35.241 35.348 35.293 35.303 35.381 35.431 35.383 35.473 35.528 35.511 35.541 35.558 35.553 35.531 35.586 35.661 35.658 35.661 35.723 35.701 35.731 35.798 35.801 35.818 35.846 35.841 35.868 35.926 35.941 35.936 35.971 36.018 36.006 36.036 36.051 36.088 36.103 36.176 36.268 36.261 36.258 36.308 36.316 36.313 36.351 36.381 36.416 36.416 36.446 36.536 36.616 36.636 36.636 36.472 36.391 36.508 36.529 36.535 36.523 36.52 36.51 36.547 36.544 36.532 36.507 36.534 36.534 36.538 36.535 36.55 36.746 36.628 36.361 36.098 36.108 36.163 36.196 36.243 36.256 36.293 36.318 36.106 36.076 36.158 36.208 36.228 36.283 36.358 36.363 36.196 35.903 35.723 35.746 35.743 35.816 36.016 36.058 36.108 36.163 36.193 36.251 36.291 36.318 36.386 36.476 36.538 36.568 36.623 36.576 36.523 36.556 36.501 36.498 36.506 36.461 36.411 36.393 36.403 36.418 36.408 36.393 36.316 36.276 36.241 36.221 36.233 36.288 36.448 36.421 36.458 36.768 37.228 37.651 38.088 38.441 38.796 39.113 39.421 39.648 39.801 39.828 39.746 39.531 39.243 38.961 38.441 37.618 36.818 36.323 36.206 36.198 36.078 35.963 35.961 35.996 36.063 36.083 36.248 36.286 36.136 36.153 36.171 36.221 36.211 36.228 36.246 36.243 36.206 36.211 36.216 36.223 36.213 36.206 36.243 36.263 36.318 36.323 36.338 36.36 36.373 36.408 36.408 36.453 36.463 36.49 36.508 36.54 36.57 36.638 36.71 36.775 36.815 36.865 36.928 37 37.043 37.065 37.093 37.155 37.173 37.2 37.28 37.353 37.373 37.425 37.483 37.528 37.585 37.613 37.67 37.753 37.8 37.835 37.853 37.898 37.92 37.9 37.95 37.983 38.043 38.05 38.013 38.02 38.06 38.098 38.118 38.09 38.115 38.113 38.105 38.095 38.125 38.125 38.13 38.133 38.158 38.185 38.198 38.193 38.18 38.19 38.13 38.16 38.138 38.135 38.15 38.073 38.075 38.103 38.16 38.18 38.2 38.235 38.193 38.218 38.23 38.065 37.96 37.908 37.9 37.953 37.978 37.983 37.845 37.845 37.805 37.67 37.605 37.588 37.545 37.47 37.43 37.453 37.443 37.443 37.415 37.335 37.235 37.14 37.075 37.047 36.982 36.925 36.937 36.865 36.84 36.83 36.805 36.782 36.74 36.705 36.647 36.617 36.602 36.567 36.525 36.557 36.562 36.567 36.537 36.53 36.54 36.547 36.552 36.535 36.52 36.47 36.442 36.37 36.295 36.24 36.265 36.24 36.27 36.442 36.495 36.527 36.5 36.46 36.497 36.5 36.48 36.352 36.275 36.227 36.272 36.282 36.27 36.135 36.085 36.072 36.06 36.03 35.992 35.94 35.907 35.855 35.782 35.772 35.737 35.647 35.56 35.517 35.482 35.5 35.52 35.477 35.42 35.407 35.387 35.347 35.302 35.3 35.282 35.297 35.285 35.285 35.322 35.305 35.352 35.385 35.397 35.435 35.46 35.465 35.425 35.34 35.245 35.15
35.308 35.306 35.296 35.256 35.266 35.246 35.268 35.253 35.246 35.241 35.256 35.261 35.288 35.248 35.276 35.273 35.258 35.238 35.253 35.226 35.226 35.226 35.208 35.206 35.218 35.231 35.198 35.223 35.221 35.211 35.181 35.143 35.176 35.143 35.181 35.211 35.233 35.231 35.238 35.288 35.253 35.088 34.978 34.973 34.936 34.963 34.946 34.923 34.911 34.981 34.988 34.983 34.981 35.051 35.036 34.968 35.056 35.036 34.946 35.026 35.138 35.093 35.066 35.171 35.241 35.221 35.161 35.296 35.308 35.271 35.346 35.458 35.366 35.426 35.471 35.483 35.491 35.533 35.531 35.518 35.561 35.618 35.671 35.673 35.718 35.711 35.713 35.738 35.771 35.798 35.831 35.851 35.848 35.916 35.931 35.971 35.956 36.006 36.026 36.033 36.048 36.111 36.148 36.158 36.283 36.276 36.258 36.281 36.336 36.356 36.343 36.411 36.458 36.451 36.433 36.491 36.581 36.658 36.653 36.589 36.412 36.486 36.559 36.577 36.551 36.533 36.536 36.555 36.574 36.575 36.547 36.569 36.565 36.558 36.568 36.576 36.761 36.796 36.501 36.223 36.123 36.141 36.173 36.223 36.276 36.268 36.331 36.228 36.093 36.111 36.181 36.216 36.276 36.346 36.348 36.306 36.116 35.883 35.733 35.733 35.738 35.866 36.071 36.091 36.121 36.171 36.273 36.278 36.326 36.378 36.448 36.476 36.511 36.616 36.646 36.546 36.518 36.518 36.528 36.521 36.493 36.461 36.428 36.426 36.446 36.448 36.421 36.371 36.268 36.233 36.233 36.193 36.188 36.241 36.233 36.291 36.318 36.596 36.901 37.336 37.896 38.311 38.683 39.141 39.458 39.693 39.873 39.913 39.846 39.591 39.461 39.151 38.423 37.586 36.823 36.306 36.268 36.153 35.958 35.971 36.051 36.123 36.253 36.298 36.333 36.243 36.158 36.181 36.216 36.191 36.226 36.263 36.278 36.276 36.258 36.253 36.233 36.226 36.223 36.223 36.246 36.293 36.333 36.331 36.343 36.37 36.393 36.4 36.433 36.463 36.495 36.523 36.55 36.575 36.65 36.715 36.775 36.843 36.883 36.945 36.973 37.033 37.068 37.093 37.13 37.188 37.223 37.273 37.318 37.383 37.445 37.51 37.54 37.593 37.64 37.703 37.763 37.803 37.86 37.905 37.92 37.945 37.965 37.98 38.015 38.038 38.053 38.043 38.055 38.065 38.11 38.143 38.133 38.123 38.118 38.15 38.15 38.158 38.178 38.175 38.198 38.193 38.208 38.218 38.225 38.24 38.213 38.14 38.168 38.193 38.173 38.085 38.158 38.235 38.235 38.245 38.248 38.258 38.235 38.168 38.158 38.188 38.075 37.94 37.898 37.88 37.883 37.898 37.87 37.773 37.765 37.705 37.688 37.66 37.663 37.643 37.55 37.495 37.5 37.493 37.518 37.425 37.293 37.23 37.172 37.115 37.06 37.025 36.98 36.932 36.9 36.87 36.825 36.792 36.812 36.782 36.742 36.65 36.617 36.617 36.577 36.555 36.537 36.537 36.537 36.532 36.515 36.532 36.547 36.532 36.507 36.52 36.47 36.42 36.387 36.307 36.232 36.215 36.24 36.24 36.482 36.47 36.515 36.52 36.452 36.487 36.517 36.482 36.412 36.375 36.34 36.282 36.282 36.265 36.23 36.12 36.075 36.065 36.04 35.985 36.012 35.962 35.91 35.86 35.887 35.892 35.72 35.612 35.58 35.567 35.615 35.61 35.535 35.467 35.457 35.455 35.422 35.385 35.382 35.34 35.31 35.342 35.377 35.372 35.38 35.4 35.402 35.44 35.44 35.477 35.455 35.385 35.297 35.217 35.132
35.303 35.271 35.263 35.268 35.253 35.228 35.223 35.221 35.223 35.218 35.208 35.216 35.256 35.268 35.253 35.271 35.256 35.243 35.248 35.226 35.243 35.228 35.236 35.201 35.206 35.228 35.216 35.188 35.196 35.181 35.168 35.121 35.191 35.196 35.221 35.233 35.238 35.258 35.313 35.321 35.163 34.973 34.841 34.761 34.891 35.001 35.036 34.971 34.946 35.016 34.936 34.931 34.973 35.046 35.036 34.968 35.066 35.108 35.003 34.973 35.081 35.143 35.103 35.118 35.203 35.238 35.226 35.246 35.328 35.241 35.271 35.388 35.376 35.358 35.423 35.478 35.461 35.511 35.513 35.513 35.533 35.578 35.641 35.671 35.711 35.711 35.698 35.706 35.778 35.781 35.823 35.891 35.868 35.866 35.921 35.981 35.973 36.003 36.066 36.078 36.093 36.121 36.166 36.163 36.231 36.256 36.263 36.288 36.331 36.358 36.376 36.396 36.458 36.456 36.458 36.463 36.556 36.661 36.696 36.681 36.552 36.425 36.542 36.584 36.59 36.583 36.58 36.568 36.585 36.611 36.598 36.585 36.588 36.587 36.593 36.627 36.745 36.773 36.623 36.388 36.196 36.141 36.123 36.201 36.243 36.266 36.316 36.346 36.188 36.108 36.161 36.221 36.246 36.303 36.361 36.393 36.291 36.028 35.771 35.713 35.736 35.766 35.928 36.028 36.078 36.161 36.198 36.271 36.341 36.371 36.403 36.436 36.506 36.556 36.641 36.663 36.533 36.503 36.518 36.531 36.498 36.478 36.471 36.448 36.468 36.461 36.438 36.398 36.341 36.276 36.278 36.246 36.201 36.178 36.121 36.151 36.241 36.351 36.461 36.656 37.171 37.716 38.356 38.821 39.191 39.443 39.696 39.906 39.968 39.901 39.713 39.443 39.063 38.413 37.603 36.748 36.371 36.271 36.098 36.003 36.088 36.263 36.366 36.301 36.351 36.311 36.316 36.246 36.146 36.141 36.221 36.248 36.293 36.296 36.283 36.278 36.281 36.281 36.266 36.251 36.246 36.276 36.311 36.323 36.345 36.39 36.403 36.42 36.42 36.445 36.473 36.513 36.558 36.58 36.66 36.72 36.783 36.84 36.878 36.918 36.953 37.018 37.058 37.095 37.148 37.203 37.235 37.3 37.345 37.385 37.423 37.465 37.54 37.58 37.643 37.723 37.765 37.813 37.888 37.92 37.93 37.97 38.005 38.03 38.033 38.04 38.07 38.08 38.073 38.08 38.13 38.17 38.168 38.17 38.173 38.205 38.205 38.205 38.24 38.25 38.258 38.243 38.228 38.23 38.248 38.275 38.245 38.173 38.225 38.203 38.215 38.2 38.255 38.28 38.293 38.248 38.238 38.225 38.223 38.145 38.138 38.108 38.02 37.953 37.943 37.92 37.888 37.85 37.848 37.803 37.743 37.763 37.74 37.765 37.753 37.69 37.535 37.558 37.61 37.573 37.493 37.448 37.38 37.308 37.225 37.172 37.1 37.04 36.99 36.945 36.922 36.892 36.87 36.832 36.825 36.805 36.757 36.707 36.667 36.617 36.57 36.547 36.51 36.542 36.512 36.515 36.505 36.53 36.54 36.555 36.535 36.517 36.475 36.41 36.385 36.332 36.242 36.167 36.215 36.215 36.352 36.442 36.487 36.52 36.475 36.432 36.497 36.447 36.407 36.395 36.382 36.325 36.272 36.247 36.217 36.152 36.12 36.067 36.047 36.037 36.002 35.972 35.92 35.882 35.897 35.865 35.715 35.672 35.632 35.617 35.687 35.675 35.582 35.49 35.522 35.497 35.49 35.442 35.415 35.38 35.36 35.397 35.43 35.422 35.435 35.432 35.442 35.462 35.46 35.482 35.462 35.325 35.232 35.177 35.072
35.258 35.231 35.216 35.238 35.238 35.221 35.203 35.173 35.181 35.196 35.228 35.223 35.213 35.243 35.251 35.253 35.278 35.253 35.248 35.268 35.276 35.218 35.238 35.203 35.196 35.221 35.183 35.178 35.173 35.156 35.196 35.168 35.208 35.253 35.263 35.283 35.293 35.283 35.393 35.113 34.976 34.878 34.918 34.926 35.038 35.103 35.106 34.973 34.963 34.993 34.993 34.941 34.898 35.021 35.041 34.983 35.011 35.101 35.041 34.938 35.013 35.156 35.138 35.041 35.148 35.291 35.243 35.201 35.291 35.301 35.261 35.323 35.353 35.361 35.396 35.461 35.468 35.513 35.521 35.506 35.496 35.516 35.631 35.708 35.688 35.718 35.743 35.721 35.758 35.778 35.796 35.853 35.876 35.876 35.911 35.956 35.993 36.008 36.076 36.108 36.108 36.111 36.166 36.178 36.203 36.253 36.313 36.311 36.336 36.401 36.403 36.393 36.451 36.473 36.478 36.463 36.556 36.663 36.711 36.716 36.66 36.512 36.495 36.59 36.611 36.622 36.612 36.612 36.609 36.624 36.624 36.624 36.592 36.62 36.62 36.64 36.752 36.786 36.713 36.583 36.308 36.201 36.126 36.171 36.203 36.251 36.268 36.338 36.298 36.168 36.138 36.188 36.258 36.308 36.333 36.368 36.356 36.213 35.981 35.713 35.726 35.748 35.838 35.931 36.023 36.106 36.188 36.246 36.283 36.351 36.361 36.436 36.516 36.491 36.591 36.693 36.628 36.496 36.496 36.531 36.521 36.501 36.488 36.476 36.478 36.496 36.483 36.438 36.396 36.306 36.258 36.283 36.241 36.196 36.173 36.111 36.126 36.208 36.326 36.343 36.546 37.023 37.608 38.193 38.716 39.073 39.423 39.701 39.983 40.083 39.968 39.688 39.403 38.966 38.308 37.423 36.718 36.378 36.221 36.171 36.256 36.386 36.423 36.431 36.543 36.651 36.576 36.331 36.148 36.161 36.233 36.263 36.286 36.303 36.331 36.343 36.318 36.311 36.293 36.261 36.268 36.263 36.281 36.301 36.35 36.38 36.408 36.403 36.41 36.46 36.5 36.533 36.56 36.605 36.643 36.71 36.765 36.818 36.855 36.9 36.955 36.98 37.043 37.11 37.148 37.21 37.235 37.288 37.338 37.388 37.42 37.463 37.545 37.603 37.648 37.705 37.795 37.845 37.885 37.94 37.975 38.015 38.06 38.05 38.038 38.075 38.098 38.108 38.13 38.138 38.133 38.17 38.17 38.203 38.233 38.22 38.225 38.258 38.273 38.28 38.27 38.268 38.253 38.25 38.263 38.255 38.235 38.263 38.258 38.288 38.275 38.263 38.378 38.363 38.328 38.335 38.273 38.218 38.195 38.165 38.118 38.078 37.993 37.963 37.953 37.975 37.963 37.973 37.933 37.885 37.793 37.833 37.773 37.75 37.723 37.678 37.688 37.673 37.64 37.58 37.558 37.52 37.448 37.34 37.262 37.207 37.132 37.042 37.005 36.982 36.93 36.905 36.892 36.89 36.83 36.805 36.775 36.71 36.67 36.605 36.572 36.542 36.512 36.515 36.495 36.507 36.5 36.515 36.512 36.55 36.535 36.515 36.48 36.442 36.367 36.3 36.252 36.17 36.19 36.205 36.255 36.42 36.477 36.507 36.515 36.46 36.477 36.5 36.45 36.467 36.462 36.38 36.297 36.237 36.18 36.18 36.177 36.127 36.072 36.07 36.045 36.005 35.985 35.927 35.917 35.872 35.79 35.752 35.71 35.67 35.742 35.74 35.635 35.607 35.585 35.537 35.507 35.477 35.442 35.442 35.46 35.465 35.462 35.455 35.49 35.495 35.535 35.507 35.48 35.43 35.357 35.225 35.18 35.117 35.045
35.223 35.198 35.231 35.198 35.178 35.148 35.151 35.173 35.173 35.181 35.216 35.208 35.213 35.236 35.238 35.236 35.263 35.261 35.253 35.253 35.253 35.238 35.218 35.216 35.206 35.216 35.198 35.191 35.168 35.173 35.181 35.206 35.213 35.286 35.313 35.308 35.276 35.258 35.268 34.858 34.673 34.821 34.973 35.018 35.138 35.246 35.168 35.078 34.978 35.003 35.046 34.988 34.883 34.901 35.016 34.988 34.936 35.048 35.058 35.001 34.938 35.081 35.173 35.091 35.061 35.196 35.248 35.176 35.213 35.306 35.273 35.266 35.381 35.386 35.348 35.456 35.458 35.471 35.521 35.531 35.533 35.473 35.586 35.721 35.708 35.728 35.763 35.753 35.761 35.801 35.768 35.803 35.881 35.888 35.921 35.976 36.013 36.041 36.061 36.111 36.133 36.108 36.151 36.201 36.203 36.251 36.303 36.318 36.321 36.398 36.453 36.431 36.438 36.478 36.501 36.516 36.541 36.633 36.698 36.776 36.733 36.641 36.501 36.556 36.646 36.673 36.652 36.628 36.636 36.649 36.653 36.639 36.605 36.629 36.646 36.68 36.759 36.931 37.006 36.776 36.493 36.261 36.143 36.148 36.173 36.241 36.301 36.301 36.313 36.261 36.136 36.176 36.216 36.266 36.268 36.336 36.366 36.358 36.226 35.881 35.726 35.721 35.783 35.893 36.018 36.078 36.141 36.208 36.243 36.333 36.366 36.383 36.481 36.521 36.563 36.626 36.673 36.568 36.491 36.496 36.508 36.523 36.491 36.501 36.471 36.501 36.503 36.468 36.441 36.393 36.306 36.268 36.256 36.256 36.203 36.136 36.058 36.106 36.193 36.233 36.301 36.433 36.918 37.588 38.258 38.806 39.113 39.456 39.818 40.143 40.181 40.011 39.716 39.373 38.853 38.166 37.351 36.708 36.466 36.546 36.718 36.908 37.081 37.036 36.988 36.891 36.618 36.326 36.158 36.183 36.206 36.243 36.236 36.273 36.323 36.356 36.338 36.328 36.308 36.278 36.273 36.268 36.278 36.306 36.335 36.378 36.418 36.423 36.42 36.465 36.503 36.545 36.583 36.645 36.655 36.69 36.743 36.79 36.845 36.885 36.955 36.995 37.058 37.11 37.14 37.203 37.243 37.3 37.325 37.395 37.44 37.47 37.538 37.578 37.65 37.733 37.793 37.88 37.95 37.978 38.028 38.025 38.05 38.053 38.078 38.09 38.113 38.153 38.15 38.155 38.135 38.148 38.18 38.22 38.23 38.258 38.278 38.28 38.283 38.3 38.29 38.283 38.29 38.285 38.255 38.283 38.283 38.31 38.303 38.328 38.32 38.338 38.39 38.405 38.405 38.38 38.315 38.185 38.143 38.148 38.1 38.038 38.018 38.033 38.075 38.085 38.125 38.088 37.978 37.915 37.86 37.833 37.793 37.773 37.783 37.78 37.718 37.725 37.683 37.648 37.635 37.56 37.483 37.405 37.327 37.232 37.145 37.062 37.04 37.005 36.97 36.935 36.937 36.882 36.835 36.835 36.772 36.735 36.682 36.617 36.575 36.545 36.515 36.502 36.482 36.485 36.48 36.5 36.527 36.53 36.52 36.527 36.512 36.45 36.352 36.3 36.247 36.217 36.162 36.195 36.157 36.415 36.5 36.47 36.525 36.477 36.43 36.505 36.52 36.52 36.51 36.422 36.377 36.21 36.175 36.155 36.167 36.162 36.115 36.057 36.065 36.057 36.012 36 35.945 35.915 35.88 35.79 35.767 35.715 35.737 35.712 35.64 35.637 35.622 35.592 35.567 35.527 35.527 35.492 35.49 35.515 35.537 35.532 35.552 35.592 35.56 35.522 35.46 35.37 35.287 35.175 35.135 35.08 35.017
35.188 35.216 35.233 35.178 35.166 35.143 35.128 35.136 35.163 35.176 35.166 35.201 35.213 35.231 35.238 35.246 35.266 35.263 35.256 35.221 35.268 35.228 35.221 35.208 35.198 35.183 35.188 35.168 35.198 35.208 35.223 35.256 35.286 35.336 35.328 35.301 35.046 34.813 34.751 34.498 34.561 34.968 35.043 35.041 35.116 35.246 35.258 35.161 35.108 34.998 35.048 35.013 34.931 34.873 34.948 35.016 34.981 35.008 35.128 35.088 34.961 35.026 35.153 35.141 35.041 35.143 35.293 35.246 35.211 35.303 35.288 35.226 35.313 35.398 35.341 35.383 35.463 35.483 35.528 35.536 35.553 35.506 35.546 35.696 35.741 35.746 35.768 35.791 35.763 35.781 35.771 35.818 35.896 35.943 35.961 35.978 36.026 36.066 36.048 36.086 36.128 36.143 36.146 36.208 36.221 36.266 36.323 36.363 36.333 36.388 36.433 36.478 36.443 36.461 36.528 36.573 36.561 36.578 36.676 36.746 36.768 36.754 36.618 36.526 36.635 36.689 36.687 36.666 36.665 36.665 36.687 36.675 36.643 36.628 36.658 36.728 36.815 36.989 37.048 36.858 36.651 36.498 36.253 36.153 36.138 36.181 36.256 36.278 36.331 36.348 36.251 36.123 36.138 36.208 36.271 36.348 36.343 36.386 36.346 36.053 35.816 35.706 35.756 35.806 36.003 36.113 36.133 36.216 36.291 36.318 36.356 36.396 36.443 36.483 36.523 36.543 36.683 36.636 36.538 36.513 36.471 36.503 36.501 36.511 36.523 36.538 36.511 36.496 36.473 36.461 36.431 36.358 36.281 36.276 36.256 36.181 36.131 36.113 36.131 36.188 36.261 36.296 36.456 36.933 37.641 38.348 38.771 39.156 39.586 40.058 40.281 40.253 40.023 39.708 39.351 38.873 38.023 37.461 37.098 37.226 37.446 37.558 37.526 37.318 37.093 36.873 36.468 36.163 36.196 36.228 36.208 36.211 36.243 36.283 36.328 36.358 36.363 36.348 36.323 36.301 36.301 36.296 36.303 36.323 36.345 36.368 36.393 36.435 36.448 36.478 36.523 36.57 36.595 36.623 36.645 36.663 36.708 36.788 36.838 36.88 36.935 37.015 37.053 37.075 37.15 37.213 37.255 37.303 37.365 37.395 37.438 37.488 37.565 37.633 37.688 37.745 37.783 37.853 37.935 37.98 38.028 38.03 38.058 38.055 38.098 38.103 38.128 38.155 38.153 38.158 38.145 38.16 38.18 38.215 38.268 38.308 38.325 38.308 38.325 38.343 38.325 38.298 38.298 38.325 38.315 38.298 38.318 38.305 38.335 38.368 38.358 38.413 38.53 38.548 38.455 38.423 38.368 38.213 38.113 38.09 38.083 38.058 38.098 38.225 38.22 38.1 38.083 38.05 37.99 37.94 37.94 37.938 37.91 37.853 37.8 37.735 37.743 37.763 37.75 37.705 37.653 37.565 37.523 37.48 37.372 37.262 37.215 37.102 37.077 37.045 37.017 36.987 36.95 36.885 36.872 36.845 36.807 36.782 36.72 36.647 36.577 36.54 36.52 36.472 36.482 36.47 36.472 36.462 36.515 36.525 36.52 36.512 36.495 36.447 36.385 36.315 36.27 36.217 36.16 36.147 36.185 36.225 36.385 36.432 36.47 36.49 36.422 36.43 36.507 36.552 36.577 36.532 36.422 36.175 36.107 36.09 36.14 36.147 36.175 36.085 36.035 36.04 36.05 36.027 35.995 35.957 35.93 35.865 35.822 35.817 35.76 35.747 35.705 35.677 35.652 35.615 35.602 35.605 35.575 35.54 35.545 35.567 35.602 35.637 35.652 35.632 35.547 35.47 35.4 35.29 35.195 35.142 35.112 35.087 35.032
35.176 35.171 35.176 35.161 35.166 35.133 35.123 35.138 35.158 35.163 35.163 35.198 35.196 35.211 35.206 35.198 35.261 35.256 35.253 35.253 35.256 35.241 35.218 35.201 35.198 35.173 35.178 35.198 35.251 35.251 35.288 35.321 35.336 35.373 35.306 34.876 34.543 34.323 34.211 34.201 34.343 34.726 35.021 35.086 35.126 35.198 35.293 35.273 35.198 35.111 35.046 35.058 35.068 34.941 34.966 35.048 35.031 34.986 35.086 35.123 35.028 34.988 35.091 35.171 35.098 35.078 35.206 35.283 35.221 35.261 35.306 35.276 35.288 35.338 35.373 35.336 35.391 35.476 35.486 35.536 35.606 35.583 35.573 35.628 35.736 35.773 35.803 35.821 35.796 35.783 35.838 35.866 35.888 35.963 35.968 35.968 36.006 36.051 36.031 36.073 36.141 36.173 36.173 36.206 36.258 36.256 36.293 36.373 36.373 36.376 36.448 36.506 36.501 36.456 36.523 36.586 36.578 36.593 36.661 36.728 36.793 36.813 36.759 36.549 36.592 36.683 36.708 36.704 36.686 36.673 36.675 36.701 36.703 36.662 36.676 36.769 36.832 36.915 37.063 36.981 36.886 36.736 36.426 36.191 36.141 36.151 36.216 36.298 36.333 36.368 36.341 36.178 36.176 36.176 36.236 36.281 36.301 36.388 36.386 36.283 36.023 35.808 35.728 35.786 35.898 36.053 36.106 36.186 36.276 36.288 36.321 36.363 36.393 36.446 36.463 36.508 36.616 36.668 36.618 36.603 36.531 36.528 36.543 36.533 36.513 36.543 36.536 36.536 36.488 36.503 36.463 36.413 36.356 36.286 36.298 36.253 36.221 36.186 36.133 36.166 36.206 36.286 36.371 36.518 37.036 37.721 38.451 38.938 39.328 39.848 40.226 40.361 40.278 39.986 39.726 39.446 38.811 38.143 37.978 38.158 38.023 37.866 37.658 37.361 37.061 36.526 36.173 36.178 36.233 36.241 36.216 36.228 36.251 36.263 36.311 36.366 36.366 36.356 36.331 36.316 36.296 36.291 36.291 36.306 36.355 36.378 36.42 36.443 36.47 36.508 36.515 36.575 36.593 36.623 36.638 36.668 36.705 36.758 36.833 36.878 36.93 36.975 37.025 37.095 37.165 37.213 37.263 37.313 37.373 37.425 37.45 37.51 37.58 37.648 37.693 37.72 37.783 37.85 37.93 37.968 38.02 38.053 38.075 38.093 38.135 38.133 38.158 38.16 38.138 38.163 38.183 38.175 38.21 38.233 38.258 38.313 38.328 38.338 38.338 38.345 38.348 38.353 38.348 38.34 38.333 38.31 38.345 38.365 38.373 38.393 38.478 38.61 38.755 38.705 38.528 38.478 38.423 38.3 38.16 38.08 38.093 38.175 38.27 38.268 38.173 38.12 38.093 38.048 38.013 38.003 37.963 37.953 37.92 37.818 37.783 37.778 37.803 37.795 37.78 37.74 37.68 37.63 37.57 37.485 37.405 37.3 37.24 37.167 37.112 37.067 37.032 37.012 36.992 36.942 36.917 36.86 36.805 36.797 36.725 36.645 36.607 36.552 36.52 36.46 36.432 36.452 36.457 36.45 36.492 36.5 36.532 36.477 36.457 36.442 36.395 36.377 36.305 36.24 36.16 36.102 36.15 36.162 36.255 36.377 36.442 36.475 36.437 36.392 36.472 36.56 36.62 36.57 36.427 36.215 36.097 36.07 36.117 36.135 36.165 36.172 36.06 36.015 36.027 36.012 36.01 35.982 35.955 35.917 35.897 35.87 35.835 35.807 35.775 35.737 35.735 35.68 35.68 35.64 35.6 35.63 35.637 35.69 35.72 35.72 35.74 35.637 35.512 35.415 35.287 35.16 35.16 35.147 35.142 35.085 35.017
35.123 35.146 35.148 35.116 35.148 35.143 35.121 35.138 35.136 35.153 35.148 35.201 35.186 35.238 35.233 35.191 35.228 35.243 35.248 35.238 35.266 35.203 35.208 35.206 35.216 35.188 35.228 35.261 35.291 35.303 35.328 35.286 35.271 35.133 34.681 34.236 34.056 34.178 34.223 34.081 34.096 34.373 34.721 35.031 35.116 35.163 35.216 35.286 35.206 35.153 35.056 35.061 35.056 35.036 34.968 35.026 35.056 35.018 35.066 35.143 35.086 34.988 35.056 35.188 35.153 35.068 35.148 35.283 35.256 35.176 35.276 35.308 35.241 35.301 35.376 35.343 35.326 35.433 35.473 35.496 35.556 35.601 35.546 35.598 35.713 35.781 35.788 35.823 35.813 35.781 35.808 35.876 35.901 35.941 35.996 35.971 36.003 36.046 36.073 36.063 36.133 36.206 36.206 36.191 36.268 36.291 36.288 36.386 36.421 36.423 36.431 36.491 36.513 36.536 36.536 36.581 36.621 36.598 36.631 36.718 36.801 36.828 36.813 36.718 36.567 36.672 36.715 36.731 36.723 36.707 36.69 36.732 36.734 36.696 36.67 36.747 36.806 36.977 37.131 36.998 36.963 36.881 36.671 36.401 36.183 36.141 36.198 36.273 36.291 36.318 36.331 36.303 36.158 36.191 36.213 36.261 36.278 36.346 36.373 36.378 36.158 35.941 35.733 35.753 35.808 35.941 36.111 36.126 36.178 36.261 36.321 36.351 36.366 36.401 36.426 36.536 36.578 36.651 36.726 36.683 36.616 36.561 36.563 36.558 36.553 36.556 36.546 36.556 36.541 36.506 36.456 36.418 36.381 36.318 36.321 36.298 36.268 36.248 36.193 36.166 36.156 36.248 36.371 36.408 36.633 37.181 37.896 38.698 39.108 39.561 40.083 40.381 40.461 40.273 39.906 39.638 39.356 38.993 38.768 38.578 38.253 37.951 37.733 37.331 36.536 36.141 36.111 36.211 36.236 36.226 36.213 36.256 36.258 36.246 36.276 36.328 36.351 36.358 36.368 36.353 36.313 36.293 36.283 36.308 36.355 36.408 36.428 36.475 36.508 36.508 36.515 36.55 36.578 36.605 36.633 36.67 36.695 36.75 36.813 36.86 36.923 36.968 37.033 37.093 37.145 37.19 37.24 37.318 37.363 37.415 37.473 37.535 37.585 37.63 37.68 37.718 37.775 37.853 37.9 37.968 38.023 38.073 38.1 38.113 38.153 38.188 38.163 38.175 38.158 38.173 38.193 38.228 38.225 38.263 38.27 38.318 38.36 38.353 38.358 38.35 38.368 38.378 38.383 38.345 38.35 38.363 38.388 38.403 38.435 38.575 38.623 38.605 38.593 38.64 38.523 38.485 38.555 38.448 38.308 38.213 38.193 38.295 38.285 38.215 38.173 38.135 38.1 38.09 38.053 38.01 37.96 37.923 37.915 37.868 37.838 37.845 37.845 37.818 37.798 37.763 37.703 37.678 37.615 37.535 37.46 37.37 37.287 37.222 37.142 37.087 37.045 37.052 36.99 36.98 36.917 36.87 36.822 36.775 36.717 36.69 36.63 36.555 36.507 36.47 36.45 36.445 36.45 36.472 36.47 36.492 36.477 36.472 36.452 36.435 36.387 36.362 36.312 36.27 36.175 36.107 36.122 36.135 36.207 36.415 36.412 36.445 36.47 36.402 36.425 36.51 36.59 36.577 36.452 36.247 36.115 36.03 36.075 36.09 36.127 36.182 36.142 36.035 35.975 35.972 35.972 35.962 35.98 35.997 35.935 35.912 35.89 35.857 35.827 35.805 35.775 35.722 35.72 35.712 35.68 35.747 35.79 35.802 35.82 35.842 35.777 35.652 35.505 35.367 35.207 35.175 35.157 35.142 35.102 35.12 35.035
35.128 35.121 35.141 35.128 35.098 35.113 35.113 35.118 35.123 35.128 35.171 35.188 35.183 35.218 35.206 35.218 35.211 35.226 35.211 35.218 35.231 35.223 35.221 35.228 35.276 35.301 35.318 35.301 35.268 35.273 34.961 34.813 34.696 34.366 34.038 34.181 34.488 34.798 34.931 34.723 34.323 34.068 34.323 34.706 35.003 35.051 35.076 35.238 35.283 35.221 35.111 35.031 35.081 35.076 35.031 35.033 35.081 35.041 35.018 35.116 35.141 35.026 34.993 35.136 35.181 35.126 35.098 35.233 35.278 35.181 35.198 35.301 35.286 35.263 35.311 35.313 35.288 35.393 35.493 35.496 35.548 35.573 35.511 35.576 35.718 35.803 35.771 35.798 35.816 35.806 35.831 35.876 35.896 35.913 35.966 35.998 35.998 36.041 36.056 36.093 36.136 36.206 36.236 36.226 36.253 36.298 36.313 36.373 36.446 36.438 36.453 36.488 36.531 36.536 36.571 36.593 36.643 36.646 36.623 36.683 36.783 36.826 36.856 36.828 36.667 36.617 36.733 36.761 36.759 36.751 36.745 36.753 36.747 36.757 36.741 36.797 36.815 36.995 37.145 37.04 36.983 37.013 36.946 36.693 36.313 36.148 36.178 36.238 36.266 36.296 36.321 36.388 36.263 36.171 36.203 36.248 36.293 36.306 36.358 36.401 36.298 36.058 35.811 35.768 35.796 35.863 35.948 35.991 36.121 36.231 36.308 36.328 36.363 36.403 36.453 36.513 36.578 36.616 36.711 36.738 36.656 36.576 36.591 36.588 36.571 36.613 36.578 36.556 36.578 36.541 36.476 36.401 36.353 36.301 36.306 36.336 36.316 36.301 36.251 36.206 36.196 36.231 36.281 36.346 36.481 36.791 37.326 38.156 38.806 39.376 39.778 40.213 40.473 40.488 40.161 39.721 39.458 39.306 39.023 38.736 38.458 38.001 37.276 36.546 36.221 36.088 36.148 36.236 36.243 36.223 36.228 36.243 36.213 36.178 36.218 36.276 36.336 36.373 36.373 36.351 36.326 36.316 36.321 36.328 36.345 36.393 36.45 36.488 36.503 36.52 36.51 36.54 36.573 36.61 36.63 36.67 36.703 36.733 36.79 36.843 36.92 36.973 37.003 37.06 37.105 37.19 37.258 37.335 37.378 37.445 37.518 37.535 37.578 37.625 37.675 37.753 37.77 37.825 37.888 37.955 37.998 38.063 38.11 38.133 38.153 38.175 38.19 38.183 38.195 38.213 38.23 38.25 38.27 38.265 38.298 38.313 38.34 38.365 38.375 38.385 38.4 38.398 38.385 38.395 38.388 38.405 38.418 38.428 38.475 38.555 38.53 38.495 38.408 38.408 38.448 38.493 38.585 38.588 38.51 38.433 38.343 38.333 38.268 38.263 38.208 38.178 38.128 38.088 38.065 38.085 38.058 38.028 37.978 37.903 37.883 37.875 37.868 37.84 37.823 37.798 37.773 37.708 37.675 37.61 37.517 37.447 37.335 37.245 37.197 37.14 37.07 37.072 37.02 36.995 36.925 36.895 36.832 36.785 36.732 36.692 36.642 36.572 36.532 36.497 36.485 36.467 36.462 36.45 36.482 36.492 36.482 36.457 36.462 36.425 36.405 36.385 36.32 36.28 36.182 36.115 36.112 36.142 36.15 36.37 36.415 36.43 36.465 36.435 36.412 36.47 36.512 36.517 36.42 36.287 36.132 36.032 36.04 36.085 36.1 36.157 36.145 36.027 35.957 35.932 35.927 35.94 35.947 36.01 36.005 35.96 35.927 35.89 35.847 35.817 35.785 35.775 35.785 35.802 35.785 35.855 35.915 35.882 35.87 35.842 35.755 35.585 35.46 35.272 35.19 35.177 35.142 35.122 35.117 35.1 35.055
35.111 35.098 35.123 35.106 35.093 35.118 35.116 35.081 35.133 35.136 35.153 35.156 35.183 35.193 35.193 35.211 35.171 35.218 35.203 35.216 35.216 35.206 35.233 35.261 35.313 35.336 35.331 35.321 35.133 34.761 34.391 34.241 34.141 33.998 34.286 34.733 35.008 35.098 35.053 34.976 34.891 34.353 34.058 34.481 34.996 35.013 35.063 35.178 35.291 35.251 35.148 35.091 35.088 35.086 35.086 35.023 35.061 35.056 35.016 35.081 35.146 35.073 34.961 35.028 35.171 35.158 35.071 35.133 35.261 35.243 35.178 35.293 35.331 35.231 35.266 35.318 35.323 35.343 35.443 35.473 35.511 35.573 35.586 35.601 35.651 35.766 35.791 35.796 35.836 35.846 35.853 35.868 35.881 35.891 35.943 36.023 36.036 36.048 36.078 36.136 36.148 36.186 36.281 36.251 36.261 36.311 36.361 36.368 36.428 36.496 36.453 36.468 36.541 36.581 36.616 36.613 36.666 36.681 36.661 36.683 36.748 36.853 36.901 36.881 36.834 36.673 36.716 36.8 36.811 36.775 36.757 36.777 36.747 36.766 36.781 36.816 36.853 36.977 37.11 37.052 36.991 36.998 37.023 36.888 36.506 36.233 36.181 36.201 36.241 36.268 36.323 36.401 36.383 36.228 36.188 36.208 36.193 36.286 36.328 36.398 36.373 36.311 36.006 35.813 35.751 35.808 35.851 35.948 36.066 36.198 36.293 36.318 36.346 36.406 36.473 36.511 36.553 36.563 36.663 36.718 36.691 36.613 36.611 36.576 36.583 36.621 36.611 36.601 36.576 36.538 36.496 36.418 36.333 36.268 36.268 36.311 36.321 36.308 36.303 36.268 36.231 36.216 36.183 36.261 36.363 36.481 36.906 37.503 38.271 38.951 39.498 39.978 40.391 40.566 40.421 39.993 39.578 39.376 39.166 38.828 38.233 37.413 36.748 36.298 36.153 36.158 36.186 36.221 36.251 36.236 36.221 36.198 36.196 36.196 36.216 36.263 36.331 36.386 36.393 36.391 36.366 36.358 36.343 36.356 36.39 36.408 36.438 36.445 36.473 36.483 36.51 36.533 36.548 36.59 36.64 36.673 36.695 36.718 36.778 36.835 36.91 36.955 36.958 37.058 37.123 37.213 37.283 37.348 37.403 37.448 37.495 37.543 37.605 37.645 37.698 37.76 37.79 37.828 37.855 37.953 38.003 38.048 38.13 38.143 38.148 38.17 38.168 38.208 38.205 38.218 38.23 38.283 38.28 38.3 38.315 38.318 38.338 38.353 38.403 38.418 38.408 38.405 38.395 38.415 38.428 38.438 38.5 38.465 38.43 38.435 38.42 38.373 38.348 38.393 38.428 38.423 38.49 38.528 38.445 38.37 38.31 38.255 38.225 38.2 38.155 38.155 38.16 38.173 38.175 38.13 38.14 38.115 38.05 37.96 37.915 37.895 37.9 37.878 37.853 37.81 37.803 37.78 37.715 37.658 37.585 37.485 37.39 37.312 37.265 37.185 37.115 37.075 37.057 37.005 36.96 36.89 36.827 36.782 36.74 36.71 36.66 36.6 36.552 36.52 36.495 36.477 36.487 36.48 36.472 36.472 36.457 36.44 36.465 36.437 36.43 36.387 36.325 36.275 36.22 36.15 36.102 36.12 36.125 36.24 36.452 36.412 36.447 36.435 36.387 36.412 36.495 36.47 36.41 36.33 36.212 36.095 36.037 36.122 36.125 36.125 36.085 36.047 35.96 35.952 35.915 35.912 35.942 35.985 36.015 35.992 35.932 35.895 35.875 35.835 35.805 35.807 35.84 35.875 35.925 35.972 35.972 35.927 35.867 35.81 35.687 35.507 35.402 35.275 35.187 35.16 35.15 35.12 35.125 35.115 35.09
35.058 35.086 35.058 35.073 35.036 35.086 35.108 35.101 35.128 35.146 35.171 35.208 35.153 35.146 35.173 35.171 35.186 35.211 35.233 35.241 35.246 35.216 35.286 35.293 35.313 35.306 35.196 35.008 34.541 34.143 34.051 34.111 34.333 34.803 34.758 35.008 35.093 35.048 35.043 34.983 35.003 34.721 34.433 34.241 34.553 34.686 34.968 35.176 35.198 35.216 35.196 35.118 35.096 35.088 35.116 35.053 35.046 35.083 35.051 35.016 35.116 35.123 35.066 35.018 35.121 35.168 35.093 35.063 35.198 35.281 35.206 35.243 35.326 35.296 35.253 35.351 35.361 35.306 35.388 35.481 35.483 35.596 35.658 35.638 35.621 35.713 35.801 35.813 35.831 35.856 35.863 35.833 35.863 35.911 35.923 36.028 36.026 36.046 36.068 36.128 36.153 36.181 36.251 36.268 36.261 36.311 36.376 36.393 36.406 36.491 36.501 36.528 36.548 36.621 36.633 36.621 36.651 36.691 36.713 36.706 36.746 36.826 36.913 36.948 36.937 36.826 36.707 36.776 36.82 36.822 36.797 36.792 36.777 36.795 36.828 36.824 36.856 36.944 37.075 37.033 37.008 36.986 36.968 36.918 36.646 36.381 36.163 36.166 36.221 36.268 36.333 36.346 36.368 36.328 36.208 36.191 36.208 36.278 36.328 36.363 36.426 36.423 36.283 35.926 35.801 35.753 35.838 35.978 36.056 36.131 36.223 36.311 36.293 36.366 36.416 36.468 36.481 36.538 36.601 36.728 36.746 36.716 36.658 36.611 36.601 36.611 36.646 36.643 36.598 36.543 36.488 36.428 36.301 36.281 36.321 36.361 36.326 36.361 36.358 36.296 36.263 36.251 36.208 36.188 36.253 36.338 36.526 37.011 37.808 38.618 39.246 39.693 40.186 40.561 40.618 40.278 39.816 39.551 39.373 38.886 37.983 37.038 36.528 36.301 36.178 36.201 36.193 36.231 36.213 36.198 36.218 36.221 36.223 36.228 36.231 36.261 36.313 36.401 36.408 36.426 36.423 36.393 36.388 36.378 36.425 36.433 36.445 36.478 36.483 36.49 36.528 36.545 36.565 36.6 36.638 36.668 36.683 36.74 36.78 36.833 36.86 36.893 36.975 37.065 37.133 37.208 37.285 37.363 37.403 37.435 37.5 37.553 37.613 37.653 37.69 37.748 37.788 37.845 37.85 37.943 38.005 38.043 38.073 38.118 38.153 38.175 38.175 38.208 38.22 38.238 38.25 38.278 38.263 38.288 38.278 38.313 38.335 38.35 38.393 38.403 38.415 38.433 38.448 38.443 38.45 38.465 38.505 38.403 38.4 38.335 38.323 38.333 38.383 38.378 38.363 38.34 38.373 38.375 38.348 38.3 38.24 38.223 38.178 38.163 38.163 38.213 38.213 38.225 38.208 38.203 38.183 38.145 38.07 38.015 37.96 37.915 37.915 37.873 37.875 37.84 37.813 37.795 37.763 37.71 37.637 37.547 37.452 37.352 37.295 37.225 37.132 37.09 37.065 37.03 36.99 36.925 36.85 36.797 36.75 36.725 36.692 36.65 36.59 36.542 36.512 36.487 36.47 36.5 36.502 36.497 36.482 36.46 36.46 36.45 36.43 36.37 36.315 36.28 36.22 36.177 36.12 36.082 36.1 36.152 36.375 36.395 36.405 36.437 36.415 36.395 36.452 36.46 36.437 36.33 36.215 36.112 36.07 36.07 36.097 36.102 36.04 36.032 36.03 35.965 35.912 35.897 35.895 35.942 36.002 35.982 35.957 35.902 35.877 35.882 35.882 35.882 35.917 35.925 35.977 35.987 35.967 35.947 35.847 35.775 35.617 35.467 35.365 35.272 35.23 35.215 35.162 35.15 35.12 35.102 35.092
35.021 35.063 35.066 35.088 35.073 35.076 35.098 35.086 35.096 35.111 35.118 35.146 35.108 35.163 35.191 35.183 35.206 35.231 35.271 35.271 35.276 35.288 35.293 35.311 35.076 34.753 34.283 34.196 34.081 34.243 34.661 34.706 34.971 35.051 35.041 35.006 35.041 35.063 35.038 35.008 35.046 35.106 34.973 34.331 34.223 34.576 34.906 35.116 35.046 35.133 35.211 35.116 35.126 35.136 35.168 35.073 35.018 35.088 35.091 35.041 35.038 35.101 35.111 35.043 35.061 35.141 35.138 35.068 35.113 35.248 35.238 35.163 35.283 35.333 35.261 35.301 35.366 35.333 35.338 35.458 35.513 35.551 35.591 35.633 35.606 35.623 35.743 35.833 35.831 35.821 35.893 35.833 35.836 35.903 35.918 36.008 36.028 36.053 36.081 36.123 36.201 36.193 36.221 36.298 36.298 36.326 36.386 36.441 36.446 36.466 36.543 36.548 36.548 36.596 36.636 36.651 36.658 36.706 36.753 36.738 36.761 36.798 36.888 36.978 36.988 36.942 36.774 36.742 36.855 36.866 36.85 36.826 36.836 36.825 36.838 36.85 36.904 36.977 37.105 37.1 37.004 36.993 36.978 36.943 36.766 36.538 36.268 36.151 36.181 36.196 36.281 36.291 36.376 36.391 36.311 36.156 36.213 36.228 36.283 36.341 36.416 36.431 36.403 36.181 35.938 35.816 35.831 35.901 36.033 36.131 36.196 36.281 36.298 36.363 36.406 36.456 36.496 36.538 36.611 36.658 36.751 36.733 36.656 36.606 36.631 36.616 36.638 36.626 36.621 36.566 36.493 36.403 36.353 36.348 36.393 36.403 36.396 36.401 36.396 36.318 36.283 36.223 36.196 36.178 36.158 36.276 36.508 36.858 37.683 38.513 39.021 39.381 39.926 40.458 40.701 40.568 40.173 39.828 39.673 39.206 38.223 37.253 36.566 36.346 36.248 36.206 36.178 36.188 36.198 36.186 36.206 36.221 36.261 36.226 36.211 36.251 36.333 36.388 36.426 36.433 36.443 36.448 36.438 36.441 36.44 36.43 36.445 36.478 36.478 36.49 36.52 36.528 36.568 36.585 36.6 36.673 36.705 36.748 36.768 36.81 36.855 36.903 36.968 37.045 37.145 37.193 37.26 37.323 37.395 37.423 37.505 37.55 37.61 37.66 37.703 37.76 37.78 37.848 37.88 37.92 37.998 38.033 38.045 38.115 38.153 38.188 38.235 38.233 38.24 38.258 38.278 38.263 38.263 38.293 38.295 38.325 38.333 38.343 38.368 38.405 38.438 38.458 38.46 38.478 38.51 38.52 38.493 38.405 38.335 38.303 38.365 38.363 38.383 38.39 38.363 38.36 38.335 38.303 38.26 38.245 38.233 38.223 38.188 38.203 38.258 38.318 38.29 38.265 38.215 38.183 38.168 38.153 38.1 38.025 37.955 37.93 37.948 37.923 37.91 37.868 37.855 37.83 37.81 37.748 37.667 37.59 37.497 37.427 37.347 37.277 37.187 37.13 37.087 37.047 37 36.927 36.867 36.812 36.807 36.745 36.725 36.69 36.627 36.597 36.565 36.52 36.51 36.495 36.52 36.507 36.485 36.475 36.46 36.447 36.42 36.395 36.34 36.305 36.252 36.202 36.122 36.087 36.077 36.082 36.172 36.38 36.405 36.43 36.435 36.385 36.45 36.49 36.427 36.39 36.28 36.162 36.11 36.045 36.07 36.092 36.1 36.087 36.115 36.035 35.945 35.93 35.927 35.962 36.015 35.985 35.96 35.905 35.897 35.942 35.975 35.982 35.947 35.975 35.962 35.987 35.92 35.87 35.835 35.722 35.582 35.465 35.39 35.365 35.312 35.265 35.185 35.117 35.12 35.112 35.11
35.006 35.029 35.049 35.041 35.061 35.039 35.044 35.069 35.094 35.094 35.096 35.109 35.114 35.131 35.174 35.206 35.229 35.256 35.246 35.286 35.306 35.291 35.079 35.096 34.624 34.016 33.916 34.091 34.461 34.901 34.959 34.989 35.031 35.031 35.019 34.996 35.024 35.034 35.031 35.009 35.034 35.049 35.114 34.934 34.238 34.296 34.786 34.998 34.996 35.123 35.186 35.078 35.093 35.111 35.206 35.143 35.076 35.066 35.121 35.101 35.031 35.058 35.126 35.118 35.053 35.093 35.156 35.121 35.093 35.203 35.288 35.218 35.248 35.353 35.318 35.263 35.373 35.386 35.348 35.416 35.496 35.568 35.593 35.658 35.663 35.591 35.676 35.793 35.836 35.828 35.918 35.888 35.866 35.928 35.953 35.996 36.058 36.093 36.086 36.103 36.206 36.246 36.246 36.261 36.333 36.373 36.396 36.448 36.461 36.458 36.521 36.563 36.573 36.586 36.633 36.641 36.673 36.681 36.751 36.776 36.776 36.773 36.863 36.968 36.986 37.012 36.884 36.741 36.812 36.891 36.892 36.892 36.851 36.847 36.866 36.868 36.927 36.967 37.064 37.132 37.083 37.011 37.031 37.121 37.008 36.801 36.478 36.218 36.203 36.196 36.243 36.311 36.353 36.396 36.396 36.183 36.206 36.281 36.273 36.321 36.388 36.373 36.406 36.368 36.161 35.963 35.863 35.863 35.941 36.133 36.158 36.226 36.278 36.336 36.403 36.441 36.491 36.501 36.603 36.638 36.678 36.746 36.708 36.628 36.631 36.653 36.633 36.616 36.603 36.593 36.558 36.476 36.418 36.411 36.446 36.468 36.468 36.428 36.408 36.353 36.323 36.236 36.181 36.153 36.136 36.273 36.671 37.231 38.003 38.623 38.996 39.253 39.638 40.236 40.693 40.763 40.513 40.083 39.873 39.423 38.618 37.736 36.951 36.478 36.313 36.223 36.176 36.158 36.173 36.203 36.203 36.218 36.208 36.231 36.263 36.293 36.298 36.348 36.413 36.453 36.466 36.483 36.493 36.461 36.443 36.441 36.438 36.473 36.476 36.496 36.536 36.558 36.548 36.588 36.606 36.671 36.718 36.738 36.771 36.801 36.841 36.896 36.966 37.026 37.128 37.181 37.256 37.326 37.388 37.448 37.501 37.548 37.606 37.666 37.708 37.756 37.791 37.838 37.873 37.891 37.978 38.001 38.056 38.086 38.153 38.186 38.236 38.216 38.256 38.281 38.261 38.276 38.281 38.316 38.323 38.315 38.34 38.378 38.395 38.408 38.443 38.45 38.463 38.515 38.563 38.463 38.383 38.313 38.318 38.348 38.408 38.415 38.393 38.375 38.308 38.313 38.323 38.315 38.338 38.328 38.288 38.228 38.225 38.28 38.345 38.338 38.303 38.253 38.225 38.198 38.17 38.195 38.13 38.07 38 37.955 37.948 37.955 37.933 37.908 37.875 37.873 37.855 37.788 37.713 37.638 37.56 37.473 37.395 37.318 37.228 37.15 37.113 37.073 37.013 36.968 36.905 36.875 36.818 36.795 36.76 36.73 36.675 36.628 36.588 36.578 36.553 36.515 36.555 36.528 36.505 36.488 36.485 36.458 36.44 36.413 36.368 36.333 36.26 36.235 36.155 36.085 36.045 36.055 36.078 36.325 36.385 36.425 36.44 36.415 36.37 36.43 36.445 36.405 36.332 36.22 36.102 36.062 35.99 36.032 36.095 36.112 36.15 36.117 36.02 35.975 35.967 35.942 35.98 35.99 35.985 35.945 35.96 36.002 36.02 36.01 35.96 35.977 35.987 35.95 35.862 35.817 35.752 35.695 35.565 35.497 35.495 35.432 35.36 35.302 35.227 35.162 35.152 35.152 35.1
34.936 34.964 34.991 34.976 35.001 35.011 35.024 35.039 35.056 35.061 35.069 35.084 35.124 35.164 35.224 35.239 35.251 35.256 35.269 35.229 34.991 34.741 34.446 34.176 33.969 34.139 34.459 34.599 34.879 35.041 35.029 35.104 35.041 35.046 35.036 35.011 35.026 35.036 35.004 35.029 35.039 35.034 35.034 35.046 34.541 34.151 34.463 34.713 34.986 35.156 35.118 35.128 35.121 35.106 35.191 35.211 35.131 35.096 35.123 35.153 35.063 35.051 35.113 35.128 35.101 35.053 35.148 35.178 35.128 35.178 35.316 35.298 35.216 35.313 35.366 35.288 35.316 35.423 35.421 35.401 35.498 35.538 35.553 35.598 35.686 35.633 35.616 35.741 35.853 35.856 35.906 35.946 35.933 35.926 35.956 35.996 36.036 36.106 36.131 36.143 36.211 36.266 36.273 36.268 36.368 36.418 36.398 36.463 36.496 36.473 36.526 36.588 36.613 36.613 36.656 36.673 36.713 36.721 36.741 36.778 36.821 36.801 36.808 36.896 36.926 36.991 36.997 36.838 36.785 36.905 36.931 36.924 36.892 36.856 36.86 36.904 36.942 36.96 36.987 37.08 37.035 37.028 37.041 37.223 37.143 36.943 36.696 36.398 36.198 36.186 36.223 36.298 36.316 36.381 36.403 36.313 36.206 36.218 36.236 36.281 36.331 36.408 36.426 36.438 36.373 36.238 36.076 35.831 35.858 35.961 36.018 36.141 36.281 36.353 36.393 36.421 36.446 36.463 36.546 36.591 36.646 36.716 36.743 36.691 36.648 36.653 36.646 36.643 36.596 36.588 36.573 36.553 36.448 36.443 36.493 36.513 36.531 36.508 36.466 36.393 36.338 36.251 36.201 36.171 36.248 36.503 36.973 37.698 38.228 38.601 38.893 39.136 39.471 40.081 40.616 40.878 40.696 40.346 40.013 39.433 38.516 37.993 37.246 36.596 36.403 36.253 36.183 36.183 36.188 36.203 36.223 36.251 36.261 36.273 36.266 36.276 36.273 36.336 36.391 36.466 36.491 36.511 36.498 36.496 36.448 36.436 36.441 36.441 36.456 36.466 36.523 36.548 36.561 36.601 36.603 36.663 36.691 36.726 36.753 36.806 36.818 36.878 36.958 37.038 37.108 37.183 37.253 37.326 37.378 37.416 37.511 37.563 37.606 37.651 37.721 37.768 37.788 37.828 37.866 37.901 37.958 37.998 38.048 38.106 38.143 38.201 38.231 38.243 38.253 38.256 38.271 38.266 38.291 38.321 38.32 38.33 38.335 38.36 38.373 38.405 38.448 38.46 38.535 38.585 38.458 38.355 38.318 38.315 38.353 38.403 38.423 38.373 38.34 38.338 38.318 38.35 38.373 38.35 38.36 38.355 38.35 38.295 38.295 38.308 38.32 38.32 38.305 38.283 38.258 38.213 38.195 38.158 38.15 38.128 38.058 37.983 37.975 37.995 37.958 37.94 37.905 37.883 37.855 37.808 37.755 37.7 37.598 37.525 37.435 37.35 37.268 37.175 37.113 37.075 37.02 37.005 36.94 36.908 36.853 36.818 36.8 36.743 36.71 36.675 36.623 36.598 36.595 36.543 36.543 36.543 36.508 36.495 36.49 36.453 36.445 36.418 36.385 36.323 36.265 36.248 36.18 36.095 36.043 36.045 36.018 36.265 36.415 36.38 36.425 36.42 36.375 36.39 36.478 36.418 36.38 36.257 36.097 36.055 35.995 36.002 36.072 36.09 36.13 36.187 36.1 36.05 36.015 36.007 36.04 36.025 35.972 35.95 35.967 36.002 36.037 36.045 36.04 36.012 35.965 35.912 35.832 35.775 35.702 35.627 35.57 35.562 35.52 35.472 35.402 35.317 35.272 35.227 35.177 35.15 35.127
34.911 34.876 34.919 34.949 34.969 35.001 35.004 35.024 35.016 35.036 35.106 35.146 35.164 35.201 35.221 35.224 35.264 35.319 35.301 34.854 34.276 33.969 33.881 34.271 34.569 34.679 34.966 35.066 35.109 35.109 35.091 35.094 35.009 35.009 35.006 34.996 35.001 35.026 35.036 35.016 35.009 35.021 35.016 35.049 34.826 34.311 34.083 34.336 34.736 35.173 35.241 35.218 35.111 35.128 35.201 35.258 35.221 35.143 35.101 35.118 35.108 35.091 35.088 35.143 35.133 35.066 35.143 35.206 35.186 35.146 35.221 35.331 35.253 35.271 35.358 35.358 35.288 35.383 35.428 35.406 35.418 35.501 35.551 35.573 35.631 35.653 35.598 35.648 35.816 35.863 35.891 35.976 35.968 35.956 35.981 36.026 36.066 36.126 36.163 36.161 36.211 36.263 36.303 36.288 36.366 36.428 36.428 36.438 36.481 36.508 36.516 36.583 36.628 36.646 36.626 36.676 36.723 36.716 36.748 36.801 36.848 36.816 36.798 36.871 36.933 36.978 37.057 37.004 36.859 36.877 36.972 36.971 36.906 36.863 36.865 36.89 36.922 37.001 37.066 37.116 37.141 37.124 37.035 37.096 37.118 36.956 36.701 36.476 36.301 36.151 36.208 36.263 36.266 36.318 36.328 36.381 36.288 36.198 36.221 36.266 36.271 36.366 36.391 36.413 36.433 36.416 36.231 35.881 35.831 35.888 35.973 36.076 36.216 36.316 36.333 36.401 36.453 36.461 36.513 36.571 36.628 36.686 36.733 36.726 36.658 36.653 36.648 36.661 36.646 36.626 36.593 36.558 36.486 36.471 36.506 36.551 36.553 36.546 36.516 36.421 36.331 36.273 36.241 36.381 36.571 37.006 37.546 37.936 38.183 38.423 38.733 39.061 39.513 39.968 40.506 40.873 40.893 40.588 40.136 39.491 38.818 38.263 37.553 36.636 36.378 36.253 36.203 36.183 36.206 36.241 36.256 36.241 36.263 36.268 36.266 36.266 36.273 36.326 36.383 36.466 36.506 36.546 36.521 36.503 36.468 36.431 36.431 36.443 36.461 36.481 36.513 36.563 36.593 36.593 36.581 36.626 36.683 36.713 36.771 36.798 36.831 36.886 36.948 37.036 37.118 37.178 37.236 37.296 37.371 37.423 37.498 37.553 37.611 37.668 37.708 37.743 37.781 37.831 37.868 37.906 37.956 37.973 38.036 38.111 38.141 38.176 38.223 38.246 38.238 38.251 38.271 38.288 38.288 38.303 38.335 38.34 38.328 38.345 38.383 38.428 38.478 38.48 38.45 38.343 38.288 38.33 38.333 38.308 38.358 38.345 38.323 38.328 38.328 38.36 38.388 38.383 38.395 38.36 38.375 38.333 38.338 38.33 38.333 38.338 38.34 38.33 38.305 38.3 38.288 38.27 38.223 38.163 38.165 38.133 38.075 38.018 38.008 37.99 37.965 37.958 37.923 37.9 37.878 37.87 37.785 37.728 37.653 37.578 37.483 37.38 37.32 37.223 37.16 37.123 37.085 37.048 36.973 36.943 36.898 36.865 36.838 36.775 36.77 36.715 36.673 36.633 36.605 36.588 36.553 36.545 36.51 36.498 36.49 36.463 36.443 36.428 36.385 36.333 36.29 36.235 36.195 36.128 36.058 36.045 36.015 36.08 36.448 36.365 36.398 36.428 36.405 36.378 36.433 36.415 36.36 36.302 36.19 36.095 36.07 36.005 36.087 36.117 36.155 36.207 36.157 36.122 36.045 36.035 36.07 36.055 35.98 35.96 35.95 36.012 36.05 36.06 36.06 36.025 35.942 35.897 35.802 35.717 35.647 35.632 35.54 35.525 35.492 35.48 35.427 35.357 35.297 35.212 35.155 35.142 35.112
34.881 34.866 34.894 34.924 34.959 34.974 35.021 34.994 35.046 35.096 35.144 35.176 35.181 35.199 35.204 35.216 35.264 34.901 34.634 34.101 33.874 34.246 34.229 34.676 34.996 35.046 35.139 35.146 35.134 35.104 35.061 35.041 34.971 34.976 34.991 34.981 34.991 35.026 35.014 35.024 35.029 35.009 35.001 35.031 34.983 34.593 34.211 34.156 34.468 35.098 35.311 35.338 35.176 35.106 35.178 35.253 35.268 35.226 35.143 35.133 35.151 35.126 35.071 35.141 35.203 35.126 35.113 35.191 35.216 35.156 35.193 35.313 35.321 35.251 35.343 35.421 35.351 35.341 35.418 35.408 35.416 35.446 35.551 35.561 35.571 35.616 35.638 35.643 35.798 35.891 35.906 35.936 35.998 35.971 35.966 36.018 36.058 36.091 36.168 36.198 36.221 36.268 36.303 36.328 36.343 36.421 36.468 36.463 36.481 36.536 36.513 36.571 36.638 36.676 36.666 36.703 36.761 36.771 36.761 36.808 36.811 36.873 36.853 36.858 36.928 36.973 37.068 37.063 36.988 36.909 36.928 36.963 36.94 36.919 36.884 36.917 36.952 37.028 37.116 37.178 37.205 37.105 37.073 37.016 37.073 36.961 36.783 36.631 36.456 36.218 36.153 36.231 36.243 36.291 36.351 36.383 36.376 36.221 36.176 36.231 36.271 36.333 36.363 36.403 36.433 36.436 36.268 36.016 35.848 35.856 35.923 36.048 36.176 36.268 36.301 36.383 36.423 36.471 36.488 36.566 36.611 36.641 36.731 36.718 36.676 36.651 36.658 36.688 36.698 36.678 36.586 36.548 36.496 36.506 36.531 36.558 36.566 36.561 36.551 36.448 36.381 36.358 36.463 36.678 37.093 37.471 37.703 37.878 38.028 38.188 38.351 38.703 39.338 39.943 40.343 40.783 40.978 40.808 40.336 39.926 39.321 38.621 37.893 36.923 36.396 36.273 36.198 36.193 36.223 36.231 36.251 36.263 36.251 36.246 36.268 36.268 36.283 36.308 36.383 36.441 36.496 36.538 36.531 36.513 36.496 36.478 36.446 36.453 36.446 36.466 36.516 36.563 36.581 36.573 36.586 36.628 36.663 36.701 36.748 36.808 36.821 36.868 36.938 37.013 37.093 37.158 37.228 37.266 37.323 37.418 37.473 37.543 37.596 37.651 37.713 37.753 37.798 37.833 37.861 37.906 37.941 37.983 38.033 38.106 38.138 38.173 38.218 38.213 38.223 38.251 38.273 38.283 38.283 38.308 38.315 38.355 38.345 38.388 38.44 38.505 38.493 38.358 38.24 38.225 38.303 38.343 38.328 38.303 38.313 38.3 38.338 38.358 38.38 38.388 38.353 38.38 38.375 38.355 38.373 38.355 38.35 38.335 38.34 38.343 38.335 38.31 38.328 38.323 38.263 38.263 38.223 38.223 38.195 38.163 38.113 38.083 38.053 38.025 38.005 37.98 37.943 37.925 37.893 37.86 37.823 37.768 37.67 37.605 37.533 37.443 37.348 37.285 37.205 37.148 37.115 37.08 37.043 36.978 36.938 36.88 36.833 36.823 36.79 36.743 36.71 36.653 36.613 36.605 36.578 36.558 36.528 36.525 36.498 36.465 36.433 36.418 36.37 36.34 36.3 36.233 36.188 36.125 36.055 36.013 36.005 35.983 36.25 36.388 36.368 36.398 36.41 36.385 36.405 36.46 36.355 36.322 36.275 36.21 36.127 36.09 36.1 36.142 36.142 36.175 36.147 36.155 36.08 36.047 36.08 36.045 35.982 36.007 35.992 36.025 36.072 36.05 36.04 36.007 35.927 35.865 35.76 35.657 35.592 35.587 35.532 35.472 35.477 35.462 35.437 35.365 35.297 35.252 35.21 35.155 35.107
34.824 34.866 34.859 34.886 34.959 34.939 35.019 35.031 35.081 35.156 35.179 35.189 35.149 35.261 34.939 34.849 34.446 33.876 34.039 34.239 34.891 35.109 34.911 35.036 35.134 35.114 35.161 35.149 35.121 35.071 35.016 35.006 34.996 34.984 34.999 34.981 34.984 35.024 35.021 35.009 35.021 35.011 34.984 35.026 35.058 35.006 34.751 34.358 34.196 34.726 35.271 35.381 35.253 35.133 35.158 35.233 35.301 35.298 35.201 35.166 35.186 35.201 35.133 35.118 35.188 35.236 35.116 35.178 35.271 35.256 35.191 35.268 35.343 35.288 35.273 35.408 35.353 35.331 35.363 35.433 35.451 35.421 35.511 35.583 35.551 35.621 35.648 35.606 35.711 35.893 35.951 35.938 35.991 36.016 35.998 36.038 36.073 36.093 36.173 36.233 36.223 36.258 36.291 36.353 36.371 36.413 36.481 36.501 36.501 36.536 36.531 36.558 36.601 36.676 36.713 36.688 36.768 36.811 36.781 36.776 36.838 36.861 36.866 36.863 36.911 36.978 37.083 37.123 37.08 36.957 36.919 36.953 36.963 36.968 36.917 36.932 36.96 37.045 37.125 37.188 37.16 37.127 37.114 37.092 37.121 37.028 36.926 36.803 36.653 36.391 36.191 36.191 36.221 36.278 36.328 36.368 36.396 36.258 36.256 36.248 36.248 36.303 36.363 36.383 36.401 36.428 36.366 36.118 35.913 35.886 35.911 36.008 36.121 36.233 36.313 36.396 36.393 36.446 36.493 36.536 36.616 36.651 36.686 36.741 36.721 36.663 36.641 36.756 36.698 36.671 36.598 36.558 36.541 36.538 36.573 36.598 36.568 36.553 36.553 36.493 36.433 36.416 36.618 36.883 37.286 37.468 37.571 37.643 37.558 37.516 37.563 38.233 39.031 39.783 40.181 40.686 41.013 40.976 40.613 40.173 39.653 39.023 38.251 37.351 36.498 36.308 36.216 36.208 36.218 36.228 36.253 36.271 36.248 36.276 36.296 36.306 36.311 36.301 36.356 36.428 36.503 36.526 36.546 36.528 36.526 36.518 36.473 36.456 36.456 36.486 36.523 36.551 36.576 36.571 36.608 36.641 36.663 36.723 36.758 36.793 36.826 36.878 36.956 37.021 37.086 37.136 37.201 37.266 37.321 37.393 37.451 37.531 37.586 37.631 37.686 37.728 37.786 37.818 37.868 37.928 37.953 37.998 38.051 38.078 38.126 38.133 38.186 38.201 38.236 38.263 38.278 38.278 38.303 38.333 38.315 38.338 38.38 38.435 38.463 38.455 38.335 38.233 38.238 38.243 38.318 38.308 38.305 38.298 38.345 38.333 38.348 38.345 38.368 38.345 38.345 38.323 38.34 38.343 38.35 38.353 38.345 38.343 38.33 38.343 38.353 38.325 38.34 38.35 38.303 38.275 38.23 38.213 38.218 38.18 38.143 38.15 38.083 38.035 38.02 37.968 37.945 37.933 37.918 37.86 37.83 37.778 37.71 37.655 37.583 37.47 37.39 37.328 37.25 37.193 37.143 37.095 37.058 37.038 36.973 36.913 36.88 36.845 36.8 36.765 36.743 36.663 36.643 36.59 36.605 36.543 36.533 36.525 36.505 36.47 36.415 36.405 36.383 36.36 36.295 36.24 36.195 36.153 36.07 36.01 35.983 35.95 36.058 36.368 36.345 36.39 36.41 36.375 36.363 36.433 36.395 36.322 36.292 36.26 36.202 36.12 36.122 36.155 36.127 36.18 36.172 36.15 36.075 36.035 36.102 36.08 36.005 36.057 36.012 36.055 36.057 36.045 36.022 35.98 35.92 35.82 35.682 35.61 35.547 35.545 35.525 35.487 35.477 35.44 35.425 35.387 35.32 35.242 35.225 35.212 35.162
34.761 34.846 34.846 34.891 34.959 35.014 35.026 35.089 35.114 35.161 35.159 34.941 34.626 34.626 34.311 33.769 33.651 34.014 34.656 35.156 35.156 35.094 35.099 35.146 35.164 35.136 35.106 35.096 35.091 35.011 35.001 34.999 34.991 34.964 34.999 34.999 34.964 34.981 35.011 35.044 35.036 35.049 35.019 35.024 35.071 35.096 35.056 34.931 34.531 34.156 34.621 35.291 35.338 35.216 35.151 35.233 35.233 35.181 35.246 35.183 35.171 35.206 35.216 35.138 35.208 35.261 35.181 35.143 35.281 35.348 35.248 35.218 35.366 35.351 35.273 35.326 35.411 35.386 35.351 35.448 35.476 35.403 35.433 35.553 35.586 35.581 35.626 35.658 35.673 35.813 35.928 35.961 35.986 36.041 36.043 36.048 36.066 36.098 36.146 36.213 36.253 36.283 36.326 36.338 36.371 36.406 36.461 36.506 36.526 36.506 36.568 36.586 36.598 36.653 36.698 36.736 36.743 36.803 36.823 36.818 36.836 36.866 36.898 36.913 36.893 36.956 37.071 37.133 37.164 37.082 36.985 36.944 36.988 37.009 36.973 36.935 36.99 37.067 37.123 37.184 37.19 37.221 37.176 37.142 37.162 37.106 37.001 36.951 36.771 36.536 36.316 36.186 36.208 36.233 36.313 36.338 36.333 36.298 36.328 36.218 36.233 36.243 36.276 36.351 36.401 36.456 36.423 36.256 36.036 35.898 35.918 35.976 36.123 36.253 36.268 36.351 36.383 36.433 36.438 36.476 36.578 36.616 36.651 36.706 36.753 36.728 36.686 36.711 36.713 36.691 36.666 36.601 36.548 36.553 36.606 36.586 36.593 36.556 36.543 36.513 36.451 36.468 36.731 36.996 37.183 37.301 37.126 36.986 36.776 36.751 37.071 37.793 38.741 39.623 40.101 40.576 40.978 41.081 40.853 40.373 40.071 39.566 38.661 37.676 36.728 36.366 36.283 36.246 36.233 36.231 36.248 36.233 36.241 36.268 36.313 36.313 36.308 36.301 36.323 36.406 36.486 36.521 36.543 36.553 36.528 36.526 36.513 36.483 36.488 36.518 36.533 36.511 36.538 36.551 36.616 36.638 36.681 36.721 36.753 36.798 36.846 36.893 36.941 37.018 37.076 37.128 37.198 37.263 37.316 37.378 37.458 37.518 37.578 37.628 37.696 37.746 37.816 37.836 37.881 37.928 37.968 38.016 38.023 38.041 38.098 38.136 38.196 38.213 38.236 38.273 38.283 38.283 38.303 38.316 38.33 38.365 38.42 38.425 38.4 38.365 38.273 38.193 38.21 38.245 38.248 38.273 38.33 38.333 38.33 38.33 38.34 38.303 38.3 38.315 38.338 38.32 38.338 38.348 38.333 38.345 38.365 38.36 38.345 38.353 38.338 38.335 38.325 38.315 38.278 38.27 38.275 38.225 38.243 38.225 38.188 38.193 38.118 38.075 38.028 37.988 37.935 37.943 37.888 37.863 37.85 37.803 37.745 37.683 37.625 37.523 37.405 37.348 37.278 37.23 37.17 37.103 37.083 37.068 36.995 36.958 36.89 36.86 36.835 36.795 36.773 36.713 36.65 36.605 36.595 36.55 36.54 36.523 36.503 36.463 36.43 36.39 36.363 36.323 36.298 36.22 36.178 36.148 36.098 36.018 35.983 35.935 35.915 36.248 36.368 36.365 36.428 36.395 36.353 36.383 36.437 36.392 36.367 36.312 36.255 36.21 36.185 36.167 36.157 36.137 36.132 36.172 36.105 36.087 36.11 36.062 36.042 36.072 36.035 36.045 36.057 36.02 36.005 35.97 35.872 35.745 35.617 35.575 35.542 35.555 35.532 35.477 35.43 35.377 35.367 35.377 35.262 35.202 35.257 35.262 35.252
34.751 34.806 34.866 34.929 35.019 35.044 35.074 35.101 35.116 35.161 35.104 34.351 33.934 33.951 33.846 34.306 34.214 34.336 34.829 35.069 35.131 35.114 35.131 35.141 35.126 35.081 35.056 35.061 35.024 35.009 35.004 35.006 35.021 34.979 35.019 34.996 34.996 34.996 35.004 35.019 35.016 35.074 35.071 35.064 35.063 35.121 35.136 35.086 34.758 34.436 34.163 34.776 35.273 35.313 35.206 35.251 35.183 35.248 35.298 35.231 35.191 35.208 35.256 35.228 35.196 35.266 35.241 35.168 35.206 35.343 35.293 35.233 35.328 35.398 35.356 35.293 35.388 35.416 35.378 35.398 35.438 35.446 35.391 35.481 35.571 35.581 35.623 35.683 35.618 35.691 35.893 35.998 35.976 36.006 36.058 36.081 36.081 36.116 36.128 36.193 36.286 36.313 36.298 36.333 36.401 36.413 36.463 36.511 36.551 36.541 36.571 36.638 36.633 36.648 36.728 36.741 36.766 36.811 36.846 36.858 36.841 36.871 36.928 36.946 36.926 36.926 37.041 37.133 37.169 37.156 37.127 36.986 36.97 37.006 36.999 36.984 36.992 37.056 37.119 37.188 37.256 37.32 37.301 37.23 37.242 37.165 37.063 37.006 36.853 36.648 36.458 36.258 36.183 36.211 36.281 36.328 36.353 36.386 36.376 36.223 36.246 36.288 36.311 36.361 36.396 36.418 36.441 36.398 36.236 36.006 35.908 35.931 36.043 36.216 36.268 36.286 36.353 36.408 36.458 36.471 36.533 36.581 36.601 36.676 36.738 36.768 36.716 36.673 36.736 36.733 36.693 36.656 36.588 36.606 36.628 36.671 36.651 36.613 36.576 36.558 36.481 36.453 36.671 36.853 36.913 36.773 36.661 36.486 36.531 36.538 36.753 37.433 38.448 39.361 40.051 40.503 40.901 41.158 41.008 40.541 40.143 39.968 39.283 38.041 37.038 36.421 36.298 36.226 36.223 36.208 36.233 36.221 36.256 36.268 36.308 36.306 36.291 36.336 36.331 36.376 36.458 36.511 36.553 36.568 36.566 36.566 36.556 36.536 36.533 36.531 36.491 36.488 36.521 36.576 36.621 36.648 36.671 36.706 36.746 36.783 36.836 36.893 36.953 36.996 37.061 37.113 37.176 37.253 37.323 37.371 37.443 37.513 37.576 37.621 37.698 37.746 37.793 37.831 37.886 37.921 37.978 38.013 38.013 38.041 38.091 38.133 38.163 38.178 38.206 38.231 38.273 38.301 38.308 38.333 38.383 38.41 38.373 38.36 38.298 38.223 38.195 38.17 38.185 38.23 38.28 38.323 38.33 38.348 38.333 38.308 38.305 38.263 38.285 38.295 38.3 38.313 38.325 38.353 38.33 38.353 38.36 38.365 38.358 38.358 38.32 38.333 38.3 38.308 38.305 38.295 38.293 38.22 38.235 38.223 38.228 38.203 38.145 38.09 38.06 38.005 37.963 37.938 37.895 37.875 37.84 37.815 37.775 37.715 37.655 37.558 37.475 37.4 37.33 37.268 37.203 37.168 37.13 37.095 37.025 36.98 36.938 36.898 36.85 36.828 36.798 36.75 36.665 36.61 36.578 36.553 36.545 36.495 36.478 36.45 36.42 36.38 36.355 36.318 36.293 36.228 36.193 36.138 36.073 36.018 35.955 35.94 35.883 36.018 36.323 36.333 36.373 36.39 36.36 36.333 36.432 36.407 36.402 36.372 36.337 36.282 36.202 36.165 36.14 36.147 36.147 36.125 36.122 36.13 36.095 36.057 36.077 36.092 36.052 36.057 36.042 36.037 36.005 35.935 35.835 35.73 35.617 35.582 35.572 35.567 35.547 35.512 35.437 35.397 35.35 35.302 35.285 35.282 35.327 35.345 35.312
34.779 34.821 34.909 34.954 35.001 35.001 34.944 34.894 34.944 34.474 34.259 33.836 34.106 34.479 34.951 35.186 34.944 34.869 35.041 35.129 35.129 35.114 35.099 35.076 35.039 35.044 35.051 35.036 34.996 34.989 35.011 35.006 34.989 34.999 34.996 35.004 35.004 34.994 35.006 34.991 35.001 35.079 35.094 35.069 35.078 35.113 35.148 35.168 35.068 34.656 34.268 34.223 34.946 35.373 35.393 35.376 35.391 35.396 35.386 35.331 35.248 35.261 35.266 35.288 35.221 35.243 35.263 35.248 35.223 35.281 35.318 35.286 35.266 35.341 35.393 35.326 35.351 35.438 35.411 35.316 35.421 35.453 35.393 35.413 35.533 35.596 35.618 35.658 35.653 35.616 35.803 35.971 35.993 36.031 36.111 36.103 36.081 36.108 36.143 36.183 36.266 36.306 36.301 36.346 36.423 36.426 36.448 36.513 36.578 36.588 36.621 36.646 36.668 36.671 36.723 36.778 36.786 36.808 36.858 36.911 36.873 36.873 36.918 36.946 36.966 36.946 36.971 37.108 37.176 37.205 37.193 37.059 36.963 36.988 37.024 37.03 37 37.035 37.117 37.188 37.243 37.355 37.369 37.346 37.327 37.238 37.108 37.016 36.923 36.723 36.541 36.378 36.241 36.193 36.261 36.316 36.313 36.376 36.381 36.328 36.231 36.233 36.283 36.333 36.336 36.341 36.433 36.433 36.376 36.131 35.943 35.933 35.983 36.096 36.303 36.291 36.361 36.416 36.436 36.453 36.483 36.528 36.536 36.633 36.691 36.783 36.766 36.713 36.726 36.761 36.738 36.678 36.643 36.623 36.641 36.676 36.666 36.651 36.596 36.551 36.523 36.508 36.491 36.533 36.511 36.373 36.328 36.328 36.393 36.461 36.573 37.133 38.046 39.046 39.783 40.286 40.801 41.116 41.126 40.711 40.293 40.108 39.453 38.378 37.356 36.583 36.346 36.223 36.233 36.211 36.228 36.256 36.256 36.253 36.291 36.316 36.321 36.318 36.306 36.356 36.406 36.478 36.538 36.566 36.578 36.578 36.601 36.571 36.541 36.503 36.478 36.478 36.536 36.586 36.633 36.648 36.673 36.686 36.753 36.788 36.841 36.908 36.948 36.978 37.038 37.123 37.166 37.216 37.308 37.356 37.411 37.478 37.563 37.628 37.681 37.741 37.793 37.828 37.886 37.926 37.938 37.988 38.026 38.043 38.066 38.126 38.146 38.176 38.208 38.246 38.271 38.321 38.308 38.343 38.385 38.353 38.275 38.2 38.16 38.168 38.155 38.178 38.215 38.275 38.283 38.3 38.315 38.3 38.295 38.293 38.28 38.27 38.273 38.273 38.303 38.295 38.333 38.325 38.325 38.328 38.35 38.358 38.335 38.335 38.325 38.325 38.305 38.32 38.295 38.32 38.295 38.268 38.265 38.233 38.22 38.208 38.155 38.1 38.075 38.01 37.975 37.923 37.903 37.885 37.843 37.815 37.79 37.75 37.695 37.638 37.543 37.455 37.378 37.303 37.243 37.2 37.155 37.113 37.06 37.03 36.963 36.92 36.883 36.845 36.813 36.758 36.678 36.62 36.558 36.545 36.51 36.488 36.478 36.465 36.415 36.393 36.34 36.323 36.27 36.228 36.185 36.158 36.083 36.018 35.935 35.898 35.89 35.895 36.125 36.283 36.355 36.393 36.383 36.338 36.352 36.417 36.417 36.417 36.387 36.29 36.18 36.18 36.162 36.175 36.152 36.145 36.14 36.15 36.092 36.09 36.115 36.092 36.082 36.052 36.025 36.03 36.002 35.887 35.787 35.71 35.637 35.585 35.577 35.582 35.56 35.51 35.407 35.347 35.337 35.312 35.367 35.37 35.415 35.442 35.395
34.811 34.864 34.911 34.969 34.999 34.839 34.466 34.136 34.024 33.851 33.789 34.401 34.889 35.156 35.179 35.131 35.116 35.109 35.109 35.081 35.076 35.056 35.036 35.009 35.029 35.021 35.031 35.016 35.011 34.991 34.976 34.991 34.981 34.994 34.986 35.004 34.991 34.991 34.991 34.969 34.989 35.039 35.121 35.104 35.096 35.126 35.168 35.183 35.216 34.991 34.653 34.346 34.273 35.071 35.396 35.343 35.351 35.428 35.433 35.371 35.323 35.323 35.266 35.331 35.261 35.238 35.263 35.291 35.241 35.223 35.291 35.336 35.248 35.258 35.346 35.371 35.358 35.393 35.426 35.338 35.343 35.426 35.446 35.421 35.473 35.586 35.641 35.646 35.691 35.631 35.691 35.883 35.996 36.043 36.098 36.131 36.101 36.141 36.168 36.186 36.228 36.318 36.328 36.353 36.418 36.468 36.491 36.508 36.576 36.608 36.638 36.651 36.681 36.713 36.718 36.766 36.816 36.841 36.886 36.911 36.928 36.893 36.911 36.968 36.958 36.993 36.976 37.058 37.126 37.203 37.223 37.16 37.013 37.003 37.043 37.039 37.009 37.06 37.098 37.154 37.2 37.293 37.347 37.272 37.247 37.226 37.143 37.036 36.963 36.828 36.698 36.553 36.336 36.231 36.193 36.281 36.268 36.353 36.423 36.463 36.368 36.266 36.248 36.301 36.341 36.276 36.376 36.403 36.421 36.296 36.011 35.948 35.961 36.016 36.191 36.291 36.286 36.373 36.408 36.416 36.456 36.498 36.518 36.581 36.621 36.733 36.791 36.771 36.711 36.733 36.778 36.751 36.713 36.658 36.651 36.676 36.678 36.653 36.603 36.556 36.538 36.523 36.476 36.451 36.388 36.283 36.233 36.216 36.263 36.396 36.493 36.936 37.931 38.843 39.548 40.103 40.633 41.083 41.221 40.871 40.378 40.186 39.733 38.726 37.668 36.818 36.418 36.241 36.228 36.226 36.248 36.261 36.273 36.263 36.281 36.293 36.288 36.303 36.321 36.331 36.401 36.468 36.531 36.573 36.593 36.611 36.601 36.578 36.528 36.498 36.451 36.503 36.551 36.571 36.611 36.653 36.653 36.686 36.741 36.791 36.831 36.896 36.948 36.976 37.013 37.093 37.166 37.223 37.283 37.361 37.406 37.463 37.528 37.598 37.671 37.743 37.801 37.838 37.888 37.928 37.948 37.976 38.023 38.033 38.051 38.101 38.131 38.161 38.198 38.243 38.281 38.311 38.346 38.343 38.28 38.185 38.15 38.145 38.148 38.155 38.15 38.23 38.235 38.26 38.253 38.24 38.248 38.245 38.255 38.28 38.26 38.27 38.27 38.273 38.278 38.293 38.293 38.308 38.32 38.318 38.333 38.335 38.35 38.325 38.32 38.318 38.3 38.32 38.305 38.305 38.34 38.293 38.27 38.25 38.205 38.19 38.138 38.09 38.063 38.035 38 37.943 37.915 37.875 37.848 37.833 37.81 37.763 37.728 37.665 37.593 37.513 37.435 37.353 37.29 37.22 37.16 37.123 37.088 37.043 36.985 36.945 36.915 36.85 36.798 36.773 36.688 36.628 36.568 36.55 36.518 36.478 36.485 36.458 36.415 36.378 36.34 36.31 36.27 36.228 36.175 36.14 36.085 36.02 35.938 35.868 35.85 35.815 35.905 36.2 36.343 36.38 36.38 36.365 36.315 36.35 36.42 36.427 36.325 36.272 36.277 36.225 36.177 36.185 36.167 36.185 36.17 36.15 36.112 36.127 36.105 36.09 36.075 36.06 36.042 36.027 35.972 35.877 35.782 35.7 35.657 35.582 35.537 35.487 35.495 35.462 35.355 35.29 35.355 35.372 35.375 35.397 35.422 35.445 35.395
34.816 34.951 34.969 34.861 34.489 34.206 33.876 33.734 33.864 34.041 34.296 34.861 34.976 35.051 35.054 35.081 35.064 35.026 35.019 35.006 34.986 34.959 34.976 34.939 34.949 34.971 34.996 34.979 34.991 34.979 34.989 34.956 34.979 34.974 34.969 34.984 34.994 34.954 34.964 34.986 34.989 34.996 35.094 35.126 35.128 35.153 35.178 35.208 35.246 35.253 35.081 34.766 34.288 34.356 34.993 35.083 35.241 35.378 35.396 35.368 35.391 35.336 35.308 35.326 35.318 35.263 35.263 35.311 35.291 35.236 35.241 35.321 35.306 35.231 35.318 35.416 35.378 35.348 35.411 35.383 35.331 35.386 35.468 35.433 35.428 35.538 35.623 35.646 35.718 35.703 35.661 35.806 36.001 36.028 36.046 36.116 36.131 36.126 36.151 36.191 36.228 36.318 36.353 36.363 36.413 36.481 36.503 36.521 36.566 36.608 36.661 36.658 36.713 36.733 36.741 36.781 36.846 36.863 36.873 36.913 36.918 36.941 36.956 36.976 37.013 37.038 37.006 37.041 37.101 37.191 37.231 37.231 37.098 36.997 37.025 37.027 37.028 37.067 37.092 37.156 37.251 37.223 37.091 36.948 37 37.176 37.158 37.063 36.991 36.938 36.828 36.651 36.478 36.313 36.193 36.233 36.278 36.311 36.368 36.406 36.413 36.363 36.263 36.258 36.336 36.316 36.361 36.393 36.431 36.291 36.038 35.918 35.933 36.001 36.081 36.273 36.271 36.303 36.376 36.411 36.451 36.478 36.516 36.586 36.623 36.696 36.748 36.778 36.728 36.748 36.781 36.791 36.728 36.706 36.681 36.686 36.706 36.671 36.631 36.556 36.553 36.541 36.506 36.453 36.396 36.331 36.263 36.228 36.203 36.326 36.418 36.716 37.611 38.541 39.476 40.096 40.521 41.021 41.238 41.033 40.513 40.281 39.988 39.143 38.008 36.968 36.396 36.241 36.221 36.236 36.243 36.266 36.266 36.263 36.248 36.288 36.306 36.316 36.326 36.343 36.388 36.416 36.503 36.568 36.608 36.618 36.598 36.568 36.556 36.501 36.498 36.531 36.546 36.553 36.598 36.651 36.681 36.681 36.716 36.788 36.828 36.881 36.938 36.991 37.026 37.088 37.163 37.191 37.251 37.321 37.378 37.456 37.523 37.598 37.661 37.758 37.798 37.851 37.863 37.931 37.968 37.993 37.978 38.008 38.056 38.083 38.103 38.136 38.193 38.253 38.293 38.296 38.233 38.178 38.128 38.125 38.113 38.115 38.133 38.178 38.205 38.213 38.21 38.19 38.178 38.208 38.233 38.235 38.253 38.265 38.258 38.263 38.275 38.263 38.273 38.27 38.275 38.288 38.308 38.32 38.313 38.325 38.318 38.325 38.318 38.313 38.32 38.32 38.315 38.318 38.318 38.295 38.295 38.248 38.175 38.153 38.12 38.113 38.083 38.04 38.003 37.965 37.92 37.91 37.863 37.823 37.833 37.778 37.745 37.685 37.64 37.59 37.488 37.405 37.36 37.255 37.18 37.15 37.125 37.09 37.018 36.965 36.915 36.868 36.818 36.758 36.695 36.648 36.59 36.548 36.493 36.463 36.47 36.428 36.41 36.378 36.353 36.298 36.25 36.195 36.153 36.115 36.05 36.005 35.925 35.84 35.808 35.788 35.785 36.063 36.33 36.34 36.388 36.368 36.335 36.26 36.305 36.322 36.292 36.327 36.32 36.262 36.212 36.187 36.225 36.217 36.17 36.142 36.15 36.145 36.115 36.082 36.042 36.05 36.042 36.007 35.917 35.825 35.705 35.675 35.66 35.522 35.455 35.41 35.352 35.312 35.322 35.327 35.352 35.42 35.432 35.395 35.395 35.432 35.412
34.686 34.786 34.714 34.304 33.854 33.776 34.021 34.271 34.471 34.576 34.841 34.984 35.009 35.006 35.024 35.016 35.004 34.996 34.979 34.976 34.969 34.919 34.921 34.911 34.919 34.984 34.989 34.966 34.954 34.959 34.969 34.959 34.971 34.976 34.981 35.001 34.981 34.971 34.959 35.031 35.054 35.026 35.091 35.134 35.148 35.186 35.211 35.216 35.266 35.311 35.323 35.251 34.748 34.346 34.441 34.698 34.978 35.236 35.303 35.388 35.518 35.488 35.396 35.361 35.358 35.326 35.251 35.286 35.316 35.266 35.213 35.298 35.356 35.313 35.276 35.368 35.438 35.371 35.408 35.461 35.416 35.381 35.453 35.443 35.456 35.483 35.611 35.648 35.726 35.766 35.741 35.748 35.941 36.041 36.068 36.076 36.141 36.148 36.166 36.203 36.236 36.271 36.351 36.386 36.408 36.473 36.523 36.546 36.546 36.626 36.696 36.688 36.718 36.723 36.733 36.726 36.828 36.858 36.863 36.891 36.886 36.953 36.973 36.971 37.008 37.066 37.068 37.031 37.058 37.143 37.203 37.25 37.246 37.14 37.033 37.015 37.038 37.069 37.115 37.166 37.266 37.178 36.99 36.868 36.903 37.14 37.215 37.099 37.03 36.976 36.946 36.818 36.676 36.456 36.251 36.223 36.246 36.293 36.298 36.351 36.448 36.423 36.276 36.246 36.276 36.323 36.353 36.386 36.418 36.373 36.261 36.013 35.966 35.953 36.013 36.158 36.273 36.238 36.321 36.401 36.446 36.471 36.518 36.566 36.618 36.663 36.678 36.721 36.756 36.721 36.758 36.826 36.808 36.776 36.738 36.718 36.731 36.713 36.661 36.581 36.538 36.528 36.463 36.438 36.406 36.383 36.311 36.308 36.256 36.296 36.358 36.588 37.401 38.353 39.391 40.103 40.441 40.998 41.296 41.181 40.691 40.376 40.121 39.338 38.326 37.271 36.526 36.291 36.211 36.256 36.266 36.258 36.271 36.266 36.276 36.311 36.281 36.311 36.308 36.333 36.381 36.423 36.506 36.538 36.553 36.601 36.601 36.586 36.551 36.548 36.533 36.538 36.548 36.573 36.616 36.648 36.678 36.693 36.726 36.763 36.828 36.903 36.933 36.983 37.026 37.058 37.118 37.191 37.253 37.318 37.381 37.451 37.526 37.591 37.671 37.721 37.786 37.831 37.881 37.933 37.973 37.981 37.998 38.023 38.071 38.078 38.126 38.168 38.218 38.258 38.226 38.183 38.123 38.061 38.09 38.09 38.055 38.11 38.183 38.198 38.193 38.16 38.165 38.15 38.173 38.188 38.195 38.223 38.208 38.215 38.258 38.245 38.238 38.243 38.223 38.243 38.258 38.26 38.258 38.298 38.305 38.305 38.318 38.293 38.303 38.315 38.328 38.33 38.33 38.31 38.303 38.268 38.263 38.22 38.17 38.17 38.145 38.143 38.083 38.058 38.018 37.995 37.943 37.92 37.875 37.85 37.843 37.795 37.778 37.72 37.69 37.64 37.568 37.463 37.398 37.305 37.223 37.173 37.128 37.1 37.035 36.983 36.925 36.873 36.805 36.775 36.718 36.663 36.593 36.543 36.523 36.48 36.458 36.43 36.41 36.375 36.31 36.275 36.24 36.173 36.138 36.083 36.033 35.978 35.918 35.86 35.815 35.77 35.75 35.998 36.325 36.323 36.35 36.375 36.352 36.322 36.287 36.257 36.242 36.257 36.24 36.22 36.222 36.257 36.222 36.185 36.167 36.177 36.127 36.157 36.14 36.11 36.085 36.077 36.027 35.982 35.907 35.822 35.69 35.635 35.552 35.505 35.467 35.367 35.31 35.295 35.315 35.305 35.32 35.385 35.435 35.417 35.397 35.382 35.397
34.036 33.871 33.586 33.489 33.714 34.141 34.639 34.854 34.944 34.974 35.006 35.004 34.949 34.916 34.936 34.959 34.919 34.941 34.921 34.911 34.879 34.864 34.856 34.884 34.924 34.929 34.956 34.974 34.959 34.944 34.961 34.949 34.946 34.949 34.954 35.004 34.999 34.974 34.984 35.054 35.036 35.039 35.101 35.151 35.198 35.226 35.238 35.263 35.273 35.318 35.368 35.393 35.176 34.681 34.298 34.421 34.668 35.006 35.303 35.446 35.563 35.573 35.461 35.371 35.323 35.273 35.228 35.251 35.306 35.306 35.243 35.243 35.303 35.321 35.253 35.276 35.411 35.413 35.358 35.408 35.461 35.446 35.391 35.466 35.496 35.428 35.546 35.673 35.681 35.748 35.836 35.813 35.858 36.018 36.063 36.091 36.148 36.196 36.183 36.203 36.238 36.276 36.341 36.396 36.431 36.451 36.516 36.551 36.563 36.623 36.681 36.718 36.723 36.723 36.758 36.781 36.813 36.856 36.898 36.886 36.906 36.966 36.991 36.996 36.996 37.048 37.073 37.066 37.063 37.098 37.181 37.251 37.284 37.262 37.099 37.002 37.057 37.105 37.143 37.186 37.23 37.149 36.973 36.871 36.89 37.157 37.257 37.156 37.036 36.986 36.986 37.001 36.943 36.681 36.411 36.251 36.233 36.288 36.323 36.336 36.416 36.428 36.373 36.231 36.236 36.316 36.351 36.391 36.441 36.451 36.441 36.298 36.018 35.991 36.011 36.038 36.146 36.213 36.311 36.386 36.461 36.486 36.546 36.546 36.596 36.658 36.673 36.678 36.718 36.681 36.703 36.791 36.811 36.823 36.781 36.748 36.758 36.743 36.688 36.651 36.603 36.556 36.461 36.408 36.438 36.416 36.333 36.316 36.278 36.301 36.368 36.596 37.316 38.181 39.273 40.101 40.413 40.946 41.336 41.311 40.918 40.568 40.323 39.653 38.558 37.408 36.571 36.403 36.233 36.261 36.246 36.256 36.283 36.298 36.313 36.296 36.291 36.346 36.346 36.376 36.388 36.418 36.446 36.508 36.548 36.583 36.636 36.621 36.586 36.568 36.558 36.578 36.556 36.576 36.601 36.618 36.641 36.698 36.746 36.773 36.811 36.866 36.921 36.981 37.023 37.053 37.123 37.196 37.261 37.313 37.388 37.458 37.511 37.583 37.661 37.713 37.776 37.836 37.901 37.901 37.938 37.978 38.008 38.016 38.066 38.106 38.158 38.201 38.233 38.191 38.091 38.028 38.028 38.036 38.088 38.113 38.113 38.168 38.165 38.168 38.14 38.135 38.13 38.148 38.16 38.165 38.18 38.213 38.22 38.238 38.233 38.2 38.208 38.203 38.243 38.23 38.218 38.23 38.26 38.265 38.303 38.285 38.31 38.303 38.308 38.333 38.33 38.338 38.305 38.285 38.26 38.238 38.225 38.195 38.18 38.173 38.13 38.113 38.085 38.06 38.043 38.005 37.983 37.925 37.89 37.843 37.82 37.833 37.788 37.75 37.705 37.673 37.593 37.5 37.443 37.358 37.27 37.195 37.15 37.1 37.068 36.998 36.945 36.873 36.825 36.78 36.74 36.663 36.635 36.553 36.515 36.478 36.453 36.453 36.408 36.358 36.323 36.248 36.2 36.173 36.105 36.063 36.035 35.97 35.93 35.853 35.785 35.758 35.753 35.805 36.13 36.3 36.308 36.345 36.352 36.332 36.302 36.267 36.262 36.252 36.24 36.222 36.24 36.237 36.2 36.185 36.15 36.157 36.155 36.137 36.137 36.12 36.1 36.057 36.01 35.972 35.925 35.867 35.71 35.61 35.58 35.495 35.405 35.38 35.322 35.307 35.335 35.347 35.302 35.327 35.382 35.397 35.392 35.367 35.392
33.576 33.814 34.154 34.251 34.149 34.526 34.871 34.939 34.951 34.956 35.001 34.904 34.901 34.861 34.924 34.899 34.841 34.894 34.876 34.854 34.849 34.881 34.889 34.816 34.881 34.916 34.904 34.931 34.936 34.909 34.929 34.924 34.919 34.949 34.944 34.959 34.974 34.979 35.011 35.049 35.056 35.041 35.119 35.156 35.226 35.261 35.271 35.296 35.338 35.386 35.356 35.423 35.408 35.088 34.788 34.386 34.383 34.823 35.253 35.431 35.531 35.558 35.483 35.351 35.341 35.296 35.293 35.243 35.276 35.308 35.298 35.253 35.288 35.356 35.336 35.248 35.351 35.448 35.406 35.376 35.466 35.473 35.413 35.403 35.486 35.473 35.513 35.603 35.671 35.721 35.783 35.806 35.756 35.936 36.121 36.121 36.123 36.196 36.243 36.213 36.281 36.318 36.338 36.403 36.436 36.476 36.493 36.563 36.588 36.613 36.668 36.728 36.748 36.746 36.783 36.806 36.808 36.851 36.916 36.936 36.961 36.973 37.006 36.996 37.008 37.066 37.098 37.088 37.068 37.101 37.141 37.233 37.293 37.293 37.234 37.089 37.077 37.145 37.157 37.139 37.167 37.093 37.004 36.903 36.894 37.095 37.258 37.184 37.095 37.022 36.996 37.033 37.036 36.821 36.601 36.336 36.226 36.276 36.303 36.353 36.368 36.436 36.473 36.328 36.258 36.301 36.316 36.343 36.426 36.426 36.448 36.481 36.223 36.051 35.968 35.983 36.093 36.238 36.306 36.368 36.421 36.491 36.501 36.523 36.576 36.608 36.633 36.651 36.691 36.683 36.688 36.738 36.828 36.848 36.838 36.801 36.816 36.786 36.748 36.718 36.668 36.611 36.508 36.426 36.378 36.346 36.328 36.293 36.311 36.358 36.413 36.543 37.163 38.093 39.188 40.111 40.458 40.868 41.308 41.423 41.081 40.636 40.401 39.823 38.743 37.631 36.786 36.338 36.238 36.253 36.261 36.263 36.263 36.273 36.293 36.306 36.323 36.356 36.383 36.413 36.416 36.398 36.418 36.466 36.523 36.583 36.626 36.638 36.606 36.603 36.611 36.591 36.546 36.578 36.588 36.601 36.651 36.713 36.751 36.783 36.798 36.868 36.913 36.958 37.018 37.043 37.113 37.193 37.266 37.338 37.391 37.458 37.511 37.576 37.651 37.701 37.763 37.806 37.866 37.878 37.923 37.963 38.008 38.048 38.113 38.156 38.226 38.183 38.088 38.053 37.988 37.998 38.013 38.031 38.085 38.105 38.135 38.118 38.125 38.128 38.113 38.108 38.125 38.13 38.145 38.163 38.183 38.175 38.2 38.198 38.225 38.208 38.213 38.198 38.203 38.203 38.2 38.218 38.243 38.26 38.263 38.273 38.31 38.308 38.325 38.328 38.32 38.308 38.273 38.238 38.223 38.233 38.208 38.183 38.183 38.165 38.133 38.105 38.105 38.088 38.06 38.025 37.99 37.945 37.9 37.858 37.833 37.828 37.798 37.773 37.718 37.675 37.638 37.563 37.483 37.408 37.298 37.233 37.17 37.125 37.07 37.01 36.955 36.898 36.825 36.775 36.738 36.67 36.625 36.558 36.523 36.48 36.443 36.45 36.395 36.353 36.298 36.253 36.203 36.148 36.1 36.058 36.018 35.953 35.903 35.868 35.81 35.763 35.72 35.67 36.158 36.345 36.303 36.345 36.355 36.35 36.337 36.28 36.285 36.292 36.27 36.222 36.237 36.237 36.182 36.2 36.17 36.167 36.157 36.137 36.135 36.127 36.082 36.042 35.972 35.92 35.837 35.722 35.6 35.582 35.495 35.407 35.38 35.365 35.275 35.29 35.317 35.34 35.317 35.315 35.335 35.34 35.37 35.39 35.435
34.319 34.749 34.931 34.776 34.751 34.899 34.954 34.956 34.931 34.879 34.886 34.871 34.889 34.836 34.846 34.811 34.796 34.816 34.831 34.854 34.856 34.861 34.864 34.891 34.821 34.901 34.909 34.909 34.934 34.914 34.916 34.914 34.931 34.949 34.986 34.951 34.946 34.999 35.001 35.029 35.061 35.091 35.124 35.151 35.231 35.261 35.303 35.336 35.361 35.403 35.431 35.431 35.446 35.443 35.221 34.743 34.358 34.513 34.906 35.173 35.456 35.561 35.516 35.351 35.333 35.356 35.338 35.306 35.281 35.306 35.356 35.343 35.291 35.361 35.373 35.278 35.288 35.401 35.446 35.413 35.433 35.483 35.461 35.393 35.508 35.563 35.521 35.553 35.663 35.713 35.746 35.833 35.771 35.841 36.063 36.161 36.131 36.178 36.253 36.273 36.256 36.298 36.356 36.388 36.463 36.506 36.511 36.556 36.608 36.636 36.648 36.723 36.756 36.763 36.793 36.816 36.851 36.873 36.891 36.943 36.951 36.976 36.996 37.041 37.053 37.043 37.086 37.098 37.091 37.098 37.098 37.171 37.211 37.28 37.293 37.217 37.145 37.155 37.129 37.097 37.058 37.024 36.959 36.927 36.914 37.032 37.255 37.207 37.165 37.09 37.05 37.068 37.018 36.901 36.703 36.476 36.303 36.243 36.261 36.288 36.338 36.398 36.446 36.448 36.311 36.263 36.291 36.343 36.401 36.376 36.403 36.446 36.441 36.333 36.038 35.978 36.031 36.178 36.338 36.331 36.433 36.488 36.491 36.526 36.581 36.571 36.596 36.621 36.678 36.723 36.718 36.716 36.801 36.823 36.856 36.848 36.871 36.838 36.806 36.793 36.723 36.658 36.558 36.488 36.363 36.298 36.281 36.266 36.301 36.376 36.421 36.533 37.183 38.123 39.086 40.028 40.448 40.858 41.336 41.501 41.233 40.706 40.493 39.996 38.968 37.808 36.948 36.391 36.246 36.231 36.261 36.268 36.256 36.291 36.313 36.311 36.331 36.381 36.398 36.411 36.401 36.388 36.428 36.438 36.508 36.598 36.618 36.641 36.626 36.636 36.631 36.596 36.578 36.563 36.568 36.621 36.666 36.718 36.721 36.786 36.821 36.876 36.913 36.958 36.981 37.048 37.113 37.191 37.263 37.328 37.386 37.451 37.523 37.568 37.623 37.686 37.751 37.788 37.821 37.861 37.931 37.961 38.011 38.063 38.131 38.183 38.196 38.083 37.968 37.958 37.998 37.998 38.038 38.051 38.063 38.063 38.068 38.025 38.088 38.093 38.098 38.105 38.13 38.115 38.135 38.14 38.138 38.168 38.145 38.165 38.188 38.185 38.168 38.175 38.17 38.18 38.18 38.213 38.228 38.255 38.255 38.273 38.283 38.29 38.308 38.305 38.3 38.273 38.26 38.218 38.18 38.185 38.195 38.173 38.17 38.158 38.13 38.113 38.105 38.095 38.065 38.018 37.995 37.96 37.915 37.888 37.848 37.825 37.825 37.78 37.745 37.695 37.65 37.593 37.538 37.443 37.338 37.258 37.18 37.103 37.063 37.005 36.95 36.883 36.823 36.758 36.698 36.673 36.618 36.583 36.525 36.495 36.455 36.433 36.378 36.32 36.293 36.243 36.183 36.125 36.083 36.04 35.99 35.935 35.893 35.878 35.8 35.738 35.72 35.693 35.858 36.328 36.278 36.28 36.345 36.375 36.345 36.287 36.285 36.285 36.26 36.232 36.312 36.307 36.235 36.262 36.257 36.252 36.215 36.185 36.147 36.11 36.067 35.985 35.905 35.802 35.7 35.59 35.54 35.517 35.425 35.41 35.407 35.395 35.29 35.285 35.322 35.352 35.317 35.295 35.325 35.322 35.367 35.417 35.465
34.771 34.839 34.834 34.896 34.876 34.921 34.896 34.879 34.819 34.814 34.776 34.799 34.794 34.806 34.816 34.821 34.831 34.794 34.834 34.846 34.824 34.799 34.831 34.831 34.809 34.799 34.864 34.929 34.879 34.919 34.929 34.941 34.946 34.961 34.941 34.944 34.946 34.989 34.999 35.031 35.049 35.061 35.129 35.159 35.216 35.271 35.333 35.366 35.401 35.448 35.448 35.461 35.491 35.468 35.458 35.203 34.693 34.346 34.586 34.926 35.378 35.598 35.601 35.441 35.383 35.378 35.363 35.373 35.331 35.293 35.323 35.396 35.318 35.306 35.356 35.373 35.298 35.328 35.428 35.443 35.406 35.506 35.563 35.461 35.458 35.568 35.553 35.541 35.593 35.698 35.741 35.781 35.811 35.793 35.956 36.146 36.193 36.201 36.263 36.281 36.273 36.301 36.348 36.353 36.438 36.503 36.531 36.533 36.631 36.666 36.661 36.661 36.721 36.801 36.826 36.826 36.881 36.886 36.863 36.933 36.983 36.998 36.996 37.031 37.063 37.073 37.058 37.106 37.118 37.121 37.146 37.128 37.166 37.25 37.29 37.277 37.204 37.185 37.113 37.081 37.057 37.012 36.951 36.924 36.923 37.005 37.245 37.25 37.196 37.148 37.083 37.068 37.073 37.078 36.996 36.731 36.443 36.253 36.231 36.271 36.348 36.378 36.398 36.453 36.416 36.273 36.256 36.286 36.333 36.398 36.421 36.466 36.506 36.578 36.283 36.001 36.018 36.073 36.261 36.343 36.401 36.431 36.458 36.476 36.513 36.528 36.608 36.646 36.636 36.698 36.721 36.706 36.726 36.766 36.823 36.863 36.918 36.918 36.863 36.846 36.791 36.723 36.658 36.523 36.386 36.296 36.263 36.196 36.261 36.388 36.488 36.571 37.161 38.091 39.011 39.991 40.451 40.878 41.353 41.561 41.373 40.893 40.518 40.026 39.136 38.026 37.066 36.506 36.296 36.226 36.258 36.273 36.266 36.308 36.326 36.356 36.368 36.388 36.378 36.383 36.363 36.378 36.383 36.423 36.503 36.603 36.623 36.633 36.658 36.656 36.621 36.601 36.583 36.573 36.578 36.633 36.658 36.718 36.743 36.786 36.813 36.836 36.881 36.958 37.016 37.083 37.126 37.196 37.283 37.353 37.398 37.441 37.511 37.558 37.616 37.668 37.718 37.756 37.803 37.868 37.928 37.988 38.041 38.126 38.171 38.078 37.998 37.926 37.936 37.966 37.978 38.023 38.041 38.026 38.03 38.033 38.03 38.003 38.045 38.088 38.098 38.115 38.125 38.113 38.108 38.1 38.108 38.143 38.143 38.16 38.175 38.16 38.165 38.16 38.158 38.16 38.165 38.193 38.2 38.21 38.238 38.253 38.26 38.295 38.288 38.28 38.263 38.235 38.225 38.185 38.195 38.168 38.183 38.18 38.15 38.148 38.138 38.11 38.095 38.078 38.055 38.02 38.003 37.985 37.933 37.888 37.84 37.825 37.81 37.8 37.785 37.715 37.678 37.623 37.565 37.493 37.383 37.29 37.19 37.09 37.033 36.995 36.928 36.868 36.813 36.765 36.713 36.688 36.633 36.598 36.53 36.503 36.473 36.398 36.345 36.298 36.268 36.205 36.15 36.113 36.07 36.01 36.003 35.94 35.91 35.883 35.818 35.745 35.708 35.7 35.685 36.085 36.315 36.268 36.347 36.367 36.35 36.33 36.26 36.297 36.265 36.277 36.322 36.367 36.347 36.325 36.272 36.297 36.25 36.197 36.127 36.06 35.985 35.852 35.767 35.715 35.587 35.485 35.437 35.465 35.47 35.425 35.395 35.327 35.3 35.312 35.337 35.342 35.31 35.322 35.312 35.285 35.32 35.387 35.42
34.834 34.816 34.886 34.899 34.879 34.839 34.821 34.739 34.716 34.731 34.699 34.776 34.781 34.804 34.821 34.844 34.831 34.821 34.834 34.846 34.816 34.801 34.819 34.856 34.886 34.801 34.836 34.866 34.876 34.899 34.919 34.954 34.921 34.924 34.906 34.924 34.969 34.986 35.004 35.036 35.049 35.086 35.146 35.154 35.206 35.281 35.336 35.378 35.431 35.441 35.486 35.501 35.493 35.501 35.488 35.493 35.188 34.693 34.333 34.791 35.313 35.583 35.571 35.526 35.551 35.476 35.411 35.368 35.383 35.353 35.313 35.361 35.381 35.326 35.338 35.403 35.353 35.306 35.368 35.473 35.426 35.446 35.531 35.516 35.468 35.521 35.611 35.558 35.566 35.721 35.763 35.723 35.823 35.826 35.856 36.073 36.198 36.193 36.236 36.318 36.333 36.326 36.353 36.351 36.436 36.496 36.531 36.561 36.591 36.643 36.678 36.688 36.713 36.796 36.826 36.838 36.871 36.926 36.886 36.923 36.973 37.006 37.013 36.993 37.046 37.093 37.076 37.091 37.123 37.106 37.111 37.098 37.146 37.206 37.261 37.254 37.169 37.094 37.091 37.121 37.079 37.033 37.002 36.972 36.923 36.957 37.219 37.268 37.225 37.183 37.12 37.074 37.068 37.111 37.138 37.048 36.668 36.333 36.248 36.238 36.281 36.306 36.368 36.411 36.478 36.351 36.286 36.258 36.316 36.393 36.416 36.438 36.476 36.553 36.428 36.051 36.008 36.066 36.158 36.246 36.331 36.371 36.461 36.456 36.488 36.491 36.571 36.616 36.618 36.636 36.676 36.683 36.686 36.716 36.756 36.823 36.901 36.948 36.931 36.891 36.853 36.791 36.676 36.563 36.421 36.318 36.278 36.188 36.276 36.381 36.473 36.578 37.148 38.061 39.001 39.948 40.491 40.928 41.393 41.646 41.416 40.946 40.611 40.116 39.273 38.196 37.271 36.573 36.351 36.238 36.276 36.323 36.308 36.333 36.393 36.393 36.381 36.363 36.363 36.371 36.366 36.381 36.383 36.428 36.486 36.566 36.611 36.638 36.666 36.661 36.621 36.633 36.628 36.638 36.623 36.628 36.656 36.688 36.713 36.773 36.816 36.843 36.886 36.971 37.018 37.076 37.143 37.206 37.281 37.331 37.378 37.441 37.526 37.556 37.586 37.628 37.708 37.751 37.803 37.856 37.938 38.016 38.083 38.081 38.018 37.918 37.903 37.906 37.938 37.976 37.986 38.006 38.026 38.023 37.995 38.02 38.023 37.988 38.003 38.073 38.095 38.088 38.105 38.103 38.1 38.108 38.108 38.138 38.14 38.16 38.175 38.148 38.15 38.133 38.125 38.155 38.165 38.168 38.195 38.198 38.213 38.233 38.255 38.268 38.253 38.243 38.213 38.213 38.195 38.165 38.173 38.163 38.163 38.155 38.148 38.125 38.128 38.095 38.093 38.083 38.073 38.045 38.018 37.97 37.945 37.903 37.835 37.818 37.805 37.82 37.765 37.738 37.693 37.633 37.568 37.505 37.42 37.315 37.22 37.098 37.023 36.955 36.925 36.878 36.823 36.77 36.733 36.69 36.635 36.615 36.585 36.495 36.428 36.375 36.33 36.285 36.248 36.205 36.153 36.108 36.048 36.003 35.978 35.96 35.91 35.87 35.813 35.778 35.723 35.705 35.65 35.865 36.288 36.295 36.322 36.342 36.362 36.355 36.275 36.287 36.272 36.37 36.407 36.37 36.367 36.412 36.322 36.26 36.275 36.19 36.072 35.97 35.862 35.762 35.697 35.597 35.477 35.435 35.47 35.465 35.462 35.42 35.372 35.31 35.3 35.342 35.335 35.342 35.317 35.34 35.3 35.26 35.31 35.357 35.4
